0.015557 -0.003871 -0.003300
0.030174 -0.015399 0.005463
-0.041491 -0.007008 0.009786
0.000327 -0.012228 0.004655
0.008062 -0.002560 0.021474
0.001897 -0.012081 0.005970
0.024381 -0.014440 0.001269
0.022719 -0.014593 0.017728
0.001317 -0.012044 0.005082
0.037599 -0.015457 0.012856
0.004412 -0.011979 0.004833
0.023672 -0.002088 0.003800
-0.007905 -0.021078 0.002569
-0.040398 -0.011883 0.008520
0.002597 -0.011963 0.005965
-0.000223 -0.012352 0.004626
-0.042956 -0.011633 0.008116
-0.024788 -0.010728 0.020300
0.029832 -0.016470 0.010046
0.006907 -0.012278 0.004635
-0.038801 -0.019523 0.013708
-0.009441 -0.011360 -0.002750
-0.037763 -0.019823 0.014019
0.031814 -0.015980 0.006845
-0.040166 -0.009519 0.004075
0.000697 -0.010879 0.020300
0.001817 -0.011258 -0.000052
-0.039438 -0.007958 0.014800
-0.007637 -0.000302 0.019150
0.005845 -0.011887 0.004768
0.037166 -0.007126 0.018663
-0.003749 -0.016518 0.010000
0.041210 -0.008059 0.012000
-0.040427 -0.007717 0.013658
0.007072 -0.012256 0.004731
-0.027560 -0.019008 0.008534
0.042881 -0.014178 0.006095
-0.038466 -0.006674 0.004436
0.039762 -0.014745 0.004337
0.027062 -0.016945 0.010646
0.038639 -0.015513 0.013091
-0.002367 -0.012248 0.004732
0.001177 -0.012278 0.006235
-0.000528 -0.012048 0.005954
0.020692 -0.001898 0.002670
0.001527 -0.012338 0.006545
0.038885 -0.014763 0.012583
0.004807 -0.012205 0.004789
0.040392 -0.003158 0.014702
0.004457 -0.012323 0.006156
0.015511 -0.019773 0.014034
0.003202 -0.010258 -0.000433
0.007262 -0.011838 0.006136
-0.000573 -0.012229 0.005996
-0.039721 -0.009033 0.004884
0.035835 -0.021711 0.017946
0.032928 -0.018056 0.009000
-0.038682 -0.006304 0.004855
0.001307 -0.012409 0.006221
-0.001640 -0.020923 0.007608
0.021527 -0.001658 0.002760
-0.030473 -0.009138 0.019552
0.006557 -0.012321 0.004552
0.036030 -0.016370 0.010899
-0.028547 -0.019773 0.012638
0.007645 -0.012248 0.004731
-0.008524 -0.003782 0.019949
0.001897 -0.011976 0.005958
0.034872 -0.016945 0.001780
0.004677 -0.012278 0.004635
-0.023981 -0.003580 -0.003300
0.028481 -0.016420 0.010382
0.005507 -0.012079 0.005994
0.002344 -0.007949 0.019674
0.034336 -0.016220 0.009313
-0.038880 -0.005920 0.014630
-0.006751 -0.007760 0.020300
0.029378 -0.014763 0.004500
0.022787 -0.010632 0.018106
0.009560 -0.019473 0.003559
-0.000443 -0.012338 0.006261
-0.002123 -0.012138 0.004737
0.019643 -0.002064 0.002670
0.034465 -0.017870 0.009616
-0.020138 -0.007691 0.019422
0.018737 -0.018758 0.013835
0.006463 -0.001023 0.020731
-0.000412 -0.003678 0.021259
0.027855 -0.007805 0.019424
-0.015625 -0.018029 0.009553
0.033956 -0.021078 0.011999
0.029242 -0.016270 0.010959
-0.035984 -0.007108 0.019361
0.030277 -0.008377 0.019634
-0.025276 -0.018708 0.009331
0.009938 -0.010286 0.009029
0.006444 -0.000838 0.019037
0.007637 -0.012263 0.006058
0.030979 -0.014745 0.002776
-0.039533 -0.007002 0.012805
-0.029306 -0.011064 -0.003100
-0.000443 -0.012391 0.006193
0.038928 -0.002328 0.003081
0.029603 -0.015586 0.004462
-0.009704 -0.003984 0.021245
0.003453 -0.001003 0.019100
-0.004217 -0.001302 0.000544
0.042311 -0.002183 0.014939
0.025462 0.002028 -0.020500
-0.035338 0.000021 0.016462
0.002707 -0.012163 0.005990
-0.012211 -0.003598 -0.003300
0.009574 -0.003608 0.021456
0.028162 -0.017493 0.013700
-0.006759 -0.000328 0.017584
0.002687 -0.012120 0.004800
0.003722 -0.012049 0.005041
0.032881 -0.016205 0.009542
0.030366 -0.015980 0.008184
0.029383 -0.016969 0.014481
0.007174 -0.000109 0.017650
-0.007755 -0.001421 0.017507
0.001897 -0.012006 0.005951
0.033123 -0.015980 0.006849
-0.035526 -0.021078 0.016416
-0.000223 -0.012335 0.006252
0.030225 -0.010458 0.019444
0.032462 -0.001033 -0.002600
0.037897 -0.015476 0.012118
0.007722 -0.011748 0.005995
0.006707 -0.012228 0.006255
0.037530 -0.014705 0.012517
-0.028232 -0.012985 -0.002549
0.043353 0.001729 0.010647
-0.020561 -0.003513 0.021459
-0.003388 -0.019523 0.004539
-0.034209 -0.004180 -0.003321
-0.039066 -0.007584 0.005128
-0.002818 -0.012158 0.004375
-0.013012 -0.018708 0.003701
-0.040164 -0.009471 0.013656
0.035309 -0.020923 0.011593
-0.024988 -0.018758 0.009529
-0.038897 -0.007844 0.003359
0.031215 -0.016553 0.010366
0.029159 -0.010821 -0.003472
-0.037624 -0.018476 0.001746
-0.027711 -0.008288 0.019431
-0.040409 -0.006092 0.004436
0.012428 -0.019773 0.007048
-0.000528 -0.011903 0.004791
0.001912 -0.012062 0.005744
0.039442 -0.019473 0.012558
0.039130 -0.002496 0.015017
0.029471 -0.017076 0.014422
-0.039786 -0.008777 0.013147
-0.005163 0.000342 0.019100
0.002964 -0.005545 -0.014500
0.032390 -0.016348 0.009137
0.026972 -0.011011 0.010338
0.009978 -0.010262 0.009032
-0.035376 -0.019473 0.004406
0.034152 -0.016945 0.001954
0.007273 -0.000111 0.020664
0.029012 -0.004337 0.021427
0.034317 -0.017640 0.004180
-0.039365 -0.007564 0.003463
0.037810 -0.015595 0.012413
0.018253 -0.011419 -0.002750
0.013506 -0.021053 0.006014
-0.011785 0.001727 0.020017
-0.042927 -0.012280 0.008024
0.015985 -0.019523 0.014194
0.012856 -0.018758 0.007054
-0.004434 -0.001712 0.000824
0.024632 -0.001738 0.003650
0.026500 -0.014745 0.006824
-0.038528 -0.008286 0.004616
-0.035302 -0.019823 0.004538
-0.038466 -0.008692 0.003964
0.032160 -0.018099 0.008920
-0.043436 -0.012066 0.009000
-0.009781 -0.014593 0.000272
0.023249 -0.010960 -0.002750
0.020964 -0.003384 0.021463
0.024522 -0.008028 0.019666
-0.042101 -0.011139 0.010507
-0.027343 -0.019823 0.010477
0.000512 -0.012034 0.005037
0.002707 -0.012205 0.006001
-0.007905 -0.010458 0.000296
-0.035837 -0.000126 0.016036
0.007974 -0.001027 0.020721
-0.012702 -0.011076 -0.002750
-0.040053 -0.007420 0.014211
-0.042561 -0.011032 0.010144
0.033224 -0.016945 0.003182
0.009546 -0.018758 0.009544
-0.002818 0.000175 -0.020500
0.002007 -0.012323 0.006156
0.009295 -0.003354 -0.001346
-0.002190 -0.019823 0.006483
0.001772 -0.010258 0.019116
0.019082 -0.001928 0.002670
0.038532 -0.014597 0.011919
0.038782 -0.015445 0.013236
-0.016749 -0.018758 0.007242
-0.010247 -0.010408 -0.001765
0.003627 -0.012278 0.006155
0.015622 -0.002088 0.003830
0.017022 -0.001968 0.003830
0.026561 -0.011595 0.007403
-0.042093 -0.011703 0.010480
-0.038889 -0.004608 0.015723
-0.008780 -0.001485 0.021499
-0.003872 -0.011210 0.020806
0.006083 -0.011897 0.004769
0.028456 -0.017493 0.013727
-0.038822 -0.009296 0.004611
0.027339 -0.017532 0.016668
0.009244 -0.019473 0.003186
-0.006889 -0.001501 0.019151
0.024216 -0.014585 0.001285
0.039838 -0.021726 0.002990
-0.004259 -0.001278 -0.003500
0.038659 -0.002525 0.002793
0.011800 -0.003398 0.021463
0.017552 -0.003700 -0.002000
-0.022195 0.001717 0.010202
-0.020792 -0.021078 0.010893
-0.007678 -0.018369 0.007239
-0.000223 -0.011973 0.005982
0.004362 -0.011944 0.005730
0.024720 -0.002176 0.003824
0.029715 -0.014792 0.004213
0.022972 -0.001898 0.002670
0.009627 -0.018618 0.006870
-0.006221 -0.003601 -0.002000
-0.008084 -0.000832 0.017650
0.026995 -0.017110 0.014221
-0.025039 -0.010268 0.008969
0.014992 -0.011456 0.000162
0.005857 -0.011907 0.006020
0.019082 -0.001901 0.002685
0.004712 -0.012080 0.005055
-0.001904 -0.004260 0.006000
-0.042462 -0.011595 0.007632
0.018027 -0.001658 0.003740
-0.024598 -0.011058 0.008698
0.012526 -0.003039 -0.001603
-0.015873 -0.018029 0.009587
0.031542 -0.019823 0.012789
0.006857 -0.011892 0.004769
-0.024794 -0.009726 0.019534
-0.042012 -0.011008 0.007686
-0.030510 -0.003510 0.021459
0.006427 -0.012338 0.004530
-0.000203 -0.012022 0.004840
0.000477 -0.012414 0.004554
0.002227 -0.012335 0.006252
0.005517 -0.012044 0.005708
-0.041172 -0.011173 0.007480
0.023420 -0.003810 0.021253
0.035354 -0.017493 0.002122
-0.027038 -0.012905 -0.003437
-0.039438 -0.007558 0.005200
0.032744 -0.018170 0.006913
0.029315 -0.014734 0.005049
-0.003137 -0.010522 -0.000139
-0.001783 -0.011913 0.005136
0.003813 -0.008188 -0.001802
0.032775 -0.017999 0.008976
0.038800 -0.019773 0.013606
0.034016 -0.017140 0.002094
-0.000223 -0.012406 0.006215
0.042365 -0.014504 0.012050
0.001578 -0.011892 0.006021
-0.008039 -0.001152 0.020694
0.027797 -0.018958 0.008308
-0.038685 -0.004608 0.003202
0.023013 -0.004328 -0.003500
0.038625 -0.008111 0.019489
0.014887 -0.011277 0.000156
-0.014713 -0.008530 -0.001436
-0.008383 -0.003962 0.019942
0.001657 -0.012240 0.005992
0.034620 -0.017570 0.008361
-0.040303 -0.006542 0.013300
-0.001751 -0.012296 0.005051
-0.014307 -0.018172 0.005566
0.028045 -0.014745 0.017058
-0.029601 -0.011083 -0.002845
-0.039026 -0.008445 0.003584
-0.038822 -0.008146 0.004611
-0.000538 -0.012019 0.005755
-0.000878 -0.012013 0.004840
-0.039874 -0.019971 0.002089
0.006445 -0.000682 0.020650
-0.000518 -0.011973 0.004808
0.032218 -0.017270 0.011237
-0.039097 -0.021078 0.004978
0.019082 -0.001898 0.002670
0.002157 -0.012228 0.006135
-0.040557 -0.006108 0.004757
0.042767 -0.014178 0.011666
0.028909 -0.016420 0.006295
0.008882 -0.000969 0.021448
0.003407 -0.000679 0.017100
-0.037200 -0.019008 0.010805
-0.037938 -0.019523 0.009000
-0.033598 -0.002183 -0.002551
-0.005222 -0.020923 0.015159
0.031597 -0.016945 0.012044
-0.000793 -0.012278 0.004555
-0.000200 -0.003398 0.021463
-0.024762 -0.010258 0.019466
-0.028570 -0.012243 -0.003472
-0.007969 -0.000549 0.020721
-0.000538 -0.011972 0.005043
-0.000223 -0.011973 0.004808
0.005507 -0.012095 0.006004
-0.020981 -0.008276 0.019642
0.022547 -0.018708 0.002500
0.029369 -0.015770 0.010243
0.025597 -0.011242 0.007723
-0.003975 -0.019823 0.001206
0.032288 -0.016170 0.006912
0.023558 -0.001074 -0.021500
0.016842 -0.001928 0.002675
0.034993 -0.016470 0.006169
-0.029288 -0.007528 0.020300
-0.032081 -0.021053 0.004065
0.032462 -0.021640 -0.000628
0.029403 -0.017820 0.015780
-0.040353 -0.011703 0.009862
-0.030234 -0.010458 -0.000002
-0.007493 -0.002596 0.019100
0.034461 -0.016470 0.006995
-0.021419 -0.003458 -0.003500
-0.007363 -0.021078 0.002638
0.009048 -0.010286 0.008767
-0.001633 -0.012155 0.005698
0.032346 -0.018029 0.009107
0.029042 -0.016370 0.006882
0.032463 -0.016651 0.019857
0.006445 -0.000761 0.019192
0.007652 -0.012294 0.004766
0.014774 -0.002214 0.002672
0.018899 -0.010885 -0.003500
-0.027653 -0.003899 0.019944
-0.007345 -0.000154 0.017544
-0.007473 -0.000131 0.017628
-0.017524 -0.003782 0.019949
0.002612 -0.011957 0.005740
-0.008287 -0.002248 0.021461
0.029705 -0.017640 0.015166
-0.019183 -0.002736 0.018513
-0.012369 -0.017529 0.013295
0.037897 -0.015559 0.012186
0.018479 -0.011272 0.020300
0.001912 -0.011957 0.005740
-0.031597 -0.016322 0.018722
0.009041 -0.011675 -0.003500
0.028134 -0.011242 0.009294
-0.040347 -0.008480 0.014216
0.001177 -0.009762 -0.003000
-0.044164 -0.011557 0.010755
0.006442 -0.000760 0.019016
-0.025037 -0.010258 0.009217
-0.038375 -0.006108 0.013142
-0.038493 -0.006330 0.004527
-0.024021 -0.010262 0.008985
-0.023228 -0.008084 -0.001429
-0.025244 -0.018708 0.009371
-0.006540 -0.000792 0.017544
0.029240 -0.017179 0.016483
-0.040252 -0.008468 0.014380
-0.029965 -0.014524 0.001380
0.033385 -0.017270 0.006623
0.015295 -0.011400 0.020553
0.029217 -0.014615 0.005081
-0.007094 -0.015384 -0.013500
0.031250 -0.016417 0.008492
0.000765 -0.010414 -0.003500
0.017310 -0.000214 0.021215
0.014950 -0.011348 0.001283
-0.034157 -0.010258 0.019341
0.040237 -0.003163 0.000526
0.001986 -0.011251 -0.000031
0.024320 -0.010479 -0.000315
-0.001273 -0.012333 0.006248
-0.040147 -0.011556 0.008422
0.007685 -0.012261 0.004774
-0.038897 -0.009172 0.014641
0.031546 -0.021053 0.012223
0.032433 -0.017370 0.006450
0.003045 -0.011887 0.004768
0.023803 -0.001928 0.003830
0.015599 -0.011125 0.020601
0.014347 -0.011156 0.020300
-0.038466 -0.009074 0.014036
-0.039552 -0.009165 0.005193
0.018597 -0.001718 0.002350
-0.038528 -0.006686 0.014216
0.020393 -0.011216 0.020300
0.025394 -0.011173 0.010079
0.035286 -0.019473 0.006310
0.040305 -0.002183 0.000453
0.034147 -0.016684 0.007559
0.009799 -0.018758 0.009435
-0.007994 -0.001219 0.019037
0.006800 -0.000257 0.020721
0.035497 -0.016370 0.011253
0.002227 -0.012163 0.005990
0.006636 -0.000607 0.017500
0.024287 -0.010632 -0.000106
0.023377 -0.019523 0.015813
0.003253 -0.001315 0.019100
0.028595 -0.016370 0.011470
-0.039995 -0.004608 0.005319
0.007262 -0.011862 0.004440
-0.024158 -0.010286 0.009288
-0.024927 -0.010339 0.008781
0.022752 -0.001898 0.003800
-0.007459 -0.000191 0.017528
0.011247 -0.007748 0.019693
0.030096 -0.017870 0.009807
0.038528 -0.015437 0.013169
-0.004216 -0.019773 0.003747
0.000127 -0.012335 0.004539
0.026702 -0.011431 0.020300
-0.042037 -0.006258 0.004776
-0.019202 -0.002561 0.018451
0.001897 -0.012163 0.005990
0.028018 -0.017532 0.016890
0.022718 -0.014457 0.017916
-0.019781 -0.002405 0.018293
0.024031 -0.008588 0.019437
-0.007557 -0.000317 0.019100
-0.020344 -0.021053 0.012952
0.037068 -0.019473 0.015340
-0.039786 -0.006989 0.014453
0.021000 -0.020923 0.012879
-0.027702 -0.019773 0.006596
-0.008861 0.003214 -0.020500
-0.004332 -0.018018 0.009757
0.032645 -0.014745 0.014153
-0.040056 -0.008450 0.014586
0.000257 -0.012227 0.005988
-0.024338 -0.019523 0.015000
0.028162 -0.017179 0.013700
-0.009697 -0.003971 -0.002000
-0.017621 -0.010258 0.013000
-0.030205 -0.010951 0.000124
0.007713 -0.000367 0.019072
-0.027661 -0.012711 -0.003498
0.003627 -0.012217 0.004790
-0.044279 -0.007108 0.010131
-0.040427 -0.008049 0.013942
0.011519 -0.014678 -0.010939
-0.016285 -0.020923 0.015752
-0.039961 -0.007008 0.004723
0.008102 -0.012338 0.006545
0.030977 -0.016220 0.007856
-0.032537 -0.019473 0.014400
0.023563 -0.000972 -0.020500
-0.016822 -0.021053 0.002403
-0.041792 -0.011203 0.009606
-0.038785 -0.007276 0.013451
-0.044174 -0.006258 0.009844
-0.039667 -0.006108 0.012571
0.009889 -0.010325 0.008855
0.041878 -0.021711 0.007340
0.041521 -0.001183 0.000386
-0.007886 -0.018490 0.011411
-0.003298 -0.006681 -0.014500
0.005457 -0.011892 0.004769
-0.032035 -0.019523 0.003624
-0.015897 -0.007957 0.019426
-0.026471 -0.003836 0.019946
-0.023834 -0.011450 0.020544
0.013978 -0.018708 0.012585
0.022901 -0.010528 0.018131
-0.040178 -0.007908 0.004200
0.030041 -0.016470 0.007535
0.035161 -0.015770 0.006775
-0.009810 -0.014559 0.001343
-0.038865 -0.006464 0.013330
-0.002648 -0.012329 0.006344
-0.000813 -0.012068 0.005962
-0.039342 -0.007952 0.014796
0.024645 -0.002217 0.003814
0.016219 -0.002405 0.018293
0.033851 -0.016553 0.009116
0.041155 -0.002183 0.002274
0.039913 -0.019523 0.011422
0.024829 -0.010458 0.016503
0.020450 -0.021078 0.005046
0.032462 0.002529 0.019078
-0.027668 -0.018708 0.007864
0.029964 -0.003384 0.021463
0.007390 -0.000128 0.019250
0.001520 -0.012228 0.006155
0.007834 -0.011748 0.005964
-0.004400 -0.021078 0.014023
0.032320 -0.016170 0.007105
0.006881 -0.001635 0.019236
0.007659 0.000691 0.020779
-0.039809 -0.006832 0.014729
-0.040916 -0.004608 0.002853
0.024309 -0.010950 0.000021
-0.007949 -0.001306 0.019037
0.009157 -0.010958 0.008722
0.008459 -0.011284 0.020573
-0.039872 -0.009568 0.013201
0.005727 -0.012338 0.006545
0.004087 -0.012054 0.004834
0.006907 -0.012338 0.006265
0.007177 -0.011938 0.004470
-0.039856 -0.021078 0.011378
0.007022 -0.012296 0.005050
0.036036 -0.003833 -0.001347
-0.039907 -0.006652 0.004772
0.016850 -0.002566 0.017363
0.025314 -0.011052 0.009837
-0.038740 -0.004608 0.013523
0.041210 -0.008559 0.012470
0.007083 -0.012296 0.005075
0.026325 0.001116 0.020512
-0.000038 0.001976 -0.001768
0.017212 -0.006467 0.021102
0.029979 -0.017270 0.008419
-0.007231 -0.001643 0.017528
-0.023596 -0.008475 0.019435
-0.040409 -0.006474 0.003964
-0.007249 -0.018436 0.009374
0.006112 -0.012019 0.005755
-0.006613 -0.000611 0.019072
0.002007 -0.012317 0.006236
0.007932 -0.012329 0.004446
0.007025 -0.000203 0.019154
0.038308 -0.002385 0.014929
-0.039533 -0.008602 0.012805
0.037658 -0.014677 0.012194
-0.007529 -0.017529 0.009974
-0.005251 -0.002138 0.017100
0.028035 -0.014595 0.010204
0.007932 -0.012304 0.006335
0.037692 -0.010408 0.017989
0.002282 -0.011907 0.004769
0.017892 -0.002064 0.002670
0.033045 -0.018150 0.008910
-0.009168 -0.001183 0.021500
0.013153 -0.019773 0.012254
0.033263 -0.017370 0.006579
0.005727 -0.012229 0.004794
0.002707 -0.012205 0.006001
0.041004 -0.014900 0.005700
-0.035407 -0.021053 0.013642
-0.000223 -0.012317 0.006236
-0.039342 -0.006752 0.005196
0.002577 -0.012308 0.004555
-0.039786 -0.007177 0.013147
0.006067 -0.012155 0.005698
-0.003291 -0.010321 -0.000291
-0.007063 -0.000119 0.020750
-0.029830 -0.019473 0.015716
0.029662 -0.015980 0.010247
0.016519 -0.003972 -0.020500
0.002337 -0.012068 0.004828
-0.039223 -0.007576 0.003492
-0.002874 -0.009806 -0.001716
0.026318 -0.014595 0.015941
0.028632 -0.019473 0.009738
0.000477 -0.012308 0.006155
-0.006740 -0.002928 -0.008500
0.038744 -0.014615 0.013213
-0.028049 -0.018758 0.006796
0.039089 -0.002348 0.014856
0.028021 -0.017043 0.016850
0.016627 -0.001658 0.003740
0.001667 -0.012062 0.005699
0.042592 -0.011936 0.011700
-0.008795 -0.001892 0.021394
-0.000923 -0.012095 0.006004
-0.001755 -0.012272 0.005708
0.032622 -0.017717 0.001921
0.007834 -0.011748 0.004864
0.038742 -0.014990 0.012106
0.033883 -0.018219 0.011853
-0.012368 -0.011401 0.020300
-0.039089 -0.007589 0.003547
0.006557 -0.012079 0.005994
-0.040053 -0.007470 0.014211
0.000827 -0.012203 0.004800
0.002357 -0.012278 0.004635
-0.020705 -0.011400 0.020553
0.026755 -0.019773 0.002988
0.029718 -0.015770 0.007717
0.028646 -0.019523 0.016824
0.000957 -0.011985 0.005976
0.003037 -0.012022 0.004840
-0.039907 -0.006364 0.003628
0.029612 -0.015980 0.010239
0.018942 -0.019473 0.014193
-0.001273 -0.012418 0.004525
0.015087 -0.011201 0.001484
0.035014 -0.016470 0.007243
-0.037717 -0.007108 0.019603
0.005727 -0.012278 0.006235
0.035759 -0.016420 0.010911
0.005802 -0.011907 0.004769
0.006132 -0.012002 0.004819
-0.039907 -0.007114 0.013228
0.006767 -0.012062 0.005699
-0.003027 -0.020923 0.004987
-0.024948 -0.019008 0.009539
0.027283 -0.011011 0.010199
-0.029034 -0.011730 -0.003133
0.028043 -0.010258 0.002219
0.001212 -0.011987 0.005038
0.008718 -0.001633 0.021468
0.019269 -0.001758 0.003740
0.000267 -0.011956 0.005105
0.004437 -0.012108 0.005988
0.030007 -0.015427 0.004180
0.005857 -0.011907 0.006020
-0.007288 -0.002539 0.021480
-0.039986 -0.004608 0.006123
0.001735 -0.011235 -0.000209
-0.004483 -0.001530 0.000643
0.021393 -0.001968 0.002675
-0.040147 -0.011556 0.009578
0.006152 -0.011973 0.005982
-0.039154 -0.008833 0.013116
-0.038682 -0.008304 0.014455
0.002652 -0.012033 0.004819
0.020622 -0.002058 0.003770
-0.024877 -0.010339 0.009291
-0.017971 -0.003293 0.019345
-0.012634 -0.018029 0.005024
0.001877 -0.011973 0.004808
0.015898 -0.004171 0.021434
-0.038090 -0.004808 0.002722
0.037525 -0.014652 0.012886
0.028025 -0.011032 0.008872
-0.000443 -0.012203 0.005990
-0.038791 -0.006068 0.003840
0.000607 -0.012308 0.004555
-0.009651 -0.019823 0.001509
0.021556 -0.001758 0.003740
0.024710 -0.002147 0.002632
0.004402 -0.012017 0.005970
-0.038701 -0.007315 0.004273
-0.001853 -0.012418 0.006320
0.007722 -0.011852 0.006328
0.043958 -0.002183 0.008671
0.028986 -0.017145 0.013931
0.003746 -0.000497 0.019100
0.001527 -0.012326 0.006241
-0.015214 -0.003599 0.021262
0.026107 -0.011703 0.007520
0.007026 -0.011872 0.005110
0.002933 -0.011897 0.006021
-0.039068 -0.004608 0.006166
-0.001073 -0.012248 0.004655
0.007906 -0.001135 0.020746
-0.039154 -0.008583 0.004884
-0.000795 -0.012112 0.006007
0.002227 -0.012278 0.004635
0.002943 0.020228 -0.018251
-0.015826 -0.018436 0.009374
0.024649 -0.002208 0.003844
-0.002403 -0.011828 0.004570
-0.006735 -0.000302 0.019100
0.000071 -0.010904 -0.001781
0.004327 -0.012352 0.004626
-0.026531 -0.011281 -0.003300
0.002312 -0.012031 0.005951
0.039702 -0.019823 0.006001
-0.007555 -0.001549 0.017507
0.029012 -0.016370 0.007118
0.038729 -0.015575 0.012453
0.031101 -0.018170 0.010476
0.006207 -0.012401 0.004583
-0.007094 0.021728 -0.007500
-0.006848 -0.008082 0.019428
-0.039154 -0.007733 0.004884
0.024125 -0.001780 0.003544
-0.040753 -0.004808 0.015306
0.035876 0.003225 0.001339
0.029324 -0.016945 0.016019
0.007722 -0.011866 0.006414
-0.035338 0.000560 0.005075
-0.005328 -0.004085 -0.002000
0.007150 -0.000196 0.019151
-0.000113 -0.012114 0.005990
0.029915 -0.014705 0.005529
0.004957 -0.012228 0.004655
0.001867 -0.012155 0.005698
0.006067 -0.012034 0.005078
-0.000903 -0.012038 0.005952
-0.018753 -0.007748 0.019693
0.032454 -0.017640 0.002057
0.015834 -0.010665 -0.001407
-0.000038 0.000743 0.020750
0.021772 -0.008084 -0.001429
0.026889 -0.016947 0.014719
0.018659 -0.004049 0.021242
0.032560 -0.018099 0.008702
-0.014291 -0.004256 0.021231
0.034235 -0.016470 0.006793
-0.022839 0.000086 -0.020500
-0.038785 -0.008490 0.014149
-0.040121 -0.007083 0.013517
0.007122 -0.012298 0.005136
0.037879 -0.015454 0.013163
-0.004761 -0.000299 -0.001636
-0.021315 -0.020923 0.008136
-0.040383 -0.006080 0.013473
0.005727 -0.012329 0.004546
0.004712 -0.011923 0.005708
-0.002537 -0.011748 0.005909
-0.040193 -0.006954 0.003545
0.034233 -0.015980 0.010388
0.026766 -0.010458 0.001497
-0.036185 -0.007108 0.019111
0.037412 -0.014604 0.012779
-0.041403 -0.004608 0.004569
-0.032945 -0.016297 -0.000718
0.000127 -0.012043 0.004817
0.028629 -0.017110 0.013780
0.038321 -0.010408 0.000408
0.005822 -0.012080 0.005055
-0.010757 -0.018490 0.004695
0.032960 -0.017870 0.011450
-0.001513 -0.012163 0.005990
0.011519 -0.003972 -0.015500
-0.035003 -0.007108 -0.001462
0.006719 -0.001445 0.020746
0.010297 -0.015159 0.003627
-0.041339 -0.011633 0.010558
0.018592 -0.001968 0.003830
0.009576 -0.019773 0.014581
-0.001283 -0.012155 0.005698
-0.021599 -0.003487 0.019348
0.025304 -0.002291 -0.001212
0.032347 -0.018129 0.009107
-0.040146 -0.008327 0.013585
-0.021525 -0.021053 0.009838
0.011634 -0.003353 0.019346
0.001527 -0.012278 0.006155
0.009291 -0.011058 0.009256
0.032557 -0.016955 0.003296
-0.034645 -0.021681 0.018366
0.034993 -0.016470 0.011831
0.034723 -0.019473 0.005822
-0.019659 -0.002346 0.018275
0.038213 -0.002524 0.003180
0.004036 -0.006935 -0.003500
-0.004065 -0.007572 -0.001784
0.029282 -0.016270 0.011037
-0.040053 -0.007546 0.013389
-0.004509 -0.010456 0.001201
-0.006581 -0.002565 -0.020500
0.029412 -0.016420 0.007619
0.004107 -0.012326 0.004549
-0.039438 -0.005448 0.013049
-0.003757 -0.004117 0.021239
0.014637 0.001729 0.020016
-0.043779 -0.006258 0.008350
-0.030023 -0.014455 0.000090
-0.003975 -0.019473 0.001206
0.029026 -0.018958 0.010711
0.024044 -0.019473 0.001268
0.009762 -0.019773 0.004000
0.032723 -0.018079 0.008834
0.032462 -0.016370 0.009000
-0.034970 -0.021053 0.004115
-0.040146 -0.006689 0.014015
-0.007233 -0.001635 0.020746
-0.039249 -0.007370 0.012818
0.042775 -0.014178 0.005848
0.038594 -0.014733 0.013184
0.020212 -0.007528 0.020300
0.030701 -0.016520 0.007928
0.007212 -0.002604 0.021415
-0.038541 -0.009395 0.004028
-0.024702 -0.011076 -0.002750
0.039986 -0.021078 0.006294
0.028908 -0.012945 0.015011
-0.006491 -0.000836 0.019250
0.003557 -0.012248 0.006135
0.029104 -0.017140 0.015147
0.038729 -0.015575 0.012453
0.022402 -0.001898 0.002700
0.007713 -0.001450 0.019072
0.025463 -0.010408 0.019900
0.000467 -0.011963 0.005096
0.026866 -0.019523 0.015342
0.029301 -0.015399 0.004837
-0.007995 -0.000539 0.017628
-0.040682 -0.004608 0.013684
-0.040128 -0.006110 0.013076
0.007628 -0.012296 0.004375
0.006447 -0.012120 0.004800
0.040081 -0.019823 0.007172
-0.023971 -0.003293 0.019345
0.024305 -0.014471 0.001373
-0.007554 -0.018077 0.010818
-0.007448 -0.000227 0.020750
0.025533 -0.011731 0.007879
0.009219 -0.003626 0.019954
-0.028827 -0.011999 -0.003437
0.019602 -0.001928 0.003825
-0.002375 -0.011828 0.004735
-0.015368 -0.011401 0.020300
-0.023974 -0.018708 0.009487
0.034291 -0.016553 0.009283
-0.034264 -0.007108 0.019781
-0.003173 -0.007325 -0.003000
0.015627 -0.007876 0.020300
-0.007352 -0.001643 0.019072
0.001657 -0.012335 0.004538
-0.001759 -0.019473 0.009859
0.022812 -0.011433 -0.002000
-0.007901 -0.018077 0.006560
0.029117 -0.010813 -0.003493
-0.015100 -0.008275 -0.002000
-0.040090 -0.007826 0.014149
0.007262 -0.012248 0.004455
0.017192 -0.001901 0.002685
-0.001273 -0.012337 0.004534
-0.040066 -0.011242 0.009294
0.007716 -0.011883 0.004455
0.005462 -0.011884 0.006014
0.000847 -0.012103 0.004804
-0.006084 -0.010458 -0.000100
-0.040090 -0.007140 0.003851
0.031965 -0.018170 0.011450
0.007072 -0.011838 0.006025
0.022054 -0.019823 0.011842
0.026093 -0.011208 0.010527
0.029025 -0.010912 0.020847
0.034468 -0.016848 0.008695
0.018713 -0.010728 -0.002750
-0.008084 -0.000980 0.019250
-0.040427 -0.007667 0.013658
0.040830 -0.008111 0.017831
0.018248 -0.001718 0.003830
-0.017570 -0.008114 0.019658
0.025640 -0.011779 0.007860
0.033361 -0.017370 0.011386
0.016467 -0.019823 0.003692
0.035991 -0.016420 0.006290
0.006215 -0.012228 0.004635
0.034037 -0.016470 0.011353
-0.035397 -0.021726 -0.000074
0.030514 -0.015457 0.004490
0.014772 -0.002189 0.003870
0.001572 -0.011979 0.004833
0.009101 -0.010262 0.008631
-0.000793 -0.012087 0.006000
-0.039156 -0.006790 0.005160
0.019433 -0.002064 0.003830
-0.001133 -0.012044 0.005708
0.009704 -0.010843 -0.002750
-0.018227 -0.003602 0.019955
0.026796 -0.016988 0.014676
0.003099 -0.006331 0.006000
0.020220 -0.008199 0.019430
0.016306 -0.001758 0.002670
-0.001493 -0.012335 0.006252
0.034413 -0.019773 0.012376
-0.001253 -0.012097 0.005983
0.001582 -0.012002 0.004819
0.038805 -0.015538 0.012534
0.008102 -0.012289 0.004533
0.022463 -0.018758 0.009000
0.001572 -0.011979 0.004833
0.015513 -0.008038 0.019665
-0.042641 -0.011595 0.010243
-0.039365 -0.006814 0.013063
0.000617 -0.012062 0.005699
-0.040252 -0.008018 0.004780
-0.014178 -0.007956 -0.001426
0.033586 -0.018315 0.019425
-0.011538 -0.018939 0.003920
-0.039785 -0.009480 0.013048
0.018072 -0.001968 0.003825
0.004107 -0.011973 0.005982
0.014782 -0.002133 0.002601
0.029365 -0.015538 0.004903
0.000572 -0.011932 0.005720
-0.023139 -0.004020 -0.003500
0.030396 -0.016170 0.009345
0.034783 -0.016945 0.003710
0.034803 -0.018170 0.008526
0.039758 -0.012595 0.015515
0.009160 -0.010258 0.009453
-0.023227 -0.003800 0.019354
-0.017662 -0.008177 0.019652
0.033420 -0.017870 0.010863
0.024248 -0.014565 0.000185
0.027748 -0.018958 0.010006
-0.009551 -0.010543 0.000001
-0.001790 -0.012278 0.005682
-0.006978 -0.010258 0.000848
0.035285 -0.019773 0.011691
0.030513 -0.008038 0.019665
0.029713 -0.015770 0.011257
0.008838 -0.001390 0.021429
0.033052 -0.016356 0.010120
-0.023473 -0.001550 -0.021500
-0.020650 -0.020923 0.012036
0.009064 -0.010311 0.008776
-0.038754 -0.006483 0.014083
0.024827 -0.010258 0.016500
0.003387 -0.012022 0.004840
0.027043 -0.007008 0.009639
0.004667 -0.012001 0.005076
-0.038880 -0.006108 0.014919
-0.039510 -0.008564 0.014536
0.029127 -0.021078 0.009309
0.005472 -0.011915 0.005095
-0.024429 -0.010286 0.008536
0.006898 -0.001644 0.019250
0.023500 -0.008118 0.019658
-0.002831 0.021728 -0.012056
0.005047 -0.012103 0.005986
-0.001143 -0.012409 0.006221
0.005122 -0.012034 0.005037
-0.039154 -0.008433 0.013116
0.005517 -0.012062 0.005699
-0.038682 -0.009062 0.013145
-0.027036 -0.003384 0.021463
0.002227 -0.012069 0.004804
-0.034132 0.000329 -0.002868
-0.001835 -0.003623 -0.003500
0.001432 -0.010458 0.019226
0.028900 -0.004907 -0.001898
0.032807 -0.018036 0.009305
-0.019496 -0.002370 0.018478
0.001425 -0.011258 -0.000445
0.000587 -0.012120 0.004800
-0.011769 -0.011428 0.020548
0.026068 -0.011008 0.007726
0.035057 -0.021053 0.011845
0.006537 -0.012038 0.004838
0.037765 -0.015427 0.012154
-0.002521 -0.011828 0.004799
0.039143 -0.019773 0.004906
0.005432 -0.011987 0.004814
0.002672 -0.012049 0.005041
0.034803 -0.017370 0.007988
-0.040121 -0.007933 0.003917
0.006427 -0.012418 0.006265
-0.002082 -0.016518 0.009000
0.038983 -0.003158 0.015169
0.034999 -0.017270 0.008739
-0.038330 -0.019258 0.016481
0.009678 -0.010276 0.009438
-0.000591 -0.010948 -0.001650
0.026562 -0.011008 0.009800
0.011368 -0.011185 -0.002750
-0.001095 -0.008996 0.019609
0.009023 -0.018708 0.008669
-0.009623 -0.010492 -0.000221
0.021533 -0.001968 0.003825
-0.008058 -0.000908 0.019179
-0.000093 -0.012028 0.004819
0.039657 -0.003158 0.002395
-0.039652 -0.006790 0.003492
0.033811 -0.018170 0.011040
0.001572 -0.011963 0.004825
0.004711 -0.000317 -0.001649
-0.014084 -0.017529 0.005755
0.000147 -0.011876 0.006023
-0.004703 -0.019773 0.001651
0.005377 -0.012391 0.004597
0.003267 -0.011956 0.005105
0.024354 -0.010458 -0.000336
-0.029147 -0.011064 -0.003493
0.022831 -0.014497 0.016673
0.028775 -0.012016 -0.003350
0.000847 -0.011876 0.004767
-0.038897 -0.007922 0.005041
0.030512 -0.018943 0.012378
-0.042915 -0.011242 0.008036
0.027719 -0.011139 0.010070
-0.000785 -0.012228 0.004635
0.014772 -0.002189 0.003870
-0.005322 -0.004103 0.019936
-0.000573 -0.011999 0.004818
-0.004140 -0.010451 0.001249
0.032462 -0.018140 0.009000
0.029476 -0.014652 0.005383
0.019619 -0.001758 0.002670
0.032984 -0.016947 0.001610
0.000222 -0.011972 0.005747
-0.007968 -0.001208 0.019160
0.028018 -0.017145 0.013709
-0.043188 -0.010753 0.007933
-0.038712 -0.006921 0.013945
-0.035837 -0.001440 0.004587
-0.023171 -0.018943 0.014000
0.022862 -0.018943 0.009000
0.030271 -0.017370 0.007697
0.032227 -0.018958 0.003911
-0.004838 -0.021053 0.003653
-0.006814 -0.000392 0.020750
-0.029318 -0.004117 0.021239
0.004022 -0.011903 0.004791
-0.040186 -0.004608 0.013743
-0.005363 0.000142 0.019100
0.007977 -0.001204 0.019100
-0.004589 -0.018018 0.009416
0.020652 -0.001928 0.002675
0.006539 -0.000476 0.017650
0.004117 -0.012003 0.005076
0.037682 -0.014915 0.012107
0.007620 -0.001545 0.017544
-0.007803 -0.000513 0.017500
-0.042026 -0.021619 0.010674
-0.024246 -0.010268 0.009408
-0.033460 -0.018758 0.004086
0.014499 0.000455 0.020911
-0.007438 -0.001714 0.020750
0.012086 -0.019773 0.008496
-0.006694 -0.003575 -0.001350
-0.006584 -0.001044 0.019085
0.006591 -0.000407 0.018972
0.005517 -0.012044 0.005708
-0.002001 -0.019473 0.010977
0.033156 -0.020923 0.005315
-0.033781 0.003308 0.016604
-0.006768 -0.000337 0.017563
-0.006607 -0.000685 0.017515
-0.002818 -0.011829 0.006292
0.024222 -0.002133 0.003899
0.035166 -0.015980 0.007665
0.035146 -0.016470 0.007467
-0.038891 -0.004808 0.006123
-0.038866 -0.006952 0.004670
0.023275 -0.000231 -0.021500
0.001317 -0.012044 0.005082
-0.038572 -0.006624 0.013300
-0.005736 -0.008215 -0.002000
0.000699 -0.019773 0.014441
0.038528 -0.015559 0.012186
0.006992 -0.011838 0.006385
0.021913 -0.006481 0.021302
0.034194 -0.016625 0.010057
-0.040214 -0.019258 0.014921
0.006812 -0.011932 0.005070
-0.006484 -0.003409 -0.001347
-0.001773 -0.012278 0.005087
0.038095 -0.014915 0.011896
-0.038968 -0.008002 0.003628
0.036477 -0.021053 0.002435
0.017216 -0.004257 0.021231
-0.039342 -0.008964 0.003205
-0.033146 -0.016253 -0.000715
0.012344 -0.011598 -0.003500
-0.039248 -0.006620 0.003218
-0.025538 -0.003972 -0.020500
-0.008896 -0.000741 0.021403
-0.024507 -0.010259 0.008470
-0.040064 -0.005995 0.003681
-0.002735 -0.011748 0.005557
0.032154 -0.021053 0.012336
-0.040174 -0.007102 0.004272
0.024369 -0.014426 0.000189
-0.029718 -0.019523 0.001165
0.007914 -0.000773 0.019151
0.001252 -0.012017 0.004820
-0.024527 -0.010258 0.008455
0.003647 -0.012097 0.004807
-0.000783 -0.012034 0.005712
0.005367 -0.012003 0.005714
0.000497 -0.012068 0.005962
0.022163 -0.020923 0.006661
0.002227 -0.012418 0.004245
-0.028836 -0.019473 0.016559
0.006067 -0.011971 0.005701
0.037068 -0.019523 0.015340
0.024413 -0.003411 0.019347
-0.020864 -0.011458 -0.003300
0.035093 -0.016470 0.007954
-0.026710 -0.003653 0.019953
0.034454 -0.012945 0.003239
0.026102 -0.007955 -0.001426
0.032414 -0.018029 0.008850
0.033576 -0.002183 -0.001934
-0.000802 -0.011935 0.005684
0.002103 -0.010963 -0.001502
0.012852 -0.004057 0.019358
-0.023116 -0.001907 -0.020500
0.042972 -0.014178 0.006600
0.029284 -0.014705 0.004981
0.015262 -0.001658 0.002760
0.012852 -0.007826 -0.001424
-0.005747 -0.008219 -0.002750
0.034598 -0.015980 0.008293
0.002622 -0.011884 0.004776
-0.024948 -0.019008 0.009539
0.035296 -0.015980 0.010240
0.005472 -0.011910 0.005682
0.006274 -0.003646 0.021260
-0.033173 -0.007108 -0.002530
0.034430 -0.017270 0.010623
-0.000138 -0.012031 0.004839
-0.038819 -0.007850 0.003414
-0.009620 -0.014455 0.001245
0.008832 -0.000525 0.021310
0.030390 -0.003158 0.019342
-0.025151 -0.019773 0.003419
0.029762 -0.014597 0.005656
0.000257 -0.012392 0.004597
-0.037513 -0.007108 0.019480
0.022652 -0.002058 0.002730
-0.037446 -0.004808 0.004016
0.028260 -0.012519 -0.003372
-0.001738 -0.012251 0.005086
-0.024222 -0.010325 0.009322
0.015212 -0.001788 0.002840
-0.023181 -0.018943 0.003855
-0.000906 -0.003681 -0.003500
0.036114 0.003322 0.014971
0.019643 -0.001968 0.002675
0.005507 -0.012338 0.004529
0.001727 -0.012228 0.006135
-0.000528 -0.011903 0.004791
0.025787 -0.011052 0.007713
-0.038528 -0.006286 0.014216
-0.041742 -0.021721 0.011499
-0.001493 -0.012338 0.006261
-0.007342 -0.001643 0.017528
-0.008049 -0.001025 0.020721
0.037551 -0.019523 0.003041
0.006526 -0.000498 0.019250
0.025379 -0.011242 0.010078
-0.032035 -0.019473 0.003624
0.014925 -0.011212 0.000052
-0.038968 -0.007652 0.003628
0.023632 -0.002064 0.003830
0.029318 -0.016270 0.010554
-0.033194 -0.021721 -0.000515
-0.034057 -0.002183 0.020500
0.029442 -0.016470 0.010382
-0.024779 -0.019823 0.003103
-0.039392 -0.021053 0.005505
-0.038729 -0.007289 0.013585
-0.007829 -0.001495 0.019236
0.007394 -0.000148 0.020708
-0.025050 -0.010262 0.009062
-0.039365 -0.009214 0.013063
0.015202 -0.002107 0.002671
0.002707 -0.012409 0.004569
0.042922 -0.002183 0.004222
0.006684 -0.001488 0.017584
0.030793 -0.014597 0.004980
0.033162 -0.016257 0.009906
0.032034 -0.016892 0.010982
-0.037977 -0.021053 0.014443
-0.024727 -0.011024 0.020300
0.004457 -0.012227 0.005988
0.038107 -0.012685 0.016970
-0.008710 -0.003653 0.019953
-0.002756 -0.011828 0.005244
0.004787 -0.012114 0.005990
-0.007960 -0.001312 0.019016
0.038049 -0.021698 0.001215
0.038379 -0.014745 0.013623
-0.039066 -0.006582 0.003272
0.005012 -0.010728 -0.003500
0.026085 -0.014595 0.015300
-0.013575 -0.018758 0.014108
0.021253 -0.011419 -0.003300
0.029931 -0.016470 0.011831
0.008102 -0.011786 0.006377
-0.030174 -0.011466 0.020541
0.023398 -0.001551 -0.020500
-0.024784 -0.004257 0.021231
0.023804 -0.008261 0.019644
-0.001738 -0.012290 0.005064
0.040080 -0.019773 0.010830
0.000607 -0.011907 0.006020
0.005377 -0.012079 0.005994
0.027862 -0.007691 0.019422
0.032666 -0.018072 0.009416
0.006537 -0.012120 0.005990
-0.040178 -0.007508 0.013800
0.033631 -0.010408 0.016150
0.036189 -0.000223 -0.002635
-0.000619 -0.010039 -0.003500
0.022797 -0.001718 0.002760
0.032268 -0.017906 0.008231
0.002632 -0.012033 0.005971
0.029474 -0.015770 0.010900
-0.019466 -0.002686 0.018720
0.004677 -0.012056 0.004812
0.033680 -0.000224 -0.003156
-0.006576 -0.000973 0.019151
-0.008283 -0.018712 0.004963
-0.032537 0.002749 -0.000710
0.002567 -0.012014 0.005715
0.039362 -0.015520 0.009550
-0.028524 -0.012196 -0.003498
0.036548 -0.021628 0.002127
0.012359 -0.011365 0.020300
0.003057 -0.012418 0.006265
0.029489 -0.017145 0.014410
0.022806 -0.014558 0.017728
-0.013303 -0.018077 0.013007
-0.002513 -0.012368 0.006195
-0.038879 -0.016672 0.001712
-0.018555 -0.003785 0.019949
-0.025338 -0.019823 0.004000
-0.023181 -0.019523 0.003855
-0.001819 -0.012296 0.005109
0.033507 -0.016862 0.010739
0.036868 -0.019971 0.018065
-0.001530 -0.011250 -0.001468
0.029686 -0.017076 0.015704
-0.033035 -0.019523 0.014377
0.009388 -0.010353 0.009439
-0.001795 -0.012289 0.005094
-0.024973 -0.004171 0.021434
0.004457 -0.012205 0.004789
0.006887 -0.011876 0.006023
0.013788 -0.020923 0.013034
0.008284 -0.002367 0.021431
0.022752 -0.001928 0.003830
0.031447 -0.017270 0.011339
0.007437 -0.001697 0.019100
-0.011538 -0.018758 0.003605
0.004107 -0.012308 0.004555
-0.039978 -0.008522 0.012958
0.007840 -0.000428 0.020694
-0.040208 -0.020923 0.008391
-0.038801 -0.019773 0.013708
0.026344 -0.019473 0.002932
0.035913 -0.016420 0.006282
-0.016251 -0.018708 0.011835
-0.017969 -0.008588 0.019437
-0.002861 -0.004476 -0.003500
0.030342 -0.015575 0.005233
0.017588 -0.003678 0.021259
-0.039389 -0.018708 0.013736
0.008000 -0.001051 0.018950
0.006557 -0.000619 0.019085
0.004012 -0.011923 0.005082
0.002004 -0.012120 0.004783
0.038354 -0.002337 0.003199
-0.026804 -0.011649 -0.003500
-0.002388 -0.012258 0.006044
0.001307 -0.012337 0.006256
-0.011538 -0.018118 0.004868
-0.006930 -0.004011 0.021441
0.006799 -0.001560 0.017563
0.005517 -0.012035 0.005078
0.024409 -0.008472 -0.001435
0.005377 -0.012329 0.006244
0.006112 -0.011957 0.005050
0.033385 -0.019523 0.005211
-0.035837 -0.000050 0.001168
0.001461 -0.011255 -0.001416
0.018196 -0.011649 -0.003500
0.032970 -0.014745 0.002990
-0.040436 -0.007655 0.004248
-0.008044 -0.000660 0.020679
-0.038729 -0.008877 0.004415
-0.024179 -0.010325 0.009272
-0.000223 -0.012338 0.006545
-0.040053 -0.007870 0.004611
0.029225 -0.010458 0.000211
0.019539 -0.018758 0.013549
0.035614 -0.016945 0.008707
-0.041342 -0.011670 0.007458
-0.040174 -0.009065 0.004128
0.013153 -0.019523 0.012254
-0.006099 -0.003581 -0.002000
0.023323 -0.001898 0.003830
0.021042 -0.001928 0.002675
0.038731 -0.014792 0.013063
0.000677 -0.012248 0.004655
0.008825 -0.000958 0.021475
-0.044276 -0.007108 0.010201
-0.001273 -0.012418 0.004245
0.034798 -0.017370 0.007429
-0.037114 -0.004608 -0.002541
-0.039925 -0.009319 0.012939
-0.015760 -0.018943 0.015652
-0.002178 -0.012069 0.004455
-0.001273 -0.012217 0.004790
0.002799 -0.009806 -0.001716
-0.011139 -0.018126 0.013373
-0.039792 -0.009231 0.014735
0.006812 -0.012062 0.005046
-0.009724 -0.014574 0.000247
0.043961 0.001113 0.008435
-0.029090 -0.011374 -0.003485
-0.024779 -0.019473 0.014897
-0.039389 -0.019008 0.004264
0.009706 -0.003683 0.019352
0.006112 -0.012062 0.005046
0.037534 -0.015445 0.013109
-0.002158 -0.011916 0.006403
0.030981 -0.017870 0.007519
-0.000365 -0.010910 -0.001723
-0.006576 -0.000843 0.019151
0.003757 -0.012069 0.004804
0.018822 -0.003925 0.019356
-0.008073 -0.000757 0.017650
0.008102 -0.012338 0.004425
0.035018 -0.016420 0.007258
-0.001978 -0.012248 0.006415
-0.024889 -0.010958 0.009217
0.038262 -0.016945 0.014191
0.027019 -0.017043 0.016356
0.027449 -0.017179 0.013868
0.032292 -0.017076 0.002837
-0.001238 -0.011957 0.005050
0.027557 -0.011185 -0.002750
-0.038968 -0.008452 0.013228
-0.003708 -0.011064 0.020612
0.029240 -0.017493 0.014117
-0.036222 -0.006229 -0.002755
0.002357 -0.012095 0.004786
-0.007713 -0.001578 0.017606
0.040306 -0.000883 0.000454
-0.038754 -0.008033 0.003917
0.004312 -0.001183 -0.003500
0.024019 -0.011476 -0.003300
0.027734 -0.011595 0.007916
-0.006996 -0.000210 0.017544
0.036204 -0.019473 0.007900
-0.043389 -0.011949 0.008410
0.005472 -0.012003 0.005035
0.024388 -0.014424 0.000259
0.006440 -0.001114 0.020650
-0.000793 -0.012278 0.006155
-0.023357 -0.019473 0.003419
0.004022 -0.011979 0.005957
0.041501 -0.014854 0.011700
-0.037624 -0.018708 0.002500
0.018242 -0.001968 0.003825
0.006077 -0.011913 0.006017
0.000257 -0.012028 0.004819
0.030618 -0.016520 0.010289
-0.040312 -0.011208 0.008110
-0.033040 -0.021053 0.003567
0.037561 -0.015445 0.012130
-0.037588 -0.020923 0.007563
0.027416 -0.012945 0.015589
0.031957 -0.016205 0.008538
-0.040252 -0.019473 0.007630
-0.039721 -0.006583 0.014484
0.023073 -0.004056 0.019358
0.005082 -0.011987 0.004814
-0.004710 -0.000280 -0.001042
-0.029576 -0.019473 0.015824
-0.040995 -0.011595 0.010461
0.001657 -0.011973 0.004808
-0.022140 -0.001998 -0.020500
0.015147 -0.014445 0.001401
0.034344 -0.017270 0.007279
0.035009 -0.017270 0.008869
0.003277 -0.012323 0.004634
0.022297 -0.019773 0.011405
0.012532 -0.011217 0.020300
0.024247 -0.014509 0.000118
0.004327 -0.012338 0.006265
0.003617 -0.012080 0.005055
-0.007233 -0.000173 0.017528
0.022805 -0.014496 0.016644
0.006420 -0.012228 0.006155
0.022888 -0.014425 0.017740
-0.040304 -0.006892 0.013300
0.003101 -0.004916 -0.003500
-0.040055 -0.007766 0.003414
-0.037499 -0.008111 0.020108
0.000162 -0.012019 0.005035
0.007377 -0.000211 0.017515
0.008934 -0.018758 0.008849
-0.002375 -0.012248 0.006055
-0.028851 -0.014574 0.016746
-0.040682 -0.004608 0.004083
0.042430 -0.005033 0.004610
-0.024658 -0.008991 0.019564
-0.021736 -0.011001 0.020623
0.001637 -0.012120 0.005990
0.038979 -0.002365 0.015054
0.029212 -0.015345 0.004337
0.022690 -0.014594 0.016747
0.005377 -0.012203 0.005990
0.000127 -0.012069 0.005985
0.022547 -0.018400 0.016015
0.004062 -0.011979 0.005957
0.034266 -0.020923 0.016480
-0.000573 -0.012028 0.005971
0.002972 -0.011893 0.006006
-0.011634 -0.011360 -0.002750
0.027547 -0.011670 0.007777
0.029363 -0.014595 0.004204
0.001696 -0.018943 0.003000
0.040072 -0.015445 0.004049
-0.001588 -0.012019 0.005755
-0.002864 -0.008258 0.020300
0.013472 -0.019823 0.005362
0.018397 -0.003717 0.021258
0.032593 -0.016348 0.008916
0.024394 -0.010855 0.000061
0.014344 -0.007949 0.019674
0.018627 -0.007876 0.020300
0.027481 -0.017668 0.016660
0.033851 -0.018958 0.005421
0.030559 -0.017370 0.011074
0.038171 -0.003158 0.016925
0.014879 -0.018708 0.004720
-0.027214 -0.003599 0.021262
0.009608 -0.011058 0.009272
0.029112 -0.021053 0.009000
0.032462 -0.018106 0.009479
0.014759 -0.002176 0.002622
-0.006529 -0.000763 0.019037
0.004062 -0.011979 0.004833
0.007072 -0.012220 0.004791
0.008102 -0.012334 0.004440
0.008933 -0.018708 0.009150
0.001222 -0.011893 0.004784
0.038761 -0.015575 0.012637
-0.038701 -0.008115 0.004273
-0.024844 -0.011058 0.009030
0.017547 -0.001658 0.002760
0.000255 -0.012112 0.006007
0.030968 -0.017270 0.006934
0.034349 -0.016619 0.009744
0.036042 -0.018958 0.007613
0.006097 -0.011884 0.004776
-0.011837 -0.003313 0.019345
0.042529 -0.014851 0.006414
-0.030156 -0.014417 0.000216
0.029384 -0.015538 0.004672
-0.020531 -0.008081 0.020300
0.029699 -0.017110 0.014892
-0.036075 -0.019823 0.012879
0.022547 -0.018237 0.001951
-0.039066 -0.008582 0.003272
-0.000538 -0.011944 0.005730
-0.034692 -0.010258 0.018883
0.007262 -0.011838 0.006320
0.030414 -0.015457 0.005307
0.018818 -0.021053 0.004232
-0.038701 -0.009265 0.004272
0.005837 -0.012120 0.004800
-0.005471 -0.003836 0.019946
-0.043211 -0.011242 0.008706
0.028982 -0.017110 0.013938
0.031540 -0.019823 0.005211
0.007599 -0.001485 0.019093
-0.039293 -0.006946 0.004926
-0.033460 -0.019008 0.004086
0.016627 -0.001658 0.003740
-0.036085 -0.021628 0.016166
-0.015460 -0.018029 0.007724
0.026743 -0.017668 0.014753
0.020669 -0.001758 0.003830
0.026766 -0.010458 0.001497
0.012139 -0.003599 0.021262
0.004036 -0.006935 -0.003500
-0.002438 -0.011828 0.004505
0.002337 -0.012006 0.005951
0.029220 -0.016420 0.010594
0.001272 -0.011957 0.005740
-0.040922 -0.007008 0.008644
0.003517 -0.007760 -0.003500
-0.000621 -0.010040 -0.014500
-0.008503 -0.018118 0.006196
0.005025 -0.010912 0.020847
0.006557 -0.012095 0.006004
0.030388 -0.008442 0.019499
0.007668 -0.001402 0.019098
-0.001036 -0.009726 0.019534
0.005157 -0.012418 0.004245
0.029956 -0.015399 0.004176
0.032462 -0.018115 0.008764
0.001657 -0.012203 0.004800
-0.037647 -0.004808 0.012908
0.021913 -0.004337 0.021427
0.034543 -0.012945 0.002280
0.009881 -0.010258 0.008651
0.005857 -0.012326 0.004549
0.001527 -0.012163 0.004786
0.003022 -0.012062 0.005046
0.033199 -0.014745 0.002037
-0.023981 -0.003580 -0.003300
-0.004111 -0.006935 -0.008500
-0.024040 -0.010262 0.009137
0.014853 -0.021078 0.004785
0.029931 -0.016420 0.006168
-0.024988 -0.018708 0.008471
-0.000093 -0.012337 0.004534
-0.002760 -0.008627 -0.003500
0.007151 -0.000195 0.019085
-0.029282 -0.018943 0.013308
0.023223 -0.004205 -0.002000
0.027982 -0.019823 0.002822
0.001667 -0.012025 0.005076
0.016468 -0.010093 -0.001526
0.028427 -0.016947 0.013925
0.000862 -0.011910 0.005108
-0.042279 -0.011173 0.007545
-0.002997 0.003308 0.016690
0.003277 -0.012240 0.005992
-0.037143 -0.018758 0.007053
0.007950 -0.001135 0.019037
0.040782 -0.000883 0.000917
-0.038367 -0.019258 0.016123
0.030178 -0.017270 0.010132
0.031656 -0.018170 0.011366
-0.038711 -0.007695 0.013656
0.038581 -0.002328 0.014994
0.032788 -0.016945 0.001256
0.027002 -0.011052 0.010436
0.029549 -0.016955 0.015668
-0.040427 -0.008867 0.004058
0.003387 -0.012022 0.005950
0.033732 -0.017870 0.010808
-0.028944 -0.014484 0.017746
-0.041201 -0.011556 0.007461
-0.037844 -0.019473 0.008002
-0.024363 -0.010325 0.008585
0.029165 -0.017145 0.014056
-0.024766 -0.010262 0.008537
-0.021219 -0.019523 0.010423
-0.002158 -0.011950 0.004619
0.026734 -0.017607 0.015952
0.005122 -0.012003 0.005755
0.002007 -0.011973 0.004808
0.040054 -0.012590 0.002855
0.007249 -0.001707 0.019250
-0.007905 -0.021078 0.002569
0.038666 -0.015586 0.012384
0.001276 -0.010260 -0.003500
0.020342 -0.002061 0.003815
0.034372 -0.017270 0.010190
0.002322 -0.011944 0.005730
-0.023520 -0.011553 0.020758
0.004752 -0.012033 0.005971
-0.035837 -0.001576 0.016440
0.021679 -0.007749 0.019693
-0.004042 -0.008240 -0.001663
0.030770 -0.017270 0.007517
0.024311 -0.019008 0.004264
0.033761 -0.016605 0.010558
0.002678 -0.011223 0.000086
0.005657 -0.012228 0.006255
0.017700 -0.003626 0.019954
-0.039169 -0.009608 0.014447
-0.024822 -0.010276 0.008603
0.007855 -0.012111 0.006335
0.028884 -0.016420 0.006303
-0.000379 -0.011074 -0.001611
0.015972 -0.002088 0.002670
0.009140 -0.010353 0.009307
-0.024171 -0.019823 0.015000
-0.034157 -0.001678 0.020688
-0.008376 -0.018436 0.011922
0.015159 -0.008569 -0.001437
0.028585 -0.003571 -0.002000
0.023212 -0.008600 0.020916
-0.043239 -0.011242 0.009000
0.007442 -0.012009 0.006136
0.016498 -0.001718 0.004150
-0.037960 -0.004808 0.002852
-0.000038 -0.021078 0.001305
0.032651 -0.019523 0.005105
-0.002375 -0.012268 0.006050
-0.041746 -0.021728 0.006703
0.029701 -0.017493 0.014862
0.003362 -0.012031 0.005951
-0.040055 -0.006000 0.014586
0.007078 -0.012293 0.005080
0.032462 -0.017990 0.009000
-0.000488 -0.012031 0.005951
-0.004674 -0.019823 0.003407
0.009041 -0.003381 -0.003500
-0.009349 -0.003646 0.021260
0.003231 -0.005149 -0.003500
-0.000903 -0.012022 0.005950
0.029528 -0.003717 0.021258
0.039562 -0.012595 0.002273
0.004107 -0.012380 0.004608
-0.024042 -0.010268 0.009080
0.000955 -0.012112 0.006007
0.032033 -0.017956 0.008819
-0.006105 -0.003293 0.019345
0.037893 -0.014632 0.013268
-0.027105 -0.003293 0.019345
0.007442 -0.011838 0.004654
0.033902 -0.016540 0.007571
-0.040146 -0.008677 0.003985
0.006447 -0.012022 0.005950
-0.029288 -0.010728 0.020669
0.029787 -0.015486 0.004222
0.005027 -0.012308 0.006235
0.026012 -0.008620 0.021115
0.030843 -0.019773 0.005452
-0.021788 -0.004328 0.019926
0.007088 -0.012298 0.005070
0.036083 -0.019473 0.007551
0.015659 -0.004049 0.021242
0.029930 -0.016470 0.010871
0.037541 -0.014792 0.012637
-0.023590 -0.018943 0.003186
-0.000573 -0.012342 0.006160
0.007699 -0.000382 0.019085
0.039852 -0.018958 0.013345
0.005412 -0.012003 0.005755
-0.027693 -0.011092 0.020300
0.004789 -0.000424 -0.001653
-0.014548 -0.018677 0.013145
-0.039721 -0.006983 0.004884
0.017152 -0.002088 0.002670
0.036199 -0.016370 0.011604
-0.033905 -0.018758 0.013809
0.004722 -0.000339 -0.001680
-0.041638 -0.011139 0.007424
-0.025022 -0.010276 0.009059
-0.039096 -0.004608 0.005402
0.005153 -0.003798 -0.001354
-0.005966 -0.003294 -0.001345
0.038948 -0.002410 0.015126
0.002217 -0.012044 0.005082
0.029925 -0.015575 0.005384
0.036083 -0.019773 0.010449
0.029559 -0.016270 0.010837
-0.028613 -0.012287 -0.003372
-0.009227 -0.018758 0.004010
0.038196 -0.003158 0.003232
0.004618 -0.000299 -0.001685
0.002813 -0.008225 0.005996
0.005027 -0.012322 0.004552
0.014782 -0.002118 0.003900
-0.040280 -0.006108 0.003276
0.004409 -0.001596 0.000710
-0.007981 -0.001214 0.019169
-0.002648 -0.012338 0.004429
0.042650 -0.000219 0.015742
0.004787 -0.012054 0.005956
0.009057 -0.010258 0.008636
0.024352 -0.014451 0.001331
0.012627 -0.007876 -0.002750
0.030853 -0.015980 0.010572
0.037420 -0.014597 0.012351
0.039780 -0.021078 0.011379
0.020482 -0.002061 0.003815
0.038418 -0.011557 -0.001138
0.007847 -0.011828 0.006220
-0.037732 -0.018943 0.010477
-0.015526 -0.019008 0.005367
-0.020138 -0.007691 -0.001422
0.004697 -0.012006 0.004839
-0.038820 -0.008366 0.004986
0.012484 -0.019008 0.009462
0.028996 -0.018943 0.010787
-0.009938 -0.004191 -0.001361
0.006512 -0.011963 0.004825
0.031997 -0.016196 0.008396
0.032312 -0.018109 0.008960
-0.040303 -0.007742 0.003700
-0.040128 -0.006910 0.013076
0.028843 -0.016945 0.015720
0.031035 -0.017052 0.010696
0.006207 -0.011913 0.006017
0.004287 -0.001382 0.000594
-0.003718 -0.019473 0.001165
0.002007 -0.011985 0.005976
0.006528 -0.001320 0.018972
0.000617 -0.011956 0.005105
-0.031060 -0.019773 0.014194
0.017192 -0.002061 0.002685
