-0.017344 0.026933 -0.012470
-0.016359 0.028672 -0.019026
-0.001835 -0.100813 -0.011848
0.026352 0.073875 -0.024747
0.000052 -0.014074 -0.021524
-0.002262 -0.074106 -0.035937
-0.017734 -0.069319 0.005617
0.000805 -0.061038 -0.045242
-0.018469 0.029894 -0.012498
-0.004003 -0.043382 -0.028457
0.004159 -0.083290 -0.036755
-0.004636 -0.064193 -0.039266
-0.000126 -0.056487 -0.045956
-0.000003 -0.065312 0.045973
0.002000 -0.094863 -0.003178
0.000179 -0.053922 -0.039477
-0.005543 -0.075114 -0.040029
-0.014809 -0.091444 0.044408
0.001531 -0.097816 -0.009905
0.005010 -0.064415 -0.039718
-0.004892 -0.050365 -0.041034
0.015628 0.009855 -0.011045
0.002045 -0.081266 -0.034944
0.017590 0.028418 -0.025005
-0.016404 0.093659 0.043792
-0.029071 -0.002162 -0.016027
0.013968 -0.074771 -0.028083
-0.004372 -0.061054 -0.042810
0.002310 -0.101137 -0.027860
0.000183 -0.074106 -0.045023
-0.001402 -0.053140 -0.036434
0.015253 0.071007 0.006208
0.002797 -0.050379 -0.044245
0.002107 -0.100846 -0.028838
-0.004735 -0.068994 -0.039899
0.014232 -0.078056 -0.027562
0.005714 -0.077797 -0.039984
0.017434 -0.067127 -0.007645
-0.015058 0.093274 0.045180
-0.001002 -0.094701 -0.006128
-0.001028 -0.097152 -0.009461
-0.019677 0.076183 -0.009257
-0.021848 0.073611 -0.014415
0.000279 -0.079312 -0.038126
0.003304 -0.100872 -0.029165
-0.003243 -0.053109 -0.042665
0.002256 -0.069677 -0.036356
0.000047 -0.060895 -0.034744
-0.001660 -0.094998 -0.002303
-0.014671 -0.093818 0.041686
0.011488 0.067229 0.038372
-0.016653 -0.072059 -0.026556
0.013968 -0.074771 -0.028083
0.000850 -0.046863 -0.035284
0.000824 -0.050362 -0.035321
-0.003255 -0.066294 -0.036571
0.017729 -0.069319 0.005617
0.000165 -0.075148 -0.034659
-0.016370 -0.075173 -0.026598
0.003634 -0.098299 -0.033702
0.001824 -0.050372 -0.034767
-0.002259 -0.050314 -0.044647
0.014841 -0.026744 -0.012488
0.004025 -0.050296 -0.037259
-0.000356 -0.098297 -0.014132
-0.000121 -0.086783 -0.044698
-0.012546 -0.098364 0.036800
-0.014359 0.101335 0.036591
0.001123 -0.098592 -0.026484
-0.025965 0.077768 -0.017868
0.005010 -0.064415 -0.039718
0.014511 0.004603 -0.022527
-0.014759 -0.088824 -0.020553
-0.000003 0.093664 -0.017860
0.017814 0.022386 -0.019823
-0.001035 -0.043836 -0.035251
-0.001106 -0.081038 -0.034642
-0.000003 -0.098142 -0.013138
-0.026961 0.006853 -0.012527
-0.003136 -0.100532 -0.010596
-0.026836 0.018234 -0.019027
0.023511 0.079837 -0.027085
0.001807 -0.098572 -0.010334
-0.003925 -0.061705 -0.036506
0.014660 0.019584 -0.013527
0.001975 -0.095671 -0.005137
0.002416 -0.078993 -0.045411
-0.001133 -0.101300 -0.029992
0.017748 -0.067914 -0.007248
0.017192 0.030090 -0.026973
0.012747 -0.033311 -0.025809
-0.012236 -0.090096 0.045737
-0.004966 -0.059808 -0.042738
0.001880 -0.096003 -0.034770
-0.002689 -0.074161 -0.044900
-0.003146 -0.081546 -0.044860
-0.019239 0.082734 0.004612
0.020935 -0.002104 -0.012527
-0.001953 -0.099708 -0.012995
0.000243 -0.095152 -0.001375
-0.000003 0.093931 0.045953
-0.002451 -0.087094 -0.043317
-0.017630 -0.066275 -0.008551
0.004524 -0.076694 -0.036726
0.014021 -0.088835 0.045677
-0.015941 -0.091764 -0.012205
-0.013973 -0.074771 -0.028083
0.001982 -0.061641 -0.035385
0.005731 -0.045354 -0.040110
-0.000003 -0.030311 -0.027035
-0.003201 -0.053139 -0.037794
0.015506 -0.026301 -0.010848
0.001406 -0.095290 -0.034490
0.019082 0.099848 0.010181
-0.003278 -0.098429 -0.033841
0.000533 -0.087089 -0.036185
-0.001536 -0.097816 -0.009905
-0.000424 -0.101208 -0.009226
0.000201 -0.069638 -0.044623
0.005291 -0.045114 -0.042303
-0.003099 -0.053032 -0.037523
0.011489 -0.028188 -0.025831
-0.011455 -0.064125 0.045773
0.021647 0.033146 -0.024836
0.016058 0.028885 -0.019023
-0.020724 0.094091 0.023263
-0.005812 -0.031325 -0.028426
0.015252 0.067995 -0.008966
-0.015258 -0.066774 0.006411
-0.003080 -0.050516 -0.037453
-0.003508 -0.043806 -0.035626
-0.002772 -0.050296 -0.045043
-0.018275 0.083970 0.037923
0.022628 0.034246 -0.016058
-0.014059 0.083309 0.045712
-0.024539 0.087480 -0.021336
0.025542 0.079890 -0.024872
-0.002934 -0.087094 -0.037539
-0.002130 -0.094932 -0.002905
0.016202 -0.025906 -0.011711
-0.001995 -0.030267 -0.025997
-0.011493 0.067229 0.045772
-0.005162 0.033280 -0.026942
0.016804 -0.091271 0.041581
-0.004003 -0.084760 -0.025283
0.002047 -0.099212 -0.032905
-0.012656 0.095380 0.044931
0.015380 -0.095934 0.006430
-0.016966 0.100205 0.035255
-0.002623 -0.079331 -0.045321
0.003143 -0.063743 -0.043757
-0.000465 -0.050354 -0.045134
0.017798 -0.076075 0.006022
-0.004236 -0.064193 -0.038099
0.002002 -0.099683 -0.010996
-0.003685 -0.094974 -0.003089
-0.003599 -0.069248 -0.042693
0.016658 0.031591 0.044172
-0.014658 0.012810 0.045579
0.006977 0.015894 -0.020027
0.001027 -0.095492 -0.001908
0.002009 -0.098446 -0.033525
-0.020564 0.033367 -0.014110
-0.000564 -0.084631 -0.045307
-0.003048 -0.045184 -0.044931
0.003595 -0.101097 -0.026737
-0.018735 0.030693 -0.024600
-0.029927 0.011605 -0.013527
0.000286 -0.097894 -0.011832
-0.000003 -0.097941 -0.028583
-0.001023 -0.098366 -0.013084
0.027312 0.036553 -0.025142
-0.017479 0.073648 0.001669
0.000701 -0.046076 -0.035829
0.017680 0.033232 -0.027936
0.021776 0.000979 -0.016027
-0.001151 -0.098630 -0.026387
0.004890 -0.081975 -0.037579
-0.002244 -0.101153 -0.013508
0.005470 -0.060890 -0.040491
-0.000003 0.035205 -0.028527
0.019385 0.030894 -0.015940
0.003773 -0.050350 -0.044310
-0.014719 -0.095920 0.004555
0.005042 -0.082309 -0.042467
-0.022059 0.087018 -0.024310
-0.028114 0.037926 -0.024678
-0.015261 0.032510 -0.009289
-0.016128 0.101764 0.027725
0.003532 -0.053116 -0.042162
0.002038 -0.079312 -0.040201
0.025058 -0.015875 -0.020027
-0.022994 0.094503 -0.006714
-0.017024 -0.088441 -0.016019
-0.003584 -0.098283 -0.006432
0.001628 -0.097781 -0.004824
-0.001408 -0.074129 -0.034987
0.004893 -0.060914 -0.037676
0.015323 -0.083473 -0.025075
-0.002966 -0.061642 -0.044503
0.015834 -0.084263 -0.024111
0.004696 -0.063601 -0.038116
-0.004748 -0.066301 -0.041322
0.019477 0.099816 0.020233
0.004402 -0.066424 -0.041414
0.005019 -0.043849 -0.039588
-0.012371 0.030732 -0.019027
-0.000003 -0.095844 -0.033244
0.001771 -0.094460 -0.004888
-0.000620 -0.086913 -0.035876
0.023473 -0.019353 -0.019027
-0.015261 0.032510 -0.009289
-0.004003 -0.082457 -0.026533
0.025804 0.036110 -0.026711
-0.016632 0.014483 -0.011967
-0.017804 -0.076075 0.006022
0.003887 -0.074106 -0.037409
0.023244 0.078162 -0.027554
0.004186 -0.079917 -0.044116
-0.002007 -0.091836 -0.038972
-0.003164 -0.101260 -0.014174
-0.001977 -0.097192 -0.034090
-0.009529 0.099827 0.040594
-0.002625 -0.045255 -0.035938
-0.003723 -0.069253 -0.037921
-0.000190 -0.057836 -0.034500
-0.018575 0.074472 -0.007714
-0.012656 0.095380 0.044931
0.026806 0.004454 -0.016027
0.005057 -0.058930 -0.037712
-0.001133 -0.101300 -0.029992
0.022053 0.087018 -0.024310
0.005262 -0.075782 -0.042198
0.003773 -0.067115 -0.037216
0.020591 0.098275 0.002414
0.030086 -0.007718 -0.019027
0.002018 -0.100946 -0.013479
0.001662 -0.097186 -0.007928
0.000755 -0.094399 -0.005699
-0.019638 0.031875 -0.025237
-0.002985 -0.069258 -0.037008
0.001126 -0.045452 -0.035306
-0.017360 0.082978 0.042714
0.016700 -0.079826 0.044123
0.003614 -0.097111 -0.034264
0.017507 -0.089142 0.041067
-0.005661 0.016412 -0.020027
0.001812 -0.099389 -0.026366
-0.000727 -0.061135 -0.035166
-0.016013 -0.078398 -0.026463
0.020317 0.032355 -0.014806
0.014528 -0.090724 -0.017345
-0.004675 -0.076558 -0.036949
-0.005131 -0.061643 -0.039267
-0.000178 -0.094252 -0.005784
0.001017 -0.097987 -0.011550
-0.005644 -0.080127 -0.041214
0.011450 -0.064125 0.045773
-0.002053 -0.099212 -0.032905
0.017492 0.072486 -0.002553
0.001715 -0.053156 -0.040690
-0.002146 -0.086771 -0.036251
-0.022473 -0.000460 -0.020027
-0.017601 -0.069845 0.004673
-0.012753 -0.034312 -0.014277
-0.017391 -0.095892 0.032261
0.031277 0.005611 -0.019027
-0.026808 0.035781 -0.024759
0.015963 -0.097777 0.032844
-0.017788 -0.067669 -0.010493
0.020175 0.017537 -0.019955
-0.017369 -0.070263 0.001704
0.002466 -0.074106 -0.036116
-0.005214 0.034030 -0.019027
0.003614 -0.097111 -0.034264
0.000654 -0.050517 -0.044271
-0.018469 0.029894 -0.012498
-0.003136 -0.100532 -0.010596
0.017449 0.073391 0.004104
0.029248 -0.001958 -0.012527
0.014489 0.007918 -0.020027
0.012871 0.094091 0.045553
0.001485 -0.060911 -0.034929
-0.001106 -0.081038 -0.034642
0.020935 -0.002104 -0.012527
0.020749 0.019311 -0.013527
0.017461 -0.069064 -0.002671
0.004950 -0.029937 -0.026948
-0.004198 -0.063860 -0.038084
0.003538 0.017094 -0.021533
-0.004464 -0.043839 -0.042586
0.012182 0.031289 -0.019027
-0.003310 -0.100872 -0.029165
0.016564 -0.094124 0.001420
-0.021734 0.089575 -0.022280
-0.021086 0.035508 -0.013811
0.017094 -0.090070 -0.011746
-0.030207 -0.003237 -0.012527
-0.015213 -0.025874 -0.010661
-0.001002 -0.094701 -0.006128
0.001463 -0.095688 -0.034342
-0.001836 -0.098636 -0.010579
-0.016140 -0.088631 -0.018954
0.001989 -0.030267 -0.025997
-0.016966 -0.016439 0.043730
-0.014062 -0.094286 -0.005628
-0.003257 -0.086871 -0.037227
-0.015746 -0.033259 -0.018906
0.000884 -0.074131 -0.045532
-0.002934 -0.087094 -0.037539
0.024379 0.080603 -0.026243
-0.017166 -0.079056 0.043293
0.018067 0.100031 0.032829
0.016007 -0.078398 -0.026463
0.021764 0.000977 -0.020027
0.031277 0.005611 -0.019027
-0.000003 -0.043311 -0.034475
-0.014905 -0.091538 -0.014942
0.002005 -0.095722 -0.004126
-0.024775 0.004954 -0.020027
0.004968 -0.050329 -0.040297
0.017489 0.071020 -0.006918
0.021188 0.034409 -0.027205
-0.001656 -0.066303 -0.044767
0.000146 -0.075999 -0.045834
-0.016630 -0.089454 -0.015991
-0.017099 -0.090070 -0.011746
-0.028156 0.038897 -0.025459
-0.016423 0.030232 -0.027660
-0.030584 0.001217 -0.016027
0.000532 -0.053756 -0.040485
0.024789 0.035412 -0.026709
0.000115 -0.101856 -0.029224
0.016037 0.008430 -0.011554
-0.015989 0.029408 -0.010707
0.004174 -0.056889 -0.044140
0.020013 0.099237 0.010253
-0.026968 0.039031 -0.027179
0.013588 -0.090874 -0.017529
0.000424 -0.053756 -0.040235
-0.003919 -0.053106 -0.039121
-0.005510 -0.078446 -0.038474
0.017484 0.073676 0.003088
-0.001811 -0.094579 -0.004351
-0.020916 0.034369 -0.013977
-0.000003 0.074421 -0.028504
-0.002534 -0.043806 -0.045392
0.004354 -0.069638 -0.040987
-0.003707 -0.095220 0.042589
-0.018877 0.091149 0.036682
0.010227 -0.065126 0.045794
0.020070 0.097341 -0.006214
0.014021 -0.088835 0.045677
-0.003031 -0.076802 -0.035381
0.003601 -0.057010 -0.035724
-0.003534 -0.013719 -0.021532
0.001971 -0.097192 -0.034090
-0.021552 0.033053 -0.019071
-0.010334 0.094899 0.045478
0.024582 0.034790 -0.026006
-0.014534 -0.090724 -0.017345
0.029794 0.004578 -0.012527
0.003130 -0.100939 -0.012100
-0.002710 -0.084178 -0.035719
0.018022 0.033293 -0.010171
0.010810 0.101937 0.037085
0.001038 -0.081843 -0.045693
0.000859 -0.098140 -0.012047
-0.003201 -0.053139 -0.037794
0.015766 -0.097932 0.028574
-0.000190 -0.057836 -0.034500
-0.004427 -0.061030 -0.037661
0.000637 -0.053156 -0.041114
-0.018244 -0.090199 0.034450
-0.019223 0.031907 -0.012891
0.003943 -0.086405 -0.042758
0.018783 0.029814 -0.015500
0.004850 -0.061537 -0.038679
-0.016612 -0.085443 -0.021860
-0.001393 -0.053035 -0.044066
0.017609 -0.013484 -0.009162
-0.001685 -0.097515 -0.004654
0.013387 -0.091867 0.044773
0.003289 -0.096040 -0.003679
-0.002604 -0.064242 -0.044167
-0.030526 0.003887 -0.020027
-0.019832 0.070451 -0.012673
-0.003963 -0.096403 -0.004954
0.014099 -0.097521 0.015653
0.007232 -0.012329 -0.021519
0.001584 -0.069013 -0.035700
-0.016420 0.101274 0.034041
-0.004220 -0.074106 -0.037899
0.000080 -0.100981 -0.031867
-0.018948 0.094626 0.035194
0.003250 -0.097620 -0.005297
-0.029896 -0.004863 -0.020027
-0.001126 -0.095048 -0.001644
-0.003203 -0.101269 -0.026759
0.002001 -0.091494 -0.038940
-0.010561 0.068432 0.038389
0.016919 -0.084759 -0.021511
-0.000502 -0.078212 -0.045917
-0.019331 0.093958 0.033280
0.020317 0.032355 -0.014806
-0.028648 0.012457 -0.020027
0.004741 -0.075188 -0.043073
-0.019677 0.076183 -0.009257
0.002109 -0.082921 -0.045222
0.026315 0.035463 -0.025151
-0.004892 -0.050365 -0.041034
-0.017723 0.070366 -0.008108
0.013912 -0.080788 -0.026931
-0.022633 0.034246 -0.016058
-0.016821 -0.024002 -0.012290
0.001895 -0.091281 -0.038213
0.020084 0.004245 -0.012527
-0.003274 -0.086427 -0.036802
-0.004579 -0.063843 -0.039086
-0.021760 0.037494 -0.014140
0.000342 -0.067112 -0.035424
-0.000105 -0.094250 -0.005786
0.002161 -0.061310 -0.035690
0.020944 0.089823 -0.022186
-0.016370 -0.075173 -0.026598
-0.002014 -0.100071 -0.027189
0.001538 -0.099544 -0.033223
0.004950 -0.029937 -0.026948
-0.000003 -0.096860 -0.009522
0.017315 -0.084436 0.043186
0.022740 0.041205 -0.014846
0.002258 -0.100375 -0.010171
0.002130 -0.061705 -0.035251
0.003595 -0.101097 -0.026737
0.004927 -0.050376 -0.039947
0.027231 0.036212 -0.019035
0.004902 -0.045134 -0.043035
-0.002647 -0.069006 -0.036246
0.013942 -0.098168 0.036181
-0.004920 -0.045268 -0.041142
0.004814 -0.058930 -0.037276
0.005429 -0.078935 -0.042171
0.000544 -0.066584 -0.035791
0.004968 -0.050329 -0.040297
-0.001659 -0.099031 -0.012983
-0.011286 0.067822 0.045776
-0.018415 0.068907 -0.010873
-0.002747 -0.050344 -0.045239
0.003822 -0.086513 -0.037513
-0.022746 0.041205 -0.014846
-0.018253 -0.082335 0.037986
0.015762 -0.075080 -0.027226
0.003849 -0.087082 -0.041345
0.004958 -0.076314 -0.042905
-0.004330 -0.086670 -0.041757
0.012469 -0.093936 0.042759
0.016624 -0.089454 -0.015991
0.001536 -0.053156 -0.041271
-0.001455 -0.094860 -0.005773
0.017745 0.073037 0.005387
0.029770 -0.005392 -0.012527
0.000193 -0.098389 -0.036087
-0.002254 -0.053955 -0.038677
0.024780 0.038617 -0.028086
0.020940 0.064437 -0.013771
-0.002099 0.033630 -0.027001
-0.004612 -0.050316 -0.038315
-0.018612 0.031530 -0.011738
0.000610 -0.061396 -0.045208
0.014952 -0.002055 0.045460
0.019909 0.094566 0.029170
0.003236 -0.099752 -0.032376
-0.017601 -0.069845 0.004673
-0.013917 -0.080788 -0.026931
0.017100 0.036533 0.043443
0.023899 -0.003725 -0.016027
-0.000520 -0.095963 -0.007946
0.005192 -0.061710 -0.041660
-0.015534 0.029378 -0.012005
0.015884 -0.090594 0.044037
-0.002772 -0.050296 -0.045043
-0.017256 -0.025266 -0.025292
0.013063 -0.007219 -0.020027
-0.003130 -0.084672 -0.044263
-0.001522 -0.099072 -0.034019
-0.002711 -0.046861 -0.044394
0.015252 0.069237 -0.008564
-0.000231 -0.061522 -0.045276
0.000498 -0.053955 -0.039181
0.014514 -0.098487 0.032494
0.016961 0.100205 0.035255
-0.010247 0.095762 0.044954
-0.022994 0.094503 -0.006714
0.020070 0.097341 -0.006214
-0.019446 0.001762 -0.016027
-0.004136 -0.045439 -0.043129
-0.003723 -0.069253 -0.037921
0.026225 -0.015803 -0.019027
-0.001309 -0.061628 -0.045213
0.001984 -0.085133 -0.035572
0.000528 -0.092924 -0.035825
-0.002279 -0.046861 -0.035759
0.005711 -0.043806 -0.039233
0.002229 -0.099540 -0.032724
0.014232 -0.078056 -0.027562
-0.026669 -0.003578 -0.016027
0.016328 -0.012004 -0.011791
0.001435 -0.050470 -0.044096
-0.018253 -0.077467 -0.016067
0.018501 0.029416 -0.013611
0.004850 -0.057415 -0.043235
0.002711 -0.075760 -0.035295
0.002444 -0.083299 -0.035394
0.026956 -0.003476 -0.012527
-0.019732 0.032423 -0.026065
-0.003736 -0.087098 -0.041690
0.005806 -0.031325 -0.028426
-0.015989 0.029408 -0.010707
0.000277 -0.050453 -0.036048
-0.000003 0.085941 -0.025521
-0.001454 -0.098354 -0.011602
-0.005194 -0.043806 -0.042736
0.014093 -0.095628 0.001663
-0.002787 -0.061704 -0.035581
-0.001936 -0.049043 -0.041143
0.007267 0.055652 -0.018969
0.002652 -0.076659 -0.035172
-0.017154 -0.071956 -0.025550
-0.017395 -0.067706 0.006234
-0.025941 0.019605 -0.013527
-0.014759 -0.088824 -0.020553
-0.003380 -0.069816 -0.036843
-0.015634 0.009855 -0.011045
-0.003999 -0.074106 -0.042812
0.003142 -0.066332 -0.043724
0.000153 -0.045029 -0.034454
0.000131 -0.091117 -0.036868
0.028216 0.002523 -0.020027
-0.024904 0.084619 -0.012342
0.003896 -0.100716 -0.013879
-0.000003 -0.098543 0.038527
0.002379 -0.074131 -0.045048
-0.004301 -0.046176 -0.041185
0.027464 0.039546 -0.026765
-0.015159 0.029408 -0.010707
-0.001581 -0.049070 -0.041070
0.015403 0.021471 -0.013527
0.004652 -0.064338 -0.038805
0.004174 -0.056889 -0.044140
0.001853 -0.087073 -0.043781
0.003449 -0.050456 -0.042516
-0.004766 -0.083139 -0.037617
0.015963 -0.097777 0.032844
0.018040 0.032334 -0.027420
0.027312 0.036553 -0.025142
-0.002200 -0.097933 -0.034097
-0.000060 -0.049032 -0.037768
0.003882 -0.097991 -0.006643
-0.010834 -0.064905 0.038384
-0.000003 0.068688 0.038573
0.016922 0.087465 0.044018
-0.002190 -0.046249 -0.036356
-0.014058 0.094180 0.045271
-0.021884 0.033158 -0.016948
-0.026637 0.036056 -0.025754
0.003931 -0.100690 -0.026426
-0.000223 -0.053137 -0.044214
0.003739 -0.060906 -0.036199
0.005655 -0.045782 -0.040819
-0.002057 -0.049009 -0.041375
-0.000003 -0.098274 -0.026733
-0.004728 -0.058031 -0.037041
0.004890 -0.081975 -0.037579
0.014804 -0.091444 0.044408
-0.001517 -0.048837 -0.041346
0.002935 -0.064006 -0.036543
-0.000681 -0.086802 -0.042063
-0.015787 -0.071450 -0.027475
0.003917 -0.069636 -0.042279
0.005776 -0.098553 0.038134
-0.001881 -0.043840 -0.044892
-0.017595 0.028418 -0.025005
-0.024539 0.087480 -0.021336
0.019427 0.073880 -0.010670
-0.002760 -0.043844 -0.035980
-0.014029 0.031100 -0.019027
-0.004032 -0.057168 -0.044285
0.001825 -0.094509 -0.004347
0.015834 -0.084263 -0.024111
-0.003836 -0.053108 -0.041512
-0.000232 -0.066903 -0.035694
-0.001345 -0.060897 -0.045525
0.024398 0.004983 -0.016027
-0.017446 0.024791 -0.009050
-0.014350 -0.033284 -0.025466
0.005379 -0.061711 -0.040090
0.003300 -0.079119 -0.035503
0.006535 0.099681 0.041208
0.025800 0.035462 -0.025937
-0.027728 -0.000159 -0.020027
0.003998 -0.071311 -0.028446
-0.018507 0.029416 -0.013611
0.015321 -0.080378 0.045307
-0.001039 -0.098574 -0.014626
-0.019446 0.001615 -0.012527
0.015219 -0.025836 -0.010685
-0.019915 0.094566 0.029170
-0.017915 -0.092898 0.034221
0.017737 -0.070244 0.004387
0.018459 0.100595 0.027733
-0.000231 -0.061522 -0.045276
-0.001668 -0.048844 -0.041640
0.019262 0.031006 -0.014304
-0.003048 -0.045184 -0.044931
0.020650 0.019903 -0.019827
0.018006 0.090903 0.040745
-0.005214 0.034030 -0.019027
-0.001335 -0.094647 -0.034941
-0.001113 -0.053156 -0.040299
-0.016323 -0.083420 -0.024035
0.003300 -0.079119 -0.035503
-0.000003 0.093931 0.045953
-0.004676 -0.064148 -0.040713
-0.018253 -0.082335 0.037986
-0.025276 0.082568 -0.014556
0.015028 -0.026150 -0.010000
-0.001340 -0.096434 -0.032863
-0.021943 0.000470 -0.016027
0.020591 0.098275 0.002414
0.013953 0.092619 0.045693
0.016007 -0.078398 -0.026463
-0.017606 -0.054405 0.006592
-0.017197 0.030090 -0.026973
0.021883 -0.019637 -0.012527
-0.018703 0.070711 -0.010934
-0.012475 -0.093936 0.042759
-0.015756 -0.085150 0.045096
-0.013805 -0.003704 -0.022527
-0.015741 -0.024487 -0.020027
-0.003508 -0.043806 -0.035626
-0.019440 0.097705 0.029924
0.015253 0.071007 0.006208
0.017095 0.093562 0.042462
0.017317 -0.086721 0.042942
0.022125 0.077859 -0.012763
-0.025946 0.035035 -0.024385
0.007789 0.032730 -0.026896
-0.003140 -0.064113 -0.043670
-0.019397 0.048927 -0.011997
-0.018126 0.081035 0.008570
-0.000040 -0.087086 -0.044251
0.022886 0.082709 -0.026361
-0.012890 -0.007432 -0.020027
-0.017307 0.028607 -0.026061
0.003288 -0.043369 -0.034517
-0.016420 0.101274 0.034041
-0.016469 0.095367 0.042103
-0.013382 0.102013 0.035216
-0.000003 -0.065312 0.038573
-0.019178 0.088189 0.017235
0.016861 -0.095321 0.011765
0.015125 -0.065327 0.045388
-0.027060 0.004300 -0.016027
-0.019178 0.088189 0.017235
0.026803 0.035781 -0.024759
0.003140 -0.099223 -0.033178
-0.015746 -0.033259 -0.018906
-0.002253 -0.098711 -0.033633
-0.003203 -0.061407 -0.044087
-0.003736 -0.087098 -0.041690
-0.001949 -0.066300 -0.035744
0.001989 -0.030267 -0.025997
0.014490 0.097185 0.042124
0.003664 -0.064317 -0.043319
-0.014530 -0.098015 0.021958
0.015208 0.029250 -0.010661
0.001549 -0.094372 -0.005219
-0.021098 0.025115 -0.019027
0.003618 -0.075827 -0.044519
-0.015989 0.029408 -0.010707
-0.001463 -0.096989 -0.032574
-0.024056 0.074079 -0.027750
0.024934 0.076550 -0.026838
0.013063 -0.007219 -0.020027
0.016596 -0.087598 -0.019338
0.029012 -0.008044 -0.020027
0.011276 -0.096136 0.040537
0.005643 -0.057161 -0.039231
-0.017753 -0.067914 -0.007248
-0.000420 -0.088249 -0.037905
0.022774 0.094984 -0.008062
-0.001656 -0.066303 -0.044767
0.014858 -0.003602 -0.020027
-0.015708 0.101810 0.032909
0.000956 -0.093523 -0.035606
0.016954 -0.086767 -0.019061
0.003978 -0.066916 -0.042310
-0.001762 -0.097432 -0.035624
-0.000003 -0.094328 -0.006155
-0.004969 -0.029928 -0.025945
-0.005476 -0.050349 -0.041876
-0.015300 0.001979 -0.010163
-0.005162 -0.063600 -0.040199
-0.015769 -0.081505 -0.025687
-0.008113 -0.029282 -0.026889
-0.024786 0.038617 -0.028086
0.026037 0.073839 -0.025766
-0.000003 -0.097058 -0.031248
-0.000639 -0.043806 -0.045938
-0.016911 -0.087151 0.043793
-0.004631 -0.074127 -0.042978
-0.014715 0.090300 0.045598
0.000746 -0.050409 -0.044390
-0.004413 -0.050358 -0.042467
0.024789 0.035412 -0.026709
-0.003243 -0.053109 -0.042665
-0.001522 -0.094113 -0.038972
-0.000003 -0.030311 -0.027035
0.026315 0.035463 -0.025151
0.016647 -0.072059 -0.026556
0.030202 0.006613 -0.012527
-0.000003 0.094823 -0.015681
0.003501 -0.061710 -0.036093
0.000146 -0.075999 -0.045834
-0.025496 0.037896 -0.027791
-0.004330 -0.086670 -0.041757
0.017907 0.029363 -0.025154
-0.005605 -0.081520 -0.040306
-0.016323 -0.083420 -0.024035
-0.022554 0.093924 -0.014565
0.000544 -0.066584 -0.035791
0.016469 -0.024332 -0.012116
-0.001513 -0.100463 -0.031392
0.016893 -0.025488 -0.026200
0.017452 -0.070221 0.003457
0.024325 0.090051 -0.016667
0.001440 -0.101687 -0.013721
-0.003294 -0.043369 -0.034517
0.019827 0.070451 -0.012673
-0.015772 -0.097932 0.028574
-0.015531 -0.025420 -0.011231
0.005133 -0.080845 -0.037772
0.021093 0.025115 -0.019027
-0.023149 0.089105 -0.021880
-0.001340 -0.092798 -0.036443
-0.017860 0.077780 0.005539
-0.000123 -0.082107 -0.045745
-0.021095 0.096562 -0.008312
0.017536 0.100878 0.032035
-0.018612 0.031530 -0.011738
0.017718 -0.070490 0.003478
-0.000982 -0.096060 -0.033297
-0.026429 0.038287 -0.027412
-0.002200 -0.097933 -0.034097
-0.001648 -0.086924 -0.044248
-0.003885 -0.098206 -0.033408
-0.002919 -0.075209 -0.044922
0.013799 -0.003704 -0.022527
0.022297 0.090596 -0.020904
0.026094 0.039084 -0.027726
-0.012851 0.009085 -0.022527
0.014093 -0.095628 0.001663
-0.022113 0.092115 0.011019
-0.028648 0.012457 -0.020027
-0.018244 -0.090199 0.034450
-0.001174 -0.064409 -0.045115
0.014060 0.030437 -0.026781
-0.001161 -0.053955 -0.040265
-0.017520 -0.095391 0.024013
0.023281 0.090160 -0.020445
-0.014952 -0.086988 0.045476
0.002439 -0.053955 -0.039027
-0.003674 -0.060899 -0.036109
-0.003003 -0.050403 -0.037141
0.000419 -0.095990 -0.007699
-0.003770 -0.096466 -0.004503
0.001333 -0.098241 -0.011216
-0.017313 -0.094257 0.010523
0.028444 -0.011898 -0.019027
0.017737 0.071279 -0.006982
0.021877 0.094359 -0.014687
0.014852 -0.089818 -0.018831
0.014136 -0.085598 0.045710
-0.004081 -0.045155 -0.043226
0.003994 -0.096936 -0.033584
-0.000376 -0.058930 -0.045824
0.021188 0.034409 -0.027205
0.001093 -0.086658 -0.035736
0.022587 -0.000526 -0.016027
-0.000112 -0.101858 -0.011181
-0.000003 0.093931 0.045953
-0.000198 -0.045695 -0.034455
-0.014029 0.031100 -0.019027
0.025128 0.036687 -0.027490
0.001027 -0.095492 -0.001908
0.004908 -0.046857 -0.041099
0.002460 -0.066841 -0.043900
-0.002905 -0.063627 -0.044279
-0.015897 0.092194 0.044882
-0.001698 -0.079312 -0.038973
-0.001995 -0.030267 -0.025997
-0.005657 -0.080951 -0.040363
-0.021900 0.091694 -0.019711
0.008952 0.031991 -0.019027
0.023691 0.084680 -0.024960
-0.004220 -0.074106 -0.037899
0.014592 -0.087351 -0.022508
-0.001994 -0.094683 -0.003960
-0.001126 -0.095048 -0.001644
0.013646 -0.033296 -0.025781
0.015252 -0.067939 0.006109
-0.013840 -0.085895 -0.024194
-0.014062 -0.094286 -0.005628
-0.001685 -0.097515 -0.004654
-0.001512 -0.053156 -0.041812
0.017718 0.030876 -0.009238
-0.001972 -0.066568 -0.044189
-0.022633 0.034246 -0.016058
-0.005404 -0.074133 -0.040225
-0.003901 -0.100716 -0.013879
0.014024 -0.027723 -0.019027
0.019172 0.088189 0.017235
-0.002684 -0.076509 -0.045196
-0.009694 -0.094941 0.042294
-0.023975 0.091258 -0.016403
-0.000746 -0.096059 -0.007626
0.022590 0.088357 -0.023049
0.010490 -0.030165 -0.028345
0.016507 -0.064584 0.044346
-0.019446 0.001762 -0.016027
-0.003969 -0.098938 -0.008428
0.001825 -0.094509 -0.004347
-0.018161 0.098172 0.035050
0.003391 -0.069414 -0.042958
-0.005743 -0.077679 -0.040470
0.026803 0.035781 -0.024759
-0.005015 -0.064409 -0.040701
-0.017099 -0.090070 -0.011746
0.014529 -0.084236 -0.025112
-0.002823 -0.061622 -0.035875
0.002773 -0.068990 -0.036354
-0.021239 0.080634 -0.008279
0.005124 -0.084208 -0.039145
0.001523 -0.050451 -0.036333
0.015452 -0.009258 -0.010717
-0.020332 0.084409 0.002715
0.015935 -0.091764 -0.012205
-0.024416 0.020142 -0.020027
-0.018068 0.030492 -0.010623
0.014989 0.029932 -0.010915
-0.001009 -0.098871 -0.005361
-0.000126 -0.056487 -0.045956
-0.017716 0.071592 0.006321
0.004983 -0.046861 -0.040451
0.020686 0.096254 -0.010435
-0.016404 0.093659 0.043792
0.004645 -0.045155 -0.042249
0.014989 0.029932 -0.010915
0.004099 -0.043839 -0.043165
0.025412 0.076859 -0.026202
0.000418 -0.053905 -0.039451
-0.004330 -0.086670 -0.041757
0.014993 -0.094697 -0.001957
0.017689 0.093294 0.041114
-0.003235 -0.069810 -0.043730
-0.000003 -0.098859 0.032800
-0.021095 0.096562 -0.008312
0.002199 -0.086704 -0.036172
-0.017722 -0.067002 -0.008190
-0.001901 -0.098702 -0.007024
0.000241 -0.079586 -0.045929
-0.017932 -0.090431 0.037551
-0.003212 -0.099904 -0.008977
-0.000003 0.099226 0.001395
-0.016438 0.027745 -0.012095
0.022107 0.092115 0.011019
0.018712 0.086822 0.017686
-0.019223 0.031907 -0.012891
0.010555 0.068432 0.045789
0.024533 0.087480 -0.021336
-0.014534 -0.090724 -0.017345
0.017907 0.029363 -0.025154
0.023656 0.037186 -0.015755
0.003433 -0.046056 -0.043030
-0.000303 -0.048889 -0.038378
0.004631 -0.060974 -0.042579
0.003795 -0.100546 -0.029046
-0.018415 0.031006 -0.026126
-0.000003 0.099226 0.001395
0.017514 -0.095391 0.024013
-0.028402 0.041313 -0.025471
-0.018070 0.028100 -0.012228
0.002425 -0.057861 -0.035040
0.001791 -0.096884 -0.033309
0.017737 0.071279 -0.006982
-0.014490 -0.098346 0.034865
-0.000003 -0.096920 0.040850
-0.017456 0.071894 0.005855
0.003009 -0.080218 -0.045031
-0.001936 -0.049043 -0.041143
0.004424 -0.043806 -0.043915
-0.002492 -0.074106 -0.044311
-0.009609 0.014218 -0.021518
0.017108 0.034244 -0.028212
0.015252 -0.069101 0.005296
0.003449 -0.050456 -0.042516
0.015252 0.073650 0.002109
0.003812 -0.050456 -0.041848
-0.000421 -0.050291 -0.035225
0.017390 0.016276 -0.019967
0.018393 0.028734 -0.015450
0.000629 -0.044306 -0.045568
0.022478 0.095373 -0.008617
0.003497 -0.066564 -0.042969
0.003771 -0.045516 -0.044519
0.001985 -0.094655 -0.003622
-0.000017 -0.050458 -0.044352
-0.004003 -0.092391 -0.014140
-0.012606 -0.034154 -0.014642
-0.030526 0.003887 -0.020027
-0.004802 -0.061311 -0.041630
-0.012619 0.034653 -0.012527
0.017715 0.073909 0.001469
0.004023 -0.066584 -0.042084
-0.000376 -0.076057 -0.045820
-0.002014 -0.100071 -0.027189
0.001123 -0.098592 -0.026484
0.002018 -0.100946 -0.013479
-0.004306 -0.060905 -0.043601
0.014354 0.101335 0.036591
0.003289 -0.096040 -0.003679
-0.027990 0.051026 -0.019027
-0.016188 0.046186 0.044689
0.023899 -0.003725 -0.016027
0.000146 -0.075999 -0.045834
-0.016402 0.089677 0.044665
0.019681 0.003242 -0.016027
0.003206 -0.099904 -0.008977
-0.001386 -0.053038 -0.036343
-0.001859 -0.050384 -0.044733
0.028144 0.000815 -0.016027
0.000155 -0.080963 -0.045853
0.003213 -0.084955 -0.036287
-0.012546 -0.098364 0.036800
-0.000669 -0.069480 -0.035898
0.017801 -0.086369 -0.010292
-0.004676 -0.064148 -0.040713
-0.014141 -0.085598 0.045710
-0.004056 -0.066384 -0.038061
0.001947 -0.063862 -0.044476
-0.001685 -0.097515 -0.004654
0.003537 -0.100444 -0.010744
-0.002858 -0.050447 -0.043229
-0.000536 -0.098216 -0.036196
0.030402 0.010017 -0.019027
0.001017 -0.098366 -0.013084
0.002896 -0.075768 -0.045002
0.004983 -0.046861 -0.040451
-0.002919 -0.075209 -0.044922
-0.016872 0.031407 -0.027708
-0.026547 0.016917 -0.012527
0.015781 -0.071450 -0.027475
-0.018658 0.038327 -0.011077
0.018570 0.074472 -0.007714
0.000745 -0.057940 -0.034547
0.022139 0.034807 -0.015109
0.024111 0.037063 -0.027919
0.015295 0.001979 -0.010163
0.019632 0.031875 -0.025237
-0.009235 -0.098699 0.036992
0.019477 0.099816 0.020233
-0.012434 -0.091151 0.045420
-0.002024 -0.100946 -0.013479
0.000755 -0.094399 -0.005699
0.016365 -0.075173 -0.026598
-0.000564 -0.084631 -0.045307
0.009212 0.030868 -0.020027
0.001908 -0.057927 -0.045578
0.001961 -0.098979 -0.030834
0.002292 -0.100529 -0.030485
0.000602 -0.084224 -0.045383
-0.003011 -0.043880 -0.037125
-0.001170 -0.096274 -0.037751
-0.002146 -0.086771 -0.036251
0.004840 -0.060474 -0.037547
0.002638 -0.078279 -0.035096
0.024501 0.086428 -0.009652
-0.004812 -0.063700 -0.039812
0.004423 -0.069657 -0.039688
-0.016402 0.089677 0.044665
-0.005428 -0.082971 -0.040464
-0.020362 0.094811 -0.014868
0.005679 -0.045697 -0.041018
-0.015258 -0.070168 0.001558
0.017333 -0.079722 0.042804
0.020911 0.034369 -0.013977
-0.000003 -0.093768 0.044091
0.004005 -0.061030 -0.037043
-0.026569 0.041539 -0.027611
0.015984 0.029408 -0.010707
0.023969 0.091258 -0.016403
0.006977 0.015894 -0.020027
0.003955 -0.064100 -0.037701
-0.026229 -0.015803 -0.019027
0.003532 -0.067114 -0.043454
-0.000509 -0.043912 -0.044511
0.016166 -0.095899 0.010169
0.003474 -0.057103 -0.044757
-0.003770 -0.096466 -0.004503
-0.003146 -0.099223 -0.033178
-0.005238 -0.074123 -0.038881
0.031117 -0.003347 -0.019027
0.015252 0.073650 0.002109
-0.004056 -0.066384 -0.038061
-0.001129 -0.050393 -0.044956
0.017513 0.068408 -0.008940
0.000555 -0.100050 -0.033625
-0.017430 -0.067729 -0.006691
-0.031282 0.005611 -0.019027
0.004656 -0.074106 -0.039162
-0.014784 -0.026694 -0.024861
0.013912 -0.080788 -0.026931
-0.014962 -0.092600 -0.011631
-0.029896 -0.004863 -0.020027
-0.002381 -0.045261 -0.044606
-0.017614 -0.013484 -0.009162
0.002181 -0.031748 -0.028489
0.017621 -0.067825 0.006357
0.004190 -0.074106 -0.042484
-0.019223 0.031907 -0.012891
0.018247 -0.024598 -0.019032
0.000980 -0.097322 -0.036929
0.018247 -0.024598 -0.019032
0.001637 -0.079312 -0.039017
-0.004003 -0.043382 -0.028457
0.001747 -0.050365 -0.035552
0.017442 -0.064257 -0.009050
0.018871 0.091149 0.036682
-0.015146 -0.077786 -0.027246
-0.001637 -0.095008 -0.002256
-0.025548 0.079890 -0.024872
0.027654 0.036873 -0.024517
-0.001002 -0.097882 -0.029443
0.017853 -0.024867 -0.012230
0.013825 -0.088296 -0.021755
0.016799 0.048969 0.043970
-0.003674 -0.060899 -0.036109
-0.016809 -0.091271 0.041581
-0.021760 0.037494 -0.014140
-0.013806 -0.089981 0.045553
-0.000097 -0.066415 -0.044747
-0.015273 -0.026433 -0.009940
-0.015897 0.092194 0.044882
0.005079 -0.061082 -0.039843
-0.019483 0.099816 0.020233
0.001253 -0.101141 -0.030169
0.026542 -0.013540 -0.012527
0.020911 0.034369 -0.013977
-0.001543 -0.099544 -0.007180
0.019177 0.098264 -0.002007
-0.016569 -0.094124 0.001420
-0.029253 0.005334 -0.012527
-0.014027 -0.088835 0.045677
-0.002658 -0.077363 -0.045266
-0.026229 -0.015803 -0.019027
-0.021319 0.033680 -0.026394
-0.016313 -0.031621 0.044575
-0.002945 -0.046295 -0.043558
0.018359 0.093229 0.038757
0.004448 -0.066927 -0.039364
0.015525 0.004546 -0.020027
-0.012434 -0.091151 0.045420
-0.015053 0.084361 0.045431
-0.005022 -0.080761 -0.037546
-0.000003 -0.098274 -0.026733
0.016317 -0.083420 -0.024035
-0.004748 -0.083907 -0.042551
-0.022922 -0.000839 -0.016027
-0.024215 0.087400 -0.007390
0.017616 0.099876 0.034368
-0.001308 -0.084248 -0.045261
-0.002504 -0.066894 -0.043947
0.016856 -0.073879 0.043880
-0.001970 -0.079312 -0.040743
0.026557 -0.015295 -0.013527
-0.017676 -0.067924 -0.006740
0.021877 0.094359 -0.014687
0.004781 -0.067120 -0.040787
-0.017807 -0.086369 -0.010292
0.005776 -0.098553 0.038134
0.018382 0.028992 -0.019003
0.001221 -0.096925 -0.008458
0.002489 -0.076159 -0.045258
0.004033 -0.045095 -0.044286
-0.014962 -0.092600 -0.011631
-0.017436 -0.069286 0.005181
0.003215 -0.074130 -0.044533
0.012956 0.101447 0.037256
0.015380 -0.095934 0.006430
0.017092 -0.093241 0.038287
-0.002564 -0.045055 -0.035060
0.002832 -0.050450 -0.043251
0.015267 -0.026433 -0.009940
0.003978 -0.066916 -0.042310
0.017707 0.073557 0.004335
0.001221 -0.096925 -0.008458
-0.003278 -0.098429 -0.033841
-0.015865 0.028365 -0.011635
0.012747 -0.033311 -0.025809
0.005001 -0.080780 -0.042865
0.001460 -0.098875 -0.013931
0.005538 -0.082123 -0.040330
-0.003674 -0.060899 -0.036109
0.019165 0.016472 -0.020027
-0.002564 -0.045055 -0.035060
0.017715 0.073909 0.001469
-0.028580 0.042404 -0.024380
0.001743 -0.098962 -0.028417
0.001506 -0.043855 -0.044980
-0.012236 -0.090096 0.045737
0.018942 0.094626 0.035194
-0.010834 -0.064905 0.045784
-0.022059 0.087018 -0.024310
0.009893 -0.098175 0.038208
-0.003544 -0.100229 -0.030929
0.024513 0.005002 -0.020027
-0.027719 -0.000154 -0.016027
-0.000016 -0.074128 -0.034803
-0.015741 0.027864 -0.020027
0.012846 -0.027632 -0.026806
-0.016966 -0.016439 0.043730
-0.002014 -0.100071 -0.027189
-0.004443 -0.043828 -0.037757
-0.016145 -0.001306 -0.011649
0.003501 -0.061710 -0.036093
0.021593 0.096687 -0.005159
0.003616 -0.082005 -0.035973
-0.022131 0.077859 -0.012763
0.005084 -0.074122 -0.038435
0.017621 -0.067825 0.006357
0.024111 0.037063 -0.027919
0.003180 -0.050275 -0.044062
0.017746 -0.068389 0.006397
0.004630 -0.067121 -0.038841
-0.000639 -0.043806 -0.045938
0.016202 -0.025906 -0.011711
-0.000121 -0.086783 -0.044698
-0.002651 -0.078299 -0.045296
-0.003814 -0.043822 -0.036887
0.003950 -0.043381 -0.033924
0.017746 -0.068389 0.006397
-0.021336 0.094042 -0.016063
0.029770 -0.005392 -0.012527
-0.020076 0.097341 -0.006214
-0.023149 0.089105 -0.021880
-0.002985 -0.045431 -0.035300
0.005091 -0.074134 -0.042017
-0.004956 -0.029937 -0.026948
-0.006116 0.016246 -0.021542
0.005714 -0.077797 -0.039984
0.000991 -0.098370 -0.027861
0.023341 0.089600 0.000197
0.000298 -0.086396 -0.044915
-0.015410 0.029736 -0.017659
0.017715 0.073909 0.001469
-0.003031 -0.076802 -0.035381
0.003561 -0.061706 -0.044241
0.000969 -0.090246 -0.037482
0.003206 -0.099904 -0.008977
0.005183 0.101994 0.037980
-0.003236 -0.086871 -0.043231
0.004806 -0.075764 -0.037330
0.016130 0.029324 -0.011584
0.021660 0.097032 0.000666
-0.000003 -0.098142 -0.013138
-0.005543 -0.075114 -0.040029
0.000531 -0.053955 -0.040476
-0.000003 -0.043311 -0.028527
0.000755 -0.094399 -0.005699
-0.020196 0.095757 -0.012454
-0.014761 0.000876 -0.022527
-0.001327 -0.061703 -0.034971
-0.000000 -0.045134 -0.034537
0.003998 -0.079449 -0.027557
0.001005 -0.098871 -0.035042
-0.001994 -0.094781 -0.003531
0.026256 0.017406 -0.020027
-0.017787 0.072674 0.011262
-0.003203 -0.101269 -0.026759
0.005270 -0.082086 -0.038453
-0.003255 -0.097620 -0.005297
0.028348 0.038833 -0.024546
-0.003992 -0.100249 -0.028638
-0.020046 0.096576 0.026888
0.003739 -0.060906 -0.036199
-0.017630 -0.066275 -0.008551
0.000163 -0.090096 -0.041536
0.018120 0.081035 0.008570
0.013861 -0.096604 0.007939
0.000298 -0.086396 -0.044915
-0.013749 -0.089609 -0.019910
-0.021884 0.033158 -0.016948
-0.000658 -0.066726 -0.044585
-0.026428 0.073188 -0.019012
0.002382 -0.069250 -0.036541
-0.014903 -0.028037 -0.028008
0.017316 -0.094871 0.035029
-0.001904 -0.092462 -0.037674
0.004871 -0.084732 -0.041789
0.017716 -0.069298 -0.002816
0.023881 0.022264 -0.013527
0.001038 -0.081843 -0.045693
-0.001065 -0.101394 -0.010531
0.005597 -0.081507 -0.040126
0.020590 0.018563 -0.019827
-0.012653 -0.034204 -0.019018
0.015797 -0.015499 -0.011284
-0.002935 -0.086491 -0.043847
0.000729 -0.094271 -0.005606
-0.016584 0.029057 -0.011930
-0.000003 0.101836 0.038683
-0.002933 -0.050420 -0.044998
-0.001728 -0.050276 -0.035506
0.017716 -0.069298 -0.002816
-0.001470 -0.086363 -0.041558
-0.001412 -0.095290 -0.034490
-0.013651 -0.033296 -0.025781
0.031204 -0.002780 -0.013527
-0.005387 -0.081887 -0.041714
0.004375 -0.046295 -0.041071
-0.001136 -0.066428 -0.044603
0.002460 -0.066841 -0.043900
0.001158 -0.066409 -0.044612
-0.002046 -0.101057 -0.027004
0.001034 -0.095078 -0.001657
-0.005476 -0.050349 -0.041876
-0.000197 -0.053156 -0.042913
-0.019205 0.099734 0.026676
-0.010213 0.012364 -0.022527
0.020081 0.021219 -0.013527
-0.009694 -0.094941 0.042294
-0.027660 0.036873 -0.024517
0.003625 -0.068992 -0.037130
-0.004154 -0.067118 -0.042636
0.004025 -0.050296 -0.037259
-0.015856 -0.033057 0.044965
0.015275 -0.098230 0.032519
0.000269 -0.069068 -0.044739
-0.004965 -0.084668 -0.038907
-0.014658 0.012810 0.045579
0.005150 -0.076981 -0.037764
-0.001278 -0.063655 -0.035464
-0.009529 0.099827 0.040594
-0.003161 -0.078741 -0.035369
0.017853 -0.024867 -0.012230
-0.001769 -0.097101 -0.007859
0.001915 -0.049032 -0.041429
-0.017615 -0.024456 -0.013457
0.001988 -0.094683 -0.003960
-0.005237 -0.061703 -0.038944
0.003578 -0.098283 -0.006432
-0.001881 -0.089002 -0.040514
0.007181 0.014637 -0.022527
0.021080 0.035508 -0.013811
-0.012753 -0.033311 -0.025809
-0.024700 0.005000 -0.016027
-0.002956 -0.069637 -0.036892
-0.000003 0.074421 -0.028504
-0.021929 0.002855 -0.020027
-0.004509 -0.066415 -0.039546
-0.017339 -0.079722 0.042804
0.004062 -0.069256 -0.041814
-0.001335 -0.094647 -0.034941
0.017514 -0.095391 0.024013
0.012366 -0.027355 -0.019027
0.017269 0.095747 0.040161
0.017507 -0.089142 0.041067
0.015855 0.022117 -0.020026
-0.003995 -0.057118 -0.036088
-0.000425 -0.053881 -0.040751
0.016984 -0.093470 0.001601
-0.016041 -0.025499 -0.019022
-0.005584 -0.075708 -0.040834
0.017078 -0.076488 -0.025015
-0.006982 0.101589 0.038667
0.021093 0.025115 -0.019027
0.004809 -0.081353 -0.037295
-0.018012 0.090903 0.040745
-0.017859 -0.024867 -0.012230
0.003130 -0.099039 -0.007298
-0.000003 0.095908 -0.013115
-0.001881 -0.053156 -0.041076
0.003542 -0.087093 -0.038420
0.028444 -0.011898 -0.019027
-0.016118 -0.086899 -0.021365
-0.001126 -0.095048 -0.001644
0.001503 -0.094394 -0.004934
-0.014359 0.101335 0.036591
0.021425 0.033265 -0.015557
-0.017467 -0.069064 -0.002671
-0.000214 -0.077263 -0.034496
-0.024704 0.035487 -0.017197
-0.011455 -0.064125 0.045773
0.002769 -0.061314 -0.044372
0.018382 0.028992 -0.019003
0.001252 -0.046860 -0.035373
0.003831 -0.046863 -0.043398
0.015405 0.029736 -0.017659
-0.003052 -0.079589 -0.035359
-0.018275 0.083970 0.037923
-0.003599 -0.069248 -0.042693
-0.027775 0.038854 -0.026245
0.002263 -0.050402 -0.036551
0.003741 -0.069006 -0.043159
-0.015258 -0.070285 0.002662
-0.003888 -0.100118 -0.010981
0.020011 0.031685 -0.016169
-0.004687 -0.046863 -0.041922
-0.017518 0.068408 -0.008940
0.009880 -0.010606 -0.021520
-0.024704 0.035487 -0.017197
-0.000003 -0.091869 0.045553
0.000681 -0.058029 -0.045866
-0.027990 0.051026 -0.019027
0.014484 -0.098346 0.034865
0.016090 0.020428 -0.011607
0.001503 -0.096520 -0.033084
-0.016625 -0.097265 0.030207
-0.004988 -0.058031 -0.037467
0.016905 -0.087151 0.043793
0.003288 -0.043369 -0.034517
-0.001154 -0.046860 -0.035346
0.004423 -0.069657 -0.039688
0.002225 -0.050444 -0.043706
-0.010834 -0.064905 0.038384
0.004002 -0.063690 -0.042899
0.002022 -0.100304 -0.030473
-0.002711 -0.046861 -0.044394
0.000602 -0.084224 -0.045383
0.016182 0.046186 0.044689
0.005470 -0.060890 -0.040491
-0.004912 -0.064422 -0.039112
0.023964 0.090033 -0.019260
-0.018028 0.033293 -0.010171
-0.002053 -0.099212 -0.032905
-0.001106 -0.081038 -0.034642
-0.005162 -0.063600 -0.040199
-0.002972 -0.067115 -0.043974
0.003999 -0.053109 -0.039556
-0.014952 -0.086988 0.045476
0.004424 -0.043806 -0.043915
-0.004748 -0.066301 -0.041322
0.005616 -0.050420 -0.040341
-0.016128 0.101764 0.027725
0.014484 -0.098346 0.034865
0.004556 -0.061719 -0.037332
-0.000003 -0.094568 -0.006302
-0.004285 -0.075877 -0.043874
-0.014678 0.045334 0.045563
-0.000003 0.093931 0.045953
-0.017992 -0.093633 0.030176
-0.017174 -0.091569 -0.006110
-0.001899 -0.076183 -0.034865
-0.000017 -0.050458 -0.044352
0.000701 -0.046076 -0.035829
-0.000376 -0.076057 -0.045820
-0.026809 -0.013075 -0.020027
-0.001607 -0.090497 -0.037987
-0.028261 0.001385 -0.020027
-0.001811 -0.094579 -0.004351
0.001621 -0.084708 -0.045055
-0.001420 0.033661 -0.019027
-0.021884 0.033158 -0.016948
0.025128 0.036687 -0.027490
-0.000620 -0.086913 -0.035876
-0.021653 0.033146 -0.024836
0.005314 -0.074121 -0.041066
0.011488 0.067229 0.045772
-0.015032 0.029527 -0.010000
-0.018640 0.099978 0.030183
-0.026428 0.073188 -0.019012
-0.027990 0.051026 -0.019027
-0.002110 -0.060989 -0.035483
0.001027 -0.095492 -0.001908
0.021425 0.033265 -0.015557
0.002332 -0.050363 -0.044569
0.004621 -0.064050 -0.039471
0.015245 -0.090574 -0.016826
0.005609 -0.080756 -0.039223
-0.002402 -0.063608 -0.044758
-0.003235 -0.046857 -0.044005
-0.017458 -0.070221 0.003457
0.012982 -0.097769 0.037680
-0.010853 0.101486 0.038050
-0.017551 0.067675 -0.009066
0.014665 -0.093818 0.041686
0.003885 -0.061418 -0.043423
-0.004858 -0.050272 -0.039028
0.014672 0.045334 0.045563
0.004897 -0.045031 -0.043207
0.000870 -0.053105 -0.044171
-0.003294 -0.043369 -0.034517
-0.000466 -0.066307 -0.035346
-0.001726 -0.099261 -0.026364
-0.003933 -0.086925 -0.038400
-0.000442 -0.092938 -0.035778
0.000527 -0.102222 -0.013692
-0.014761 0.000876 -0.022527
-0.016710 -0.076721 -0.025853
-0.004089 -0.050447 -0.040969
-0.017391 -0.069834 0.004410
0.024780 0.038617 -0.028086
0.000757 -0.075720 -0.045768
0.019499 0.002223 -0.012527
0.009893 -0.098175 0.038208
0.001555 -0.049008 -0.041041
-0.017941 0.095564 0.038541
-0.015258 0.067995 -0.008966
0.022651 0.073983 -0.028109
0.012540 -0.098364 0.036800
0.017783 -0.067669 -0.010493
-0.020247 0.098886 0.016848
0.016037 0.008430 -0.011554
0.002093 0.033630 -0.027001
0.003881 -0.099804 -0.030977
-0.014099 -0.095628 0.001663
0.021895 0.091694 -0.019711
-0.003606 -0.100913 -0.012825
0.004850 -0.061537 -0.038679
-0.001581 -0.049070 -0.041070
0.002016 -0.097253 -0.005198
-0.000003 0.098607 0.042729
0.003998 -0.092391 -0.014140
0.015301 0.017077 -0.020025
0.023244 0.078162 -0.027554
0.002683 -0.082029 -0.045055
-0.000421 -0.049071 -0.037773
-0.013631 -0.078080 -0.027673
0.000567 -0.097775 -0.029182
-0.001858 -0.088440 -0.039123
0.020591 0.032796 -0.025571
-0.021552 0.033053 -0.019071
0.012564 -0.034116 -0.018630
-0.011493 0.067229 0.045772
-0.000003 -0.090587 0.045949
-0.015258 -0.069901 0.004207
-0.018130 0.037567 -0.010274
0.015751 -0.089792 0.044577
0.003391 -0.069414 -0.042958
-0.010523 -0.010065 -0.020027
-0.001082 -0.067123 -0.035513
-0.000060 -0.049032 -0.037768
0.002245 -0.101273 -0.026115
-0.015874 0.093363 0.044552
-0.026807 0.036531 -0.026156
-0.002480 -0.053121 -0.043400
0.000370 -0.046265 -0.035765
0.015616 -0.089003 -0.019303
0.001069 -0.097233 -0.031467
0.005411 -0.057000 -0.042102
-0.004089 -0.050447 -0.040969
-0.004811 -0.046860 -0.041529
-0.014585 -0.032615 0.045587
-0.015334 -0.092302 0.042922
0.019176 0.100156 0.017826
0.000565 -0.064407 -0.045219
-0.004062 -0.045140 -0.044136
-0.000112 -0.101858 -0.011181
-0.013840 -0.085895 -0.024194
0.015618 -0.097551 0.021690
-0.012434 -0.091151 0.045420
0.015659 0.096040 0.042435
-0.016850 -0.094835 0.036843
0.027468 -0.000480 -0.016027
-0.001972 -0.066568 -0.044189
0.014897 -0.028037 -0.028008
-0.016601 -0.087598 -0.019338
-0.004003 -0.087684 -0.022800
-0.002640 -0.082014 -0.035322
-0.015416 -0.033265 -0.013231
-0.002713 -0.075752 -0.045111
0.019711 0.031592 -0.018742
-0.016985 -0.011499 -0.012115
-0.000003 -0.098347 -0.026003
0.001976 -0.099877 -0.027359
0.002910 -0.087086 -0.042983
0.021234 0.080634 -0.008279
-0.012851 0.009085 -0.022527
-0.017467 -0.069064 -0.002671
0.001077 -0.074135 -0.034907
0.003649 -0.075358 -0.035972
-0.025806 0.035462 -0.025937
0.002489 -0.076159 -0.045258
-0.004306 -0.060905 -0.043601
0.004048 -0.050442 -0.039279
0.005725 -0.050354 -0.040088
-0.022230 0.080550 -0.027244
-0.014238 -0.078056 -0.027562
-0.016323 -0.083420 -0.024035
-0.003435 -0.063854 -0.036975
0.002292 -0.100529 -0.030485
-0.000003 -0.096742 0.007130
0.001326 -0.043802 -0.044339
0.020954 0.019727 -0.020025
-0.002968 -0.056759 -0.045125
0.004933 -0.050262 -0.039389
0.018730 0.030693 -0.024600
0.003538 -0.050426 -0.037922
-0.004376 -0.066728 -0.039462
-0.016872 0.031407 -0.027708
0.002041 -0.101057 -0.027004
0.005042 -0.082309 -0.042467
-0.015258 0.067995 -0.008966
-0.005022 -0.080761 -0.037546
0.024513 -0.001625 -0.020027
0.003552 -0.046860 -0.043702
-0.000172 -0.053905 -0.040445
0.016250 -0.078444 0.044626
-0.002945 -0.046295 -0.043558
0.018634 0.099978 0.030183
-0.005543 -0.075114 -0.040029
-0.005008 -0.084591 -0.041390
0.004642 -0.074132 -0.042958
-0.017392 -0.066361 -0.008329
0.017078 -0.076488 -0.025015
0.005262 -0.075782 -0.042198
-0.017819 -0.074606 0.012900
0.021234 0.080634 -0.008279
0.001034 -0.095078 -0.001657
0.025055 0.080339 -0.025594
0.025412 0.076859 -0.026202
-0.015258 -0.070285 0.002662
0.001366 -0.078186 -0.045819
-0.002747 -0.050344 -0.045239
0.003994 -0.096936 -0.033584
0.002425 -0.057861 -0.035040
-0.011926 0.033051 -0.028326
-0.000657 -0.099601 -0.034268
0.015047 0.084361 0.045431
-0.024384 0.080603 -0.026243
-0.016927 0.087465 0.044018
-0.022834 0.086362 -0.024445
0.004814 -0.058930 -0.037276
-0.004683 -0.061704 -0.042868
0.002678 -0.080876 -0.035217
0.015394 -0.092664 -0.010423
-0.017718 0.070266 0.006750
0.003587 -0.099474 -0.008412
-0.030584 0.001217 -0.016027
0.024898 0.084619 -0.012342
-0.014877 -0.082321 -0.025988
0.004375 -0.067112 -0.042218
-0.018070 0.028100 -0.012228
-0.015386 -0.095934 0.006430
-0.001234 -0.098670 -0.014028
-0.020196 0.095757 -0.012454
-0.001779 -0.095159 -0.005422
0.003440 -0.069174 -0.037402
-0.005222 -0.058011 -0.037912
0.001807 -0.098572 -0.010334
-0.000596 -0.096947 -0.009525
-0.000839 -0.090178 -0.037434
-0.003892 -0.069379 -0.042159
0.000602 -0.084224 -0.045383
-0.001790 -0.067110 -0.044675
-0.001513 -0.100463 -0.031392
-0.001465 -0.098875 -0.013931
-0.002244 -0.101153 -0.013508
-0.000997 -0.098370 -0.027861
-0.028354 0.038833 -0.024546
0.001130 -0.094257 -0.005628
0.017680 0.033232 -0.027936
0.022590 0.088357 -0.023049
-0.015096 -0.026533 -0.026760
-0.015989 0.029408 -0.010707
-0.015258 0.072565 0.005197
-0.012755 0.098985 0.040777
-0.001309 -0.061628 -0.045213
-0.023161 0.091915 -0.017883
0.016717 -0.091042 -0.011423
-0.015131 -0.065327 0.045388
-0.004127 -0.050495 -0.040496
-0.000003 -0.098347 -0.026003
0.023122 0.093834 -0.012614
-0.003999 -0.096936 -0.033584
0.020175 0.017537 -0.019955
0.020641 0.032492 -0.019033
-0.014490 -0.098346 0.034865
0.031277 0.005611 -0.019027
0.010555 0.068432 0.045789
-0.023142 0.093207 -0.014811
-0.005015 -0.064409 -0.040701
-0.029071 -0.002162 -0.016027
0.001069 -0.097233 -0.031467
0.005124 -0.084208 -0.039145
-0.018465 0.100595 0.027733
-0.017439 -0.067127 -0.007645
-0.000190 -0.069006 -0.044958
0.015902 -0.094711 0.001089
0.002128 -0.053156 -0.041401
-0.005738 -0.057187 -0.040047
0.002238 -0.101153 -0.013508
-0.025806 0.035462 -0.025937
-0.013865 -0.097723 0.037126
-0.015890 -0.090594 0.044037
-0.017595 0.028418 -0.025005
-0.014029 0.031100 -0.019027
0.002211 -0.095554 -0.003280
-0.001858 -0.088440 -0.039123
0.001601 -0.049066 -0.040832
-0.001512 -0.069180 -0.044365
-0.001494 -0.098785 -0.027766
-0.004306 -0.060905 -0.043601
0.018872 0.016590 -0.019827
0.015052 0.093274 0.045180
-0.018606 0.030770 -0.025400
-0.000983 -0.057415 -0.034571
-0.001683 -0.094484 -0.004802
-0.002684 -0.076509 -0.045196
-0.018606 0.030770 -0.025400
0.015028 -0.026150 -0.010000
-0.001650 -0.095297 -0.002453
-0.003685 -0.094974 -0.003089
-0.004477 -0.080500 -0.043747
-0.020017 0.031685 -0.016169
-0.000003 -0.096860 -0.009522
-0.003814 -0.043822 -0.036887
0.012747 -0.034312 -0.014277
-0.013749 -0.089609 -0.019910
0.016307 -0.092165 0.041672
-0.005162 0.033280 -0.026942
-0.021086 0.035508 -0.013811
-0.013947 -0.098168 0.036181
0.029012 -0.008044 -0.020027
-0.017436 -0.069286 0.005181
-0.024610 0.034292 -0.024379
-0.004802 -0.061311 -0.041630
0.001947 -0.064412 -0.035554
-0.004301 -0.046176 -0.041185
0.003733 -0.050350 -0.043457
0.004968 -0.050329 -0.040297
0.010242 0.095762 0.044954
0.013387 -0.091867 0.044773
0.016235 -0.087198 0.044636
-0.016911 -0.087151 0.043793
-0.018252 -0.024598 -0.019032
-0.021890 0.095911 -0.008915
0.002307 -0.053156 -0.040821
-0.000003 -0.095351 -0.000587
-0.004911 -0.074137 -0.037912
0.024638 0.082753 -0.025042
-0.005543 -0.075114 -0.040029
