-0.013523 0.090512 -0.074073
0.028037 -0.083373 0.082523
-0.052171 0.012336 0.000478
0.030367 -0.082852 0.057833
-0.054162 0.017801 -0.017753
0.018401 -0.087714 0.055020
0.050481 0.059049 -0.113788
-0.019805 -0.078376 0.035702
0.048253 0.020985 0.036392
0.052876 0.004670 0.011194
-0.051470 0.006213 -0.023596
-0.001986 -0.061564 0.015848
-0.050621 0.054757 -0.044304
-0.030615 0.028330 0.020425
-0.038708 -0.016120 -0.017606
-0.054388 0.045341 -0.103679
-0.018295 0.074578 -0.034722
-0.015676 -0.048213 0.006673
-0.041035 0.073810 -0.069520
-0.031002 -0.032623 -0.001005
-0.027184 -0.085498 0.063811
-0.011147 -0.081799 0.100380
-0.024005 0.027786 0.001266
-0.029691 0.083486 -0.081738
-0.052146 0.017266 -0.047678
-0.029226 0.058488 -0.028680
-0.046696 0.022722 -0.005285
0.053069 0.036689 0.054017
-0.048698 0.062749 -0.104575
-0.037373 0.025295 0.001509
0.019554 0.036721 -0.012969
-0.007998 0.073806 -0.031718
0.024184 -0.043308 0.114718
-0.021267 0.030639 0.016454
-0.053500 0.028050 0.055290
-0.025335 0.036910 -0.014420
-0.035610 -0.080344 0.072251
0.003907 -0.023868 -0.041452
-0.027383 -0.058308 0.023116
-0.037791 0.069525 -0.041053
0.048913 -0.000063 -0.021986
-0.049325 0.057760 -0.044979
-0.003980 0.049770 -0.018450
-0.016691 0.029401 0.013686
-0.005076 -0.020609 -0.058071
-0.054829 -0.007829 0.020109
0.046864 0.065993 -0.112497
0.020231 -0.026715 0.119659
0.018391 -0.069516 0.111294
0.037093 0.024549 0.005506
-0.037717 -0.070453 0.095108
-0.031465 -0.025316 -0.012391
0.038799 0.034513 0.029400
-0.024499 -0.042860 0.114637
0.043997 -0.021609 0.004485
-0.054018 -0.002996 0.047060
0.037786 -0.004946 -0.058784
0.035510 0.029811 0.025102
0.030644 0.076874 -0.043802
0.046834 0.032871 -0.021000
0.027724 0.028190 0.018080
-0.054475 0.044846 -0.123501
-0.053238 -0.034732 0.069543
-0.019809 -0.082489 0.042418
-0.015263 -0.017588 -0.068073
0.038450 -0.012580 -0.026168
-0.018424 -0.052043 0.011892
-0.048005 -0.062935 0.067574
0.030662 -0.008750 -0.096889
-0.054902 0.032627 -0.042450
0.042089 0.029199 0.031716
-0.052210 -0.026866 0.043607
0.015499 -0.072584 0.110075
0.017694 -0.048903 0.008372
0.045231 -0.071544 0.070877
0.034382 -0.073254 0.095587
0.042495 -0.069685 0.049503
-0.006707 -0.078848 0.105639
0.018457 -0.026943 -0.023753
0.037766 -0.060484 0.035625
0.014279 0.029051 0.012478
0.011700 -0.059302 0.116034
-0.000200 0.033352 0.013120
-0.041928 -0.030732 0.013936
0.042103 -0.038934 0.024647
-0.048734 0.027524 -0.016871
-0.004686 -0.091646 0.075371
-0.041805 -0.061531 0.092834
-0.010544 0.084302 -0.041991
0.016957 0.043143 -0.017110
-0.017231 0.079598 -0.039102
-0.048362 0.017241 0.003845
0.039292 -0.069454 0.093532
0.041458 -0.001859 -0.051215
-0.040992 0.068811 -0.044109
0.012148 -0.033807 0.121040
-0.013240 -0.084799 0.042794
-0.054103 -0.006490 0.029197
-0.004159 0.027883 0.007105
-0.038196 0.024777 0.002423
-0.050910 0.051061 -0.040749
0.005552 0.088982 -0.048446
0.044896 0.038466 -0.024782
-0.032203 -0.044486 0.015326
-0.010538 0.091057 -0.057788
-0.048730 -0.017897 0.011851
-0.033182 0.081051 -0.057880
-0.016449 0.089681 -0.058838
0.044161 0.023454 -0.002560
0.031540 -0.070692 0.101992
-0.043079 -0.061471 0.090534
-0.015517 -0.088297 0.083128
0.052394 0.051769 -0.045957
-0.051006 0.020958 -0.011425
-0.054096 0.027155 -0.098957
0.028718 -0.070212 0.104809
0.047539 0.054275 -0.038229
0.048747 -0.037203 0.040968
-0.001478 -0.087532 0.045282
0.027557 -0.010989 -0.088528
0.039356 -0.002394 -0.074235
0.050168 0.013093 0.007224
-0.053212 0.005662 0.046070
-0.019971 0.035193 0.017188
0.040636 -0.055871 0.036933
-0.052837 0.052470 -0.062381
0.049090 0.016192 0.034628
0.001331 0.031063 0.011986
-0.052214 0.054459 -0.097631
0.016973 -0.074530 0.029512
-0.016657 -0.064367 0.021290
-0.012704 0.033815 0.014726
0.034969 -0.021595 -0.013898
-0.044522 0.034284 -0.020221
0.040872 0.035275 -0.018490
-0.034884 -0.019393 -0.018422
-0.045947 0.016471 0.018594
0.034421 -0.078704 0.084461
-0.038722 -0.023846 -0.003108
0.019820 -0.076511 0.103769
0.038721 -0.034679 0.013074
0.021909 -0.045817 0.007521
0.054973 0.035322 -0.052421
-0.053566 -0.002732 0.023519
-0.053325 0.050715 -0.049658
-0.008935 -0.089203 0.051952
0.003914 0.027811 0.004881
-0.039794 -0.055433 0.035231
0.039920 0.075048 -0.123501
-0.018434 0.057666 -0.024731
-0.054888 -0.001500 0.008843
0.039832 -0.009626 -0.029928
-0.033199 0.027208 0.021211
0.037468 0.030393 -0.010289
0.051988 -0.035871 0.080039
-0.036897 -0.003953 -0.094016
-0.033318 0.033987 -0.013531
0.025599 -0.011557 -0.105952
-0.001975 -0.054788 0.009925
0.011163 -0.078793 0.104638
-0.002926 -0.028718 -0.027651
0.045442 0.040068 -0.123501
-0.043482 0.070845 -0.055374
-0.004298 0.092024 -0.109922
0.000027 -0.018035 -0.096827
0.044525 0.004841 -0.108436
-0.027711 -0.063418 0.027033
0.030367 -0.082852 0.057833
-0.051253 -0.040878 0.079389
-0.030742 -0.011153 -0.056042
-0.051664 -0.018728 0.025239
0.052349 0.022123 -0.017068
0.042471 0.071713 -0.053558
0.042348 0.072299 -0.103487
0.011210 -0.016656 -0.113458
0.008830 -0.020772 -0.052846
0.042989 -0.006489 -0.028402
0.009686 -0.089121 0.084882
0.011160 -0.085105 0.094540
0.041315 -0.070527 0.047986
0.006610 0.033606 -0.008284
-0.004495 0.075953 -0.032767
0.013341 0.090566 -0.123501
-0.044676 0.043677 -0.028704
-0.012609 -0.088585 0.084734
-0.054911 0.038762 -0.042922
-0.019008 -0.088791 0.062232
-0.044487 0.039591 -0.025432
0.045289 0.004957 -0.073430
0.045879 0.006790 -0.107980
0.045426 0.017714 0.013939
-0.005582 -0.086439 0.093596
0.021852 0.029966 -0.004341
0.033155 -0.006685 -0.123501
-0.044714 -0.012118 -0.010908
0.047138 0.015656 0.026235
0.012672 0.041112 -0.015114
0.020350 -0.088670 0.069334
-0.041998 0.021281 0.011224
0.046034 -0.064878 0.080804
-0.044198 0.020214 0.007900
0.006495 0.039001 -0.013076
0.052859 0.015421 -0.034723
-0.029540 -0.070904 0.103538
-0.039849 0.075092 -0.089929
-0.024899 -0.016401 -0.046153
0.053997 0.026354 -0.078091
-0.014075 0.085034 -0.044690
0.023117 -0.046621 0.009244
-0.051224 0.017933 -0.006633
-0.045902 0.016817 0.022602
0.048513 0.014288 0.030053
-0.007273 0.028349 0.009453
-0.016789 0.036689 0.120885
-0.041445 0.073341 -0.056538
-0.019659 0.087852 -0.055570
0.053952 -0.000192 0.048532
-0.037373 0.025295 0.001509
-0.054911 0.038762 -0.042922
-0.053159 0.021701 -0.051285
0.012625 -0.088785 0.084021
0.045453 0.034296 -0.123501
0.007932 -0.069199 0.114485
-0.013550 0.090502 -0.066207
0.043159 -0.069719 0.051095
-0.015517 -0.088297 0.083128
-0.047252 -0.008946 -0.009597
-0.024803 -0.084898 0.054024
-0.000231 -0.062694 0.016673
0.018162 -0.070246 0.025834
-0.053163 0.051292 -0.086847
-0.038139 0.076820 -0.057162
0.048114 0.010581 -0.115427
0.054575 0.033885 -0.037832
0.054851 -0.010317 0.026037
0.042457 -0.070214 0.050019
0.000005 -0.034683 -0.015907
0.025346 0.045117 -0.020496
0.018404 -0.077911 0.034248
-0.012103 0.039714 -0.014111
0.049298 0.018371 0.037138
0.027436 0.026536 0.006697
-0.040174 0.033256 -0.015705
-0.037027 0.057343 -0.031764
-0.054842 0.007832 -0.009153
0.023017 0.076719 -0.038764
-0.037945 -0.002751 -0.102827
-0.028832 -0.077233 0.095733
0.050171 -0.019906 0.020747
-0.034849 -0.062489 0.033232
-0.042045 -0.070593 0.049675
-0.014231 0.043774 -0.016953
-0.025757 0.029042 0.017653
0.039396 -0.052270 0.032191
-0.033213 -0.027983 -0.005299
0.052394 0.051769 -0.045957
0.053789 0.021837 -0.021565
0.046034 0.020562 0.030581
0.032202 -0.025933 -0.010300
-0.026294 -0.070188 0.106615
-0.037501 0.025499 0.023000
-0.022835 0.027258 0.004513
0.042741 0.020752 0.011163
0.004934 0.028873 0.010026
0.003626 -0.070454 0.022426
0.054662 0.043393 -0.112247
-0.029539 -0.083586 0.059078
0.054580 -0.023496 0.075205
-0.024236 0.026861 0.007413
-0.048965 -0.023804 0.022913
0.002045 0.066595 -0.026894
-0.027809 -0.034488 -0.001888
-0.051117 0.016569 -0.090101
-0.038196 0.024777 0.002423
-0.013240 -0.084799 0.042794
-0.040971 0.073882 -0.110915
0.020350 -0.088670 0.069334
0.052205 -0.027270 0.044217
-0.048237 -0.052605 0.082558
0.025098 -0.053734 0.017610
0.020966 -0.059287 0.112695
-0.053259 0.036689 0.082306
0.049786 0.030745 -0.022681
-0.046457 0.047871 -0.032918
-0.041237 0.065276 -0.040377
-0.051047 0.057664 -0.052236
0.042992 0.037652 -0.022468
0.040659 0.039864 -0.022961
-0.020030 0.088303 -0.057724
0.044026 0.019102 0.014638
-0.008786 -0.069512 0.114246
-0.054759 -0.006355 0.058138
-0.042475 -0.070185 0.050043
0.025934 -0.080938 0.092050
-0.034293 0.080188 -0.075959
0.054514 -0.018112 0.043764
0.046391 0.018271 0.028447
0.033728 -0.065505 0.033860
-0.001356 0.027787 0.005855
0.039696 -0.027265 0.106460
-0.031994 -0.011699 -0.046852
0.031918 -0.075738 0.042310
-0.053721 0.020201 -0.037512
0.030642 -0.083728 0.071218
-0.037728 -0.009426 -0.036698
0.054614 0.036689 0.061890
-0.053500 0.028050 0.055290
0.036758 0.024102 0.015398
0.052005 0.024283 0.048736
0.035906 -0.008213 -0.048137
-0.040093 -0.000845 -0.092803
0.037439 0.072176 -0.043933
0.054667 0.027513 -0.032432
-0.046936 -0.065423 0.061384
0.004618 0.059085 -0.022961
0.028060 -0.065588 0.028722
-0.043526 0.067615 -0.046680
-0.041424 -0.070255 0.047869
-0.000096 -0.057852 0.012635
0.010875 -0.069514 0.113795
-0.051773 0.018054 -0.008653
-0.050872 0.016235 -0.106619
0.032476 0.044119 -0.022357
0.004913 -0.027123 -0.031177
0.047854 0.014514 0.027255
0.035272 0.032340 0.025804
0.007037 0.091739 -0.106516
-0.027365 -0.070934 0.105253
-0.002900 -0.030814 -0.023006
0.037468 -0.042667 0.104879
0.032653 0.026899 0.000124
0.050757 0.038218 -0.031445
-0.039517 0.067835 -0.041073
-0.054314 0.045845 -0.110009
-0.008530 -0.018406 -0.077028
0.009188 0.030037 -0.002964
-0.031728 -0.060466 0.028540
0.003199 -0.085251 0.096385
0.010823 -0.022673 -0.041887
-0.028216 -0.037575 0.002816
-0.045928 -0.070574 0.072435
-0.041840 0.023145 0.002509
0.012502 0.090645 -0.057826
-0.031699 -0.042751 0.110003
0.003597 0.092094 -0.123501
-0.041211 -0.044581 0.099955
-0.049887 -0.007152 -0.004030
-0.039847 -0.037840 0.019024
0.025256 -0.016409 -0.045296
-0.050983 0.005971 0.022806
0.028788 0.082400 -0.052291
0.041700 0.021139 0.015229
0.030302 0.028161 0.020030
-0.045529 -0.037842 0.031471
-0.038121 -0.078064 0.061879
-0.001187 0.091403 -0.054512
0.045426 0.017714 0.013939
-0.019235 0.028532 0.013624
0.049686 -0.036300 0.043711
0.051840 0.017483 0.045012
-0.050231 0.006101 -0.029737
-0.049805 -0.016397 0.012990
0.000756 -0.088241 0.089964
-0.019877 0.075107 -0.035753
-0.018254 -0.061840 0.113273
0.025359 -0.083257 0.049750
-0.042662 -0.069413 0.049716
-0.054477 -0.005450 0.052372
0.045453 0.034296 -0.123501
-0.051906 0.020436 -0.013134
-0.011879 0.031751 -0.006203
0.030302 0.028161 0.020030
-0.033151 -0.031208 -0.000328
-0.010418 -0.053506 0.117610
0.019820 -0.076511 0.103769
-0.046098 0.067186 -0.098888
0.044764 -0.046614 0.038188
0.005103 0.028090 0.008216
0.050589 0.057586 -0.048905
-0.040293 -0.069678 0.045192
-0.045752 0.006698 -0.114090
0.020567 0.038625 -0.014762
0.009526 -0.036856 0.121057
0.026520 -0.041640 0.006300
0.020103 -0.015279 -0.076160
-0.001687 0.092166 -0.103969
0.034078 -0.070206 0.099850
-0.046167 0.021639 -0.001753
0.002679 0.081195 -0.036911
0.012070 0.030113 0.012956
0.006947 0.078589 -0.035061
-0.042408 0.020489 0.017192
0.048665 0.010736 -0.074832
0.008061 0.053559 -0.020634
-0.041667 0.049687 -0.030347
0.027834 -0.083454 0.054324
0.027819 0.084656 -0.123501
-0.049261 0.032908 0.043833
-0.009840 0.080460 -0.037317
-0.046765 0.015958 0.014212
0.007325 -0.077654 0.106988
-0.016887 -0.015408 -0.096639
0.032714 0.074540 -0.042267
0.020525 -0.080335 0.039116
0.007011 0.027811 0.007237
0.020842 0.027263 0.011060
-0.026497 -0.069849 0.030205
-0.024813 0.086275 -0.082431
-0.040026 -0.069615 0.092247
0.023994 0.038549 -0.015502
0.012672 0.041112 -0.015114
0.017829 0.029139 0.013821
-0.046493 0.006205 -0.058611
0.027776 -0.026003 -0.016004
-0.039133 -0.061454 0.038281
0.006856 -0.020441 -0.057784
0.054159 -0.025080 0.058501
-0.029334 -0.075250 0.038742
0.012117 -0.084039 0.040774
-0.014070 -0.074600 0.028451
-0.024801 -0.086343 0.075941
0.034311 -0.065135 0.101448
-0.028287 0.084357 -0.101255
-0.041877 -0.074529 0.075894
-0.049475 -0.041456 0.085625
-0.037407 0.026844 0.024786
0.003189 0.038978 -0.012887
-0.041214 -0.069432 0.046698
0.046089 0.003825 -0.047417
-0.003455 0.030737 0.011910
-0.041045 0.000608 -0.114042
0.021138 -0.017043 -0.052668
-0.054884 -0.006268 0.018661
0.030737 -0.060268 0.027440
-0.002022 -0.020338 -0.062466
-0.006864 -0.017853 -0.090578
-0.025562 0.035253 0.019750
0.051344 0.056934 -0.113755
-0.049475 -0.041456 0.085625
0.005466 -0.025427 -0.035734
-0.051235 0.024934 0.046647
0.023560 -0.013870 -0.074906
-0.041331 -0.074816 0.059861
0.019251 -0.082731 0.094539
-0.050506 0.009473 -0.036785
0.052999 -0.030500 0.079248
0.020350 -0.088670 0.069334
-0.009197 0.029881 0.012117
-0.012610 -0.083460 0.097036
-0.053493 0.024029 0.054425
0.035695 -0.052550 0.027090
0.025001 -0.015800 -0.048840
0.048751 -0.022390 0.019706
0.039829 0.022661 0.011199
0.043808 0.068265 -0.048524
0.043363 0.026761 0.032084
0.000549 0.035162 0.013474
0.013714 0.032279 0.014562
-0.051023 0.039378 -0.032749
-0.015630 -0.061244 0.018551
-0.034655 0.031451 0.025059
-0.009672 -0.089323 0.084163
-0.008894 -0.066934 0.020762
0.029349 -0.076926 0.095675
0.044247 -0.028158 0.015503
0.054851 -0.010317 0.026037
0.045267 0.005238 -0.081722
-0.007717 0.033600 -0.008318
-0.006218 0.091845 -0.103688
-0.020117 -0.070129 0.110238
-0.028148 -0.012775 -0.057062
0.037153 -0.019759 -0.013495
-0.023322 -0.060697 0.022035
-0.041328 -0.070653 0.048247
0.006010 -0.070684 0.114106
-0.013159 0.062993 -0.026146
0.047688 0.008930 -0.075082
0.000961 -0.033665 0.122457
-0.029709 0.068734 -0.034798
-0.037407 0.026844 0.024786
0.027417 0.026909 0.015369
-0.034898 -0.005716 -0.092896
-0.050149 -0.023532 0.027100
0.030355 -0.083615 0.062344
-0.052296 0.019812 -0.086901
-0.000589 0.080437 -0.036103
0.037814 0.026889 0.025280
0.042581 0.023654 -0.000523
0.045453 0.034296 -0.123501
0.054596 0.030352 -0.100755
0.018718 0.028099 0.001478
0.014443 -0.016813 -0.081869
-0.036045 -0.069672 0.097895
-0.021024 -0.030542 -0.014524
-0.011763 0.034441 -0.009607
-0.044877 0.022462 -0.001254
-0.050321 -0.041223 0.083028
-0.019008 -0.088971 0.072850
-0.038891 -0.050724 0.030176
0.024376 -0.042705 0.005765
0.016957 0.043143 -0.017110
0.004001 0.091292 -0.054634
0.017861 0.064750 -0.028138
-0.005006 0.036689 0.013717
0.054667 0.027513 -0.032432
0.046391 0.018271 0.028447
0.053344 0.001349 0.043596
-0.021910 -0.085797 0.084293
-0.045259 0.023100 0.031846
-0.023346 -0.057769 0.019769
0.021227 -0.080540 0.097037
-0.048965 -0.023804 0.022913
-0.030571 0.025863 0.009917
0.052101 0.006315 0.012345
-0.034555 0.032902 0.025359
-0.041468 0.073312 -0.098699
-0.047725 -0.061147 0.076828
-0.054582 0.005242 0.058374
-0.052180 0.019378 -0.082539
-0.048083 0.013659 0.026432
0.021852 0.029966 -0.004341
-0.040901 0.023530 0.024326
0.024994 0.026712 0.009235
-0.044899 0.004042 -0.065380
-0.039863 0.024481 0.001055
0.029416 0.049591 -0.024393
-0.046337 0.040831 -0.028069
0.025040 0.027897 0.015781
0.011118 -0.016890 -0.097513
0.054687 0.043181 -0.100450
0.051633 0.010351 -0.031750
0.051721 0.007853 0.038137
-0.026007 0.085652 -0.058444
-0.031908 -0.080854 0.083179
-0.018434 0.057666 -0.024731
0.031862 0.074073 -0.041025
-0.013159 0.062993 -0.026146
0.023345 0.082191 -0.046345
0.021223 -0.086013 0.052514
-0.012647 -0.019952 -0.052817
0.021626 0.028479 -0.000535
-0.037780 0.039010 -0.020607
-0.041712 -0.040950 0.026047
0.051595 0.012316 -0.036981
0.000759 -0.077244 0.108131
-0.043322 0.027209 0.032335
-0.012666 0.027597 0.007609
-0.000981 -0.056375 0.118100
-0.030726 0.036689 0.022865
0.019401 0.030688 -0.005340
0.002242 0.088370 -0.046576
-0.052360 0.013453 -0.033956
-0.051530 0.012048 -0.036655
-0.043034 0.020825 0.023126
0.016017 0.078572 -0.037490
-0.019490 0.088621 -0.074073
0.028035 -0.084854 0.061921
-0.012612 -0.087013 0.047568
-0.030508 -0.048597 0.017646
0.050731 -0.024856 0.089777
0.049686 -0.036300 0.043711
-0.023331 0.031728 -0.007785
0.019818 -0.083638 0.092222
-0.044899 0.004042 -0.065380
-0.008477 0.029391 0.011457
-0.054996 -0.021879 0.069532
0.054948 0.033013 0.065876
-0.039214 -0.053306 0.099703
-0.001620 0.042988 -0.015254
0.049704 0.011838 0.031884
-0.033090 0.026930 -0.000297
0.051917 -0.014923 0.018959
0.028742 -0.084889 0.069419
0.039449 0.069335 -0.042699
-0.044714 -0.012118 -0.010908
0.003532 0.050739 -0.018846
0.005809 0.091885 -0.112921
-0.009373 0.030421 0.012611
-0.052510 0.015888 -0.038866
-0.006306 -0.070105 0.114412
0.046571 0.031257 0.038682
0.011161 -0.091144 0.066386
0.022054 0.036689 0.018105
-0.054123 0.040580 -0.040350
-0.047643 0.013952 0.017841
0.012653 0.090718 -0.105750
0.014106 0.069866 -0.030249
0.001015 -0.051989 0.119032
0.035363 -0.005558 -0.086921
0.039079 0.024274 0.003133
-0.053637 0.023602 -0.049705
0.006526 0.035193 0.013819
0.048536 0.063084 -0.102844
-0.054997 0.036689 0.068905
-0.032960 0.065849 -0.034448
-0.038738 -0.003998 -0.058300
0.032057 -0.035249 0.004012
0.050697 0.010338 -0.037983
-0.051353 0.056876 -0.068979
0.004232 -0.017650 -0.109348
0.055001 0.036192 -0.118503
-0.042045 -0.070593 0.049675
-0.047966 0.034151 0.041485
-0.043274 0.039455 -0.024353
0.028035 -0.084854 0.061921
0.019820 -0.087812 0.079292
0.021632 -0.019201 -0.041346
0.022966 0.083311 -0.048000
-0.041805 -0.061531 0.092834
0.040547 0.024346 0.025248
0.054990 0.035719 -0.114080
-0.033610 0.026357 0.001378
-0.039841 0.061288 -0.035926
0.002982 -0.092021 0.064480
0.054793 0.032127 -0.078527
-0.044877 0.022462 -0.001254
-0.043893 -0.005628 -0.027528
0.007385 -0.026723 -0.031354
-0.035976 0.078785 -0.082504
0.025974 0.075893 -0.039451
-0.019233 -0.014742 -0.092470
-0.053799 0.048611 -0.113795
0.009055 0.033741 0.013957
0.043114 -0.053678 0.093916
0.054660 0.025477 -0.036882
0.040902 0.021900 0.019049
0.046952 0.056765 -0.039542
-0.043310 0.070257 -0.052035
-0.044733 0.041776 -0.027368
-0.021286 -0.051187 0.012669
-0.044298 -0.026538 0.101053
-0.038688 -0.044989 0.102889
0.043445 0.070916 -0.055416
-0.024899 -0.016401 -0.046153
0.040902 0.021900 0.019049
-0.019006 -0.026986 -0.023159
0.013574 -0.089907 0.059041
-0.042376 0.020931 0.020986
-0.011711 0.027749 0.004733
0.044569 -0.070387 0.056276
0.036472 -0.004124 -0.102275
-0.038654 -0.078009 0.071392
0.040257 -0.020709 -0.005529
-0.040236 -0.072837 0.086619
-0.041694 0.060534 -0.036917
-0.036007 -0.070198 0.097605
0.041539 0.060505 -0.036742
0.025903 -0.070548 0.106634
0.013129 0.049640 -0.019720
-0.014069 -0.079319 0.034116
0.041315 -0.070527 0.047986
0.014086 -0.089964 0.076703
-0.012635 -0.038883 -0.006214
0.048156 0.034494 -0.024400
0.007033 -0.031921 -0.019796
0.003523 -0.046112 0.000875
-0.030827 -0.082552 0.079269
0.012117 -0.084039 0.040774
-0.012383 -0.090429 0.060843
0.023974 -0.012412 -0.103207
0.027379 -0.053187 0.018918
0.040281 -0.012958 -0.020763
0.045408 -0.069506 0.058106
-0.021651 -0.053640 0.113691
0.052415 0.053891 -0.100490
-0.054190 0.022924 0.057856
-0.014967 0.057032 -0.023563
0.016960 -0.065669 0.022314
-0.036651 -0.025541 -0.003961
0.049123 0.003294 -0.028713
0.021360 -0.070199 0.109587
-0.015582 -0.061825 0.114283
-0.052296 0.019812 -0.086901
-0.051003 0.056860 -0.049364
0.043744 0.019269 0.019666
-0.044976 0.000970 -0.042545
-0.027936 0.030587 0.020032
-0.031231 -0.008955 -0.081875
0.049307 -0.056498 0.071569
0.051101 0.015236 -0.053557
-0.033308 -0.006678 -0.103970
0.008207 -0.085973 0.043144
-0.042713 -0.043232 0.030453
0.049726 0.011065 -0.049113
0.050348 0.025018 0.044249
-0.046098 0.065709 -0.049806
0.034420 -0.075252 0.044761
0.054951 -0.013814 0.037989
-0.044690 0.053259 -0.034686
-0.053020 0.042527 -0.038458
-0.039819 -0.042871 0.024506
-0.054878 0.033364 -0.047036
0.036530 0.031441 -0.011409
-0.053780 0.048699 -0.058722
-0.043134 0.044942 -0.028426
0.036368 0.074077 -0.045443
-0.031910 -0.083004 0.069884
-0.007863 -0.018022 -0.084503
-0.043303 -0.061362 0.045816
-0.028291 0.080336 -0.047343
-0.053067 0.036689 0.054053
-0.011181 0.036689 0.014644
-0.047989 0.063987 -0.053442
0.050160 0.034061 -0.026854
0.001067 -0.041419 0.121090
0.037562 -0.021084 -0.010193
-0.054623 -0.011396 0.046764
0.037072 0.026186 0.023578
0.012688 0.043405 -0.016492
-0.010520 -0.042052 -0.002657
0.014311 0.087937 -0.050529
0.020231 -0.026715 0.119659
-0.017183 0.031280 0.015195
0.047688 -0.063032 0.074351
-0.023547 -0.033368 -0.007659
0.043614 0.040052 -0.025119
0.044845 0.068530 -0.052806
-0.002640 0.070302 -0.029085
-0.012635 -0.038883 -0.006214
0.018972 -0.085150 0.089446
0.000961 -0.033665 0.122457
-0.025431 0.027089 0.014165
-0.004601 -0.045923 0.000802
0.029462 -0.025078 -0.015601
0.053176 0.000112 0.019263
-0.019083 0.029233 0.014442
0.031311 -0.061724 0.105318
-0.014231 0.043774 -0.016953
0.043808 0.068265 -0.048524
-0.036460 0.024832 0.019606
0.052859 0.015421 -0.034723
-0.007947 0.028023 0.008646
0.019311 0.077160 -0.037460
0.044572 0.004799 -0.101740
-0.008337 0.030745 -0.004273
-0.053772 0.007523 -0.014307
0.016129 -0.015656 -0.096438
-0.051525 -0.031204 0.046383
0.035818 -0.033323 0.108816
0.001665 -0.032752 -0.019301
-0.010219 0.037528 -0.012291
0.046219 -0.061387 0.053782
0.051101 0.015236 -0.053557
0.032876 -0.027489 0.112516
0.011210 -0.016656 -0.113458
-0.054947 0.034787 -0.055903
0.044569 -0.070387 0.056276
0.019168 -0.020188 -0.041590
0.014721 0.090188 -0.114135
-0.041156 0.021605 0.013848
0.053636 0.034119 -0.034470
-0.020254 -0.069507 0.110439
-0.054270 -0.021061 0.049323
-0.040021 0.025271 -0.001650
-0.028176 -0.010826 -0.083919
-0.050390 0.059232 -0.073052
0.039346 0.023154 0.019645
0.032216 -0.077324 0.045529
0.051572 0.018104 -0.116227
0.049861 0.013077 -0.070251
0.004278 0.091923 -0.057767
0.046952 0.056765 -0.039542
-0.045684 0.003616 -0.049274
-0.003815 -0.070789 0.114268
0.018567 0.029710 0.014665
-0.049552 0.029323 0.043844
-0.054589 0.028036 -0.042306
-0.000738 -0.079400 0.105545
0.029348 -0.083930 0.076509
0.044521 -0.070937 0.057695
0.042471 0.071713 -0.053558
-0.010944 0.057813 -0.023122
-0.042836 -0.072262 0.055832
0.031968 0.066980 -0.034684
-0.034393 -0.072871 0.096098
-0.053500 0.028050 0.055290
-0.031579 -0.007970 -0.102306
-0.036175 0.034625 -0.015374
-0.011867 0.027993 0.009654
0.033526 0.071029 -0.038899
0.001790 -0.030956 -0.022878
0.020565 0.027652 0.003073
0.020579 0.030626 0.016144
0.027660 0.033824 0.020739
0.017040 0.031192 -0.005885
-0.047357 0.024070 0.036934
0.052162 0.036689 0.051025
-0.053793 0.004372 0.006220
0.043945 0.070278 -0.115752
-0.025800 -0.063009 0.025352
0.054895 -0.005339 0.016567
0.049307 -0.056498 0.071569
-0.006376 0.087205 -0.045178
0.045869 -0.025724 0.098879
0.006375 -0.021177 -0.052676
-0.043028 0.027778 -0.010053
-0.043034 0.020825 0.023126
-0.015264 -0.090205 0.066047
0.038974 -0.070533 0.093164
0.016752 0.037538 -0.013160
-0.018771 0.082736 -0.043971
-0.046339 -0.069740 0.072504
-0.051253 -0.040878 0.079389
0.038427 0.075024 -0.050876
0.054806 0.032312 -0.086218
0.049728 0.053122 -0.040434
0.016038 -0.070168 0.111955
-0.007863 -0.018022 -0.084503
0.018402 -0.079982 0.037208
0.003952 0.030375 -0.003372
-0.040441 -0.006119 -0.038157
-0.042452 -0.069685 0.087540
-0.035757 0.028845 0.024804
0.009470 -0.084157 0.096992
0.050808 0.017179 -0.003813
-0.021087 0.031670 0.016859
-0.027383 -0.058308 0.023116
-0.019808 -0.084031 0.045649
0.035695 -0.052550 0.027090
0.012624 -0.088446 0.051789
0.025005 0.034262 0.019349
-0.048698 0.011257 -0.090638
-0.024818 0.028040 0.015898
-0.023331 0.031728 -0.007785
-0.018595 -0.019100 -0.047086
-0.044895 -0.069447 0.056056
0.014576 0.072544 -0.032108
0.014968 0.027669 0.004768
0.011002 0.033299 -0.008218
0.006856 -0.020441 -0.057784
0.020525 -0.085322 0.049547
0.037381 -0.004902 -0.065148
0.036091 -0.012692 -0.031702
0.009111 -0.069653 0.114134
-0.030740 -0.070348 0.103017
0.020058 -0.070801 0.027182
0.040463 -0.000035 -0.114581
0.053216 0.043347 -0.039459
-0.042935 0.020300 0.013132
0.040276 -0.069751 0.091754
-0.045193 0.027692 -0.012203
0.039398 -0.069668 0.043662
0.009600 -0.050068 0.006485
-0.041189 0.034257 0.031924
0.040937 0.073322 -0.053215
-0.018181 0.087656 -0.053234
0.045442 0.040068 -0.123501
-0.036007 -0.070198 0.097605
-0.029032 0.029032 0.019851
0.037706 0.024157 0.019482
-0.023758 -0.077195 0.100313
-0.007735 0.027754 0.006939
-0.040962 -0.004146 -0.043117
-0.051678 0.018341 -0.108757
-0.043936 0.019354 0.021655
0.011160 -0.090885 0.062666
0.015431 -0.035245 -0.010409
-0.053653 0.013214 -0.024645
-0.051813 0.055631 -0.062408
0.044125 0.004398 -0.115970
-0.014545 0.090232 -0.100142
-0.054511 0.029484 -0.058567
-0.051092 0.036854 -0.030941
-0.052142 0.004645 0.037174
-0.047766 0.021944 -0.005746
0.013718 -0.043783 0.000733
0.051614 -0.040932 0.060390
-0.047842 0.050263 -0.035742
0.044761 0.025244 -0.007403
0.046295 -0.000666 -0.031312
-0.033966 0.058332 -0.030691
-0.000771 -0.017873 -0.103479
-0.020332 0.059947 -0.026346
-0.007116 -0.062681 0.017316
-0.044381 0.036689 0.100983
-0.054185 0.004391 0.053537
-0.052539 0.005677 -0.017248
-0.054947 0.034787 -0.055903
0.054693 0.025057 0.062273
-0.051253 -0.040878 0.079389
-0.052791 0.019514 -0.014597
-0.054875 0.024922 0.064597
0.023690 -0.066593 0.026351
0.011214 -0.030953 -0.020097
-0.016773 0.077752 -0.037001
-0.054907 0.021492 -0.028263
-0.047391 0.015804 0.011505
0.029349 -0.074869 0.038200
0.054975 0.035082 -0.058098
0.028249 0.029047 0.019302
0.054922 0.021639 -0.028451
0.048536 0.063084 -0.102844
-0.052539 0.005677 -0.017248
0.021281 -0.029733 -0.015811
-0.019083 0.029233 0.014442
0.036837 -0.006389 -0.053913
-0.054784 0.029844 -0.041325
0.040511 0.032272 -0.014673
-0.054281 -0.002432 0.005857
-0.026007 0.085652 -0.058444
-0.052171 0.026319 -0.022343
0.039234 0.036689 0.107068
-0.050268 0.013018 0.006902
0.040903 0.071731 -0.048803
0.051758 0.014296 -0.041397
0.027724 0.028190 0.018080
-0.014039 0.081164 -0.039445
-0.025803 -0.055262 0.019464
-0.041884 -0.003544 -0.041187
-0.051017 -0.031704 0.086153
0.044192 -0.053837 0.091925
0.054693 0.025057 0.062273
0.016972 -0.082845 0.095854
-0.002401 -0.018229 -0.090505
0.006354 0.036844 -0.011421
-0.005967 -0.091908 0.066896
-0.041937 0.024311 -0.001432
0.001167 0.029338 -0.001044
-0.009877 -0.061945 0.017311
0.054409 0.010038 0.057063
0.016541 0.027658 0.010258
0.010652 -0.029443 -0.023458
-0.019804 -0.080355 0.038678
0.035509 0.079204 -0.113933
-0.012831 0.090565 -0.057832
0.028096 -0.070588 0.031961
-0.034813 -0.021695 -0.013951
0.027246 -0.083124 0.052163
-0.042770 0.070363 -0.050537
-0.045596 -0.070178 0.076716
-0.047794 0.040559 -0.029340
-0.044140 -0.021840 0.005244
-0.010296 0.077938 -0.035170
0.030643 -0.082014 0.055053
0.044178 0.000049 -0.043517
0.048244 0.028581 0.040965
0.009967 0.091281 -0.108567
-0.027419 0.027774 -0.000039
0.032326 0.081693 -0.106973
0.033227 0.028797 -0.005327
-0.000048 -0.036549 -0.012745
-0.005621 -0.030918 -0.022194
0.048158 0.008695 -0.054353
-0.051813 0.055631 -0.062408
0.004675 0.086458 -0.043574
-0.054129 -0.005591 0.025314
-0.006855 -0.032404 -0.018952
-0.013517 0.066352 -0.028048
-0.027272 0.084952 -0.090014
-0.032433 -0.069755 0.035067
-0.038627 0.076342 -0.100601
-0.038696 -0.070828 0.093154
0.008061 0.053559 -0.020634
0.049409 0.055170 -0.041929
0.048581 0.011330 -0.107817
-0.054694 0.042958 -0.100077
0.009916 -0.024621 -0.035978
0.054840 0.001939 0.000607
-0.049468 0.014559 0.034351
-0.051066 0.045532 -0.036719
0.024296 -0.039641 0.001909
0.049112 0.061971 -0.058822
-0.017899 0.037633 -0.013445
0.010925 0.058999 -0.023707
-0.048262 -0.030270 0.030377
0.023375 -0.052819 0.015570
-0.030658 0.027020 0.018802
-0.014072 -0.083284 0.040332
-0.037304 0.060022 -0.033407
-0.041610 -0.000067 -0.070099
0.009990 -0.053218 0.117758
0.005647 -0.048629 0.119402
-0.011409 -0.024282 -0.036009
0.028060 -0.065588 0.028722
0.054964 0.029390 -0.037429
0.005376 0.032507 0.013094
-0.028813 0.083129 -0.054413
0.049726 0.011065 -0.049113
-0.009886 -0.017106 -0.098098
0.053040 0.019832 -0.015944
0.000190 -0.070198 0.114801
0.028355 0.084328 -0.100808
-0.016361 -0.019865 -0.047271
0.034978 0.047647 -0.025606
-0.039067 0.025975 0.025740
-0.034398 -0.081270 0.065486
0.024552 0.036689 0.019275
-0.003415 0.038139 -0.012280
0.030302 0.028161 0.020030
-0.039060 -0.070485 0.093060
-0.005303 -0.048554 0.003928
-0.002803 -0.035248 -0.014628
-0.034286 0.027260 -0.002148
-0.052526 0.020337 -0.073843
0.054999 0.038186 -0.118503
0.043612 -0.010527 -0.017259
0.032912 -0.070730 0.100603
-0.053773 0.048727 -0.066485
0.036800 -0.004154 -0.090631
-0.044597 0.069377 -0.059205
-0.048038 0.009220 -0.065316
0.019114 -0.088617 0.061081
-0.051353 0.056876 -0.068979
0.036798 0.043323 -0.023653
-0.027888 0.030405 -0.006611
-0.053835 0.021460 -0.021317
0.052303 -0.040152 0.072301
0.049637 -0.052152 0.076709
-0.041424 -0.070255 0.047869
0.010977 -0.027700 0.122321
-0.037407 0.026844 0.024786
0.039971 -0.000953 -0.094030
-0.032725 0.081390 -0.101287
0.007642 0.081463 -0.037826
0.032104 0.079320 -0.049651
-0.046302 0.058507 -0.040239
-0.003642 -0.069489 0.114941
0.014714 -0.033820 0.120372
-0.001969 0.036018 -0.010546
0.033320 -0.058948 0.029109
0.025657 -0.011875 -0.092608
-0.001698 0.034470 0.013398
-0.020814 0.030049 -0.004312
-0.050041 0.029847 -0.022115
0.009685 -0.080037 0.033590
0.037544 -0.054620 0.031201
-0.032203 -0.044486 0.015326
0.039769 0.022510 0.013944
0.040288 0.034011 -0.016675
0.054975 0.035082 -0.058098
-0.011479 0.075662 -0.033639
0.029348 -0.083930 0.076509
0.045436 -0.069780 0.078490
0.046582 -0.034044 0.029902
0.038116 -0.078521 0.070058
0.002469 0.028187 0.008143
-0.045628 0.018545 0.009231
-0.046332 0.019223 0.029675
-0.005222 -0.079118 0.031460
-0.002194 0.034291 -0.008860
-0.043893 -0.005628 -0.027528
0.026380 0.071880 -0.035709
-0.051784 0.017847 -0.066179
-0.030924 -0.008641 -0.094044
0.045810 0.036004 -0.023290
0.035780 0.031071 0.025877
-0.045899 -0.069663 0.076189
0.018383 0.028207 0.012679
0.054951 -0.013814 0.037989
0.027271 -0.050707 0.016600
-0.026690 -0.084584 0.056482
0.052205 -0.027270 0.044217
-0.019122 -0.086132 0.086632
-0.015848 -0.043084 0.000829
-0.047643 0.013952 0.017841
-0.054872 0.040876 -0.112009
0.032190 -0.015433 -0.033116
-0.033639 0.032728 -0.012029
0.041394 -0.001084 -0.057610
0.031886 0.025942 0.016754
0.027541 -0.070747 0.105302
-0.027365 -0.070934 0.105253
0.016953 -0.072453 0.027365
-0.002882 -0.090764 0.081371
0.021223 -0.086013 0.052514
0.025891 -0.032238 -0.007265
0.023498 0.032052 0.018109
0.034062 -0.014184 -0.032436
-0.052129 0.054728 -0.051157
-0.046198 0.006387 -0.073539
-0.035919 0.039327 -0.020035
-0.026009 -0.070915 0.106236
-0.046066 -0.070563 0.066830
0.006725 -0.089913 0.083542
-0.007955 0.076550 -0.033621
-0.008934 -0.086858 0.091636
0.042252 0.033404 -0.017247
-0.019008 -0.088791 0.062232
-0.034705 -0.069982 0.037633
0.037778 -0.002752 -0.114984
0.008798 0.091483 -0.106550
0.041494 0.069061 -0.045203
0.025220 0.042893 -0.019058
0.049767 0.025241 0.042911
-0.030629 -0.079319 0.089513
-0.039568 -0.046474 0.027588
0.029490 0.063037 -0.031116
-0.048237 -0.052605 0.082558
0.040649 0.067531 -0.042037
0.040536 0.000036 -0.123501
-0.022369 -0.013044 -0.113545
0.006610 0.033606 -0.008284
-0.047351 0.028455 -0.016036
-0.023349 -0.015454 -0.057179
0.030530 0.082949 -0.058094
-0.053572 0.024637 -0.099987
-0.014632 0.090207 -0.114792
0.004860 0.028383 0.009012
-0.053575 0.001399 -0.004645
0.029462 -0.025078 -0.015601
-0.043196 -0.069568 0.085874
-0.002576 -0.020900 -0.057204
-0.046210 -0.070155 0.071948
0.028695 -0.083750 0.079524
-0.040896 -0.027209 0.105144
-0.000200 0.033352 0.013120
-0.015855 0.089724 -0.057707
0.032202 -0.025933 -0.010300
-0.026616 -0.038453 0.002407
0.011279 0.064000 -0.026346
-0.048038 0.009220 -0.065316
-0.027788 -0.054167 0.020129
0.048374 0.017771 0.002452
-0.054649 0.012428 -0.012637
0.049323 0.028567 -0.019286
0.029739 -0.011771 -0.056672
-0.009589 -0.042662 0.119971
-0.025342 -0.081096 0.044680
-0.047966 0.034151 0.041485
0.040761 -0.072329 0.086640
-0.019807 -0.087945 0.078589
0.049760 0.030625 0.044547
0.047134 -0.032556 0.094759
0.014873 -0.019329 -0.052885
-0.042272 0.071976 -0.053827
0.053881 0.043987 -0.042125
-0.054784 0.029844 -0.041325
-0.034812 -0.079520 0.056242
-0.006030 0.091333 -0.055682
-0.043149 0.032459 -0.016794
0.033423 -0.007472 -0.079535
0.039693 -0.041713 0.023080
0.004360 0.027807 0.006546
-0.008197 -0.077911 0.030493
-0.044697 0.002648 -0.052400
0.052777 0.021464 -0.094788
0.039494 0.054508 -0.031675
0.029870 -0.052724 0.020759
-0.053059 0.044353 -0.039837
0.053542 0.023851 -0.056774
-0.040236 -0.073965 0.053153
0.053170 0.051310 -0.058726
-0.047530 0.009439 -0.105946
0.048660 -0.054447 0.079410
-0.041475 0.039954 -0.023543
0.048596 -0.033760 0.036208
-0.037581 -0.035733 0.012544
0.026190 0.084773 -0.055085
0.031826 0.062924 -0.032097
-0.000857 0.027835 0.004614
-0.054993 0.037828 -0.100175
0.035428 -0.019008 -0.018249
-0.028525 -0.044119 0.011036
-0.010418 -0.053506 0.117610
-0.048252 0.017246 0.032983
0.020270 0.062012 -0.027350
-0.053132 0.022796 -0.094874
0.040866 0.034319 0.031559
-0.052753 -0.016291 0.026136
-0.005224 -0.091432 0.060329
-0.047038 0.002190 -0.035828
-0.054262 -0.004436 0.020515
0.032687 -0.054128 0.106292
-0.043115 0.021078 0.007798
-0.036056 0.032835 0.026599
0.023646 -0.018331 -0.040969
-0.047759 0.042762 -0.030898
0.046499 -0.069608 0.066315
0.030644 0.076874 -0.043802
0.012384 -0.025650 -0.031488
0.012517 -0.018398 -0.067369
0.017050 -0.025903 -0.027318
0.034583 -0.080748 0.061491
0.036280 -0.004120 -0.115092
-0.018900 -0.031349 -0.014746
-0.019165 -0.039306 -0.002261
0.037780 0.025134 0.022631
0.043481 0.034415 -0.019442
-0.035924 0.075185 -0.046763
0.014084 -0.090476 0.065669
-0.000048 -0.036549 -0.012745
-0.051319 0.015151 -0.049391
0.030302 0.028161 0.020030
-0.042663 -0.000921 -0.048065
0.047225 -0.030087 0.026606
0.013830 0.061422 -0.025467
0.031154 0.082523 -0.114353
0.011607 -0.016621 -0.105494
-0.053165 -0.001266 0.037300
-0.043381 0.019548 0.017707
0.050579 0.019403 0.041708
0.012318 -0.057278 0.014144
0.048711 0.015877 0.032992
-0.024424 -0.069961 0.028909
-0.043175 0.023393 -0.000767
-0.042375 -0.072378 0.082229
-0.019523 0.088609 -0.098766
0.001380 0.036689 0.123487
0.015536 -0.079029 0.034334
-0.001553 -0.064860 0.018373
-0.021214 -0.086862 0.081285
0.034016 -0.026497 0.111730
0.035067 0.034075 0.025950
-0.007329 -0.042761 -0.002633
-0.002221 0.077404 -0.033644
0.007342 -0.035712 -0.012933
0.048704 -0.059779 0.068814
0.001262 0.036689 0.013507
0.015449 0.027458 0.007627
-0.010817 -0.027304 0.122408
0.033000 0.056369 -0.029247
-0.028148 -0.012775 -0.057062
-0.048410 0.010338 -0.076717
-0.033163 -0.011510 -0.043721
0.027819 0.084656 -0.123501
-0.043526 0.067615 -0.046680
-0.047913 0.029558 0.040625
-0.014109 -0.018871 -0.058489
0.048913 -0.000063 -0.021986
-0.040344 -0.061598 0.095152
-0.033218 0.025297 0.013963
-0.050317 -0.030276 0.088743
-0.031052 0.025782 0.012368
-0.027779 -0.066738 0.029242
0.054579 0.018183 -0.020414
-0.046170 0.007240 -0.107041
0.014735 0.090191 -0.058842
-0.008665 -0.021810 -0.047364
0.043118 -0.036970 0.024556
-0.047399 0.008384 -0.073564
-0.030631 -0.079137 0.047084
-0.051384 -0.037416 0.054045
-0.003331 0.065294 -0.026213
0.040725 0.074167 -0.103351
0.039788 0.064142 -0.037938
-0.033319 0.033679 0.024521
-0.030235 0.034599 -0.013315
0.006277 -0.062865 0.017323
-0.045341 -0.069591 0.079075
-0.046525 -0.002565 -0.025626
0.033184 -0.079961 0.053659
0.034587 -0.011907 -0.037988
-0.016657 -0.064367 0.021290
0.008279 0.032924 0.013638
-0.006876 0.047385 -0.017674
0.016129 -0.015656 -0.096438
0.001228 0.086180 -0.042805
0.054159 -0.025080 0.058501
0.028345 -0.012361 -0.060223
-0.051941 0.047870 -0.040013
0.006726 -0.088438 0.048645
-0.054866 0.033204 -0.068733
-0.044676 0.043677 -0.028704
-0.011623 0.028332 0.010518
0.034045 -0.069804 0.036748
0.043744 0.045484 -0.029202
-0.054605 0.023773 -0.027881
-0.031373 0.028148 -0.002914
0.019118 -0.061790 0.112921
-0.015484 -0.072682 0.109979
0.053738 0.027534 -0.028366
-0.041084 0.000482 -0.102719
-0.051997 0.018276 -0.057748
-0.030128 0.045232 -0.022191
0.022727 -0.013704 -0.083842
-0.012773 -0.018599 -0.064597
0.033385 -0.027876 -0.005247
-0.010944 0.057813 -0.023122
0.022922 -0.020438 -0.035232
-0.031223 -0.070924 0.102037
0.003195 -0.090766 0.055740
0.044853 -0.070645 0.078974
-0.039862 -0.076592 0.062093
0.003744 -0.091145 0.079174
-0.000668 -0.018436 -0.087211
0.042457 -0.070214 0.050019
0.016510 0.027474 0.009149
0.010278 -0.038693 -0.007406
-0.038632 0.040775 -0.022584
-0.051406 0.056735 -0.088560
-0.006206 -0.028453 -0.027448
-0.037987 -0.045967 0.024568
-0.026155 -0.079582 0.094418
0.000831 -0.019613 -0.070350
0.002059 -0.017776 -0.112355
-0.038086 0.053367 -0.030259
-0.042074 -0.011290 -0.019795
0.029550 0.036689 0.022100
0.007069 -0.017450 -0.102056
0.003415 0.044635 -0.016128
-0.009681 -0.072921 0.111482
0.033621 0.026565 0.020608
-0.051463 0.013819 -0.042354
-0.045257 0.019532 0.006961
-0.025035 0.030426 -0.005928
-0.034859 0.079642 -0.056691
-0.053206 0.013402 0.049550
0.026465 -0.061764 0.108947
-0.054045 0.044664 -0.043642
0.016414 -0.027313 0.120977
-0.028525 -0.044119 0.011036
0.001789 0.090082 -0.050366
-0.011867 0.027993 0.009654
-0.003990 -0.049158 0.119450
0.040345 0.029234 0.029673
0.050098 -0.032014 0.088591
0.033474 -0.007891 -0.071617
0.051322 0.000442 -0.013012
-0.051155 0.016788 -0.097294
0.001380 0.036689 0.123487
0.039808 0.071382 -0.046105
-0.035231 0.024653 0.013841
0.039211 -0.003024 -0.065680
-0.013644 -0.069620 0.113001
-0.034400 -0.081362 0.069229
0.039292 -0.069454 0.093532
-0.018900 -0.031349 -0.014746
0.040699 -0.076244 0.070783
0.051926 0.037565 -0.032996
-0.024750 -0.086760 0.072139
0.023384 -0.021862 -0.030666
0.017957 0.088006 -0.054013
-0.009859 0.066506 -0.027520
0.018718 0.028099 0.001478
-0.047361 0.063067 -0.048233
-0.021314 -0.024602 -0.026289
-0.018461 -0.015604 -0.080935
0.054075 -0.007370 0.014552
0.039463 0.058246 -0.033745
0.043897 0.060570 -0.039089
-0.033875 -0.069752 0.036552
0.027640 -0.055278 0.020903
-0.018742 -0.020342 -0.041616
-0.043079 -0.061471 0.090534
-0.011188 -0.018476 -0.070028
0.030347 -0.016591 -0.033644
-0.049108 0.014274 0.008673
0.045276 -0.070548 0.077316
-0.050978 0.057824 -0.113533
-0.003149 0.028233 0.008357
-0.009938 -0.016911 -0.123501
0.022995 -0.056844 0.018810
0.003554 0.031240 0.012268
-0.012612 -0.090718 0.064173
0.000849 0.090904 -0.052702
-0.029334 -0.075250 0.038742
0.051833 0.028474 0.049374
-0.042609 0.025901 -0.006121
-0.034069 -0.070734 0.099348
0.030230 -0.021680 -0.021381
-0.019809 -0.082489 0.042418
0.053474 0.050086 -0.109123
-0.025147 -0.013186 -0.073104
-0.036322 0.032796 -0.013173
0.053351 0.015361 -0.030771
-0.042782 -0.004706 -0.033879
0.001153 0.028069 0.003233
-0.052323 -0.038340 0.063194
0.027942 0.026476 0.013918
0.041967 -0.012087 -0.018368
0.019311 0.077160 -0.037460
-0.053799 0.048611 -0.113795
0.043225 0.030422 0.033597
0.001498 -0.084181 0.098466
0.001498 -0.084181 0.098466
-0.007998 0.073806 -0.031718
0.021863 0.027544 0.012939
0.049340 0.058527 -0.046150
0.037405 -0.077868 0.057709
0.039346 0.023154 0.019645
0.041621 -0.027579 0.008605
-0.033040 0.030665 0.023544
-0.050431 -0.025493 0.090406
0.031531 -0.047184 0.017313
-0.052791 0.019514 -0.014597
-0.034393 -0.072871 0.096098
-0.047793 0.026083 -0.013206
0.039567 0.075406 -0.113849
-0.026294 -0.070188 0.106615
-0.027562 0.035579 -0.013663
0.054856 0.041275 -0.114764
0.007467 -0.090802 0.057847
-0.025419 0.046049 -0.021064
-0.041420 -0.069682 0.089688
0.052303 -0.040152 0.072301
-0.027644 0.034310 0.020809
-0.051644 0.046555 -0.038367
-0.044406 -0.043851 0.034838
-0.052129 0.054728 -0.051157
0.002765 0.032813 0.012997
-0.040896 -0.027209 0.105144
-0.043028 0.027778 -0.010053
0.027340 -0.072630 0.033591
0.046864 0.065993 -0.112497
-0.053922 0.048054 -0.074074
-0.054902 0.032627 -0.042450
0.044783 0.002155 -0.048993
0.048203 0.012665 0.022015
0.015489 0.028775 -0.000407
-0.039555 0.052408 -0.030576
0.036754 -0.009589 -0.039328
-0.046668 0.066097 -0.053471
0.020140 -0.044164 0.004483
0.054266 0.027680 -0.059541
0.044400 -0.072086 0.074680
-0.030827 -0.082552 0.079269
-0.000894 -0.069607 0.115038
0.054253 -0.007990 0.041838
0.017957 0.088006 -0.054013
-0.052655 0.051794 -0.047263
-0.033165 -0.081740 0.061660
-0.015586 0.088801 -0.054023
-0.054652 0.033074 0.062315
-0.012533 -0.070710 0.112734
-0.038632 0.040775 -0.022584
0.041458 -0.001859 -0.051215
0.011573 0.037780 -0.012619
-0.032511 0.040488 -0.019689
-0.039579 0.024931 0.024844
-0.051218 0.014039 0.001046
0.053553 0.018869 -0.016485
-0.041877 -0.074529 0.075894
0.000642 0.070881 -0.029391
-0.046225 0.017856 0.027168
-0.044733 -0.053009 0.091231
0.038476 -0.069727 0.042292
-0.032827 -0.049371 0.020868
0.038303 -0.010966 -0.030622
0.026560 0.073872 -0.037621
0.031886 0.025942 0.016754
-0.043115 0.021078 0.007798
-0.005762 0.031339 0.012593
0.047400 0.026075 -0.012563
-0.004402 0.029400 -0.001267
-0.049063 0.062040 -0.089733
0.005072 -0.022371 -0.047153
0.050091 -0.000914 -0.015450
0.031008 -0.063411 0.029825
0.008049 -0.067056 0.020682
-0.035565 -0.013098 -0.031844
0.051045 0.016375 -0.090787
-0.009484 0.082155 -0.039005
0.023229 -0.087391 0.072717
-0.031205 -0.061758 0.105388
0.016721 0.061223 -0.026017
0.017971 0.069529 -0.030973
0.018399 -0.081015 0.098157
0.021139 0.040523 -0.016311
-0.030977 -0.065550 0.031182
-0.049685 0.021370 0.040376
-0.038207 -0.002817 -0.091129
-0.040900 0.028210 -0.008929
-0.031205 -0.061758 0.105388
-0.054888 -0.001500 0.008843
0.013355 -0.074819 0.108576
-0.049468 0.014559 0.034351
-0.045633 0.017764 0.024501
-0.041459 0.072309 -0.051765
0.033604 0.034540 -0.014299
0.005254 0.089690 -0.050036
-0.016145 -0.088940 0.079596
-0.044571 0.018265 0.018519
-0.011479 0.031165 0.013529
-0.053655 0.041687 -0.039556
0.045943 0.004925 -0.055155
0.055002 -0.021947 0.069741
-0.031994 -0.011699 -0.046852
-0.028525 -0.044119 0.011036
0.002254 -0.088247 0.047154
0.045877 -0.046192 0.091944
0.034191 -0.006180 -0.096648
-0.038722 -0.023846 -0.003108
-0.054338 0.034757 -0.037502
0.053932 -0.015435 0.031586
-0.033165 -0.081619 0.076166
-0.043527 -0.043522 0.097002
0.054557 0.013610 -0.013727
0.005999 0.088247 -0.047012
-0.047404 0.018418 0.003702
-0.038627 0.076342 -0.100601
0.051621 0.025618 -0.020055
0.016541 0.027658 0.010258
-0.026731 0.027651 0.016576
0.045267 0.005238 -0.081722
-0.048836 0.021206 -0.006560
0.015449 0.027458 0.007627
-0.007745 0.081110 -0.037503
-0.002564 0.050537 -0.018700
0.016051 0.028253 0.011799
0.002098 0.083423 -0.039241
0.003128 -0.069861 0.021969
-0.037971 -0.076002 0.053048
0.036665 -0.075298 0.048515
0.030347 -0.016591 -0.033644
-0.034400 -0.081362 0.069229
0.001790 -0.030956 -0.022878
0.054855 0.007080 -0.007952
-0.050253 0.014671 0.003354
0.041351 0.070236 -0.046855
0.015533 -0.083315 0.041161
0.016132 -0.042894 0.118241
-0.038565 -0.066120 0.040284
-0.039388 0.028913 0.028464
0.000709 -0.069890 0.021890
0.046564 -0.054005 0.086672
0.027843 0.027613 0.017356
0.053234 -0.002421 0.029571
-0.020412 -0.017658 -0.050833
0.041626 -0.030164 0.012426
-0.034607 -0.069645 0.099587
-0.013674 0.086358 -0.046765
-0.017066 0.066051 -0.028667
-0.045620 0.005904 -0.085515
0.038916 0.028341 -0.007663
0.005867 -0.087137 0.045028
0.029634 0.026763 0.017214
0.048939 0.048608 -0.035861
0.047367 0.019082 0.002089
0.037874 -0.070679 0.094635
0.039289 0.070681 -0.044276
0.049500 0.010994 0.015912
-0.050884 0.014820 -0.054716
-0.041317 -0.072776 0.084189
0.024814 0.070388 -0.033855
-0.047675 0.064637 -0.123501
0.046570 0.005406 -0.051468
-0.029540 -0.070904 0.103538
0.015489 0.028775 -0.000407
0.051186 0.021896 -0.013425
0.022666 -0.013036 -0.102349
0.034355 0.075550 -0.045367
-0.054980 -0.018444 0.053588
-0.044298 -0.026538 0.101053
-0.040762 0.022417 0.008770
-0.028282 -0.026667 0.115687
0.033000 0.056369 -0.029247
0.031253 -0.042732 0.110366
-0.022508 0.083212 -0.047442
0.049637 -0.052152 0.076709
0.015062 -0.025165 -0.030783
0.010652 -0.029443 -0.023458
0.043343 -0.034449 0.100166
0.012830 0.027780 0.009116
0.035653 0.029100 -0.007116
0.013980 -0.069243 0.113007
-0.021732 0.029788 0.016099
-0.027363 -0.070666 0.031494
-0.047446 -0.031762 0.029678
0.030019 -0.070222 0.103738
0.014810 -0.076681 0.031037
0.050610 0.007752 0.029787
-0.030977 -0.065550 0.031182
0.054981 -0.011895 0.064140
0.037564 -0.077339 0.080864
-0.049732 -0.053230 0.063975
0.017430 -0.055488 0.014573
-0.014414 -0.089748 0.059394
-0.054971 0.035774 -0.048943
0.045371 0.021354 0.000802
0.000978 -0.086901 0.093178
0.044569 -0.070387 0.056276
0.044784 0.041128 -0.026911
-0.050204 0.008526 0.019359
-0.023992 0.033948 0.018789
0.047390 -0.058181 0.055503
0.054557 0.013610 -0.013727
-0.034347 -0.074039 0.042625
-0.023723 0.084258 -0.050613
0.004001 0.091292 -0.054634
-0.043179 0.041566 -0.026025
0.040872 0.035275 -0.018490
0.052816 0.029771 0.052767
0.050054 0.013281 0.035301
-0.040771 0.037521 -0.020832
0.031653 0.052090 -0.026543
-0.018390 -0.078195 0.102356
-0.006643 -0.042135 0.120537
-0.032716 0.076091 -0.044505
-0.044480 0.069538 -0.067155
-0.002952 0.035305 0.013533
-0.034257 -0.006751 -0.080429
0.020623 0.071948 -0.033446
-0.047308 -0.035960 0.034539
0.054424 0.029417 0.060306
0.053795 0.025708 -0.114143
0.007257 0.091047 -0.055193
0.047593 0.009103 -0.086118
-0.004226 -0.070328 0.022378
0.040655 -0.044137 0.027241
-0.013591 0.049468 -0.019740
-0.052990 -0.001359 0.032262
0.004287 -0.082203 0.101409
-0.017676 -0.083818 0.093501
0.041106 -0.046237 0.030053
0.038830 0.033833 -0.015651
0.053119 -0.008209 0.011318
0.052547 0.039868 -0.035848
0.032747 -0.055021 0.025577
0.008783 0.030116 0.012247
-0.007329 -0.042761 -0.002633
-0.049605 0.009621 0.024793
-0.033233 -0.036888 0.007681
0.031393 -0.021494 -0.019983
-0.037052 -0.070623 0.041166
0.054607 0.037189 -0.121474
0.025538 -0.084481 0.083189
-0.031581 0.029918 -0.006884
0.044026 0.019102 0.014638
-0.015302 0.079311 -0.037956
-0.026394 0.049060 -0.023044
-0.008303 -0.034309 -0.014998
-0.047697 0.064573 -0.097762
-0.046730 0.066187 -0.054840
0.031968 0.066980 -0.034684
-0.023547 -0.033368 -0.007659
0.020525 -0.080335 0.039116
0.018567 0.029710 0.014665
-0.008193 -0.085974 0.043146
0.044290 -0.007730 -0.021352
-0.022335 -0.013166 -0.102972
0.050419 -0.026052 0.090282
-0.052703 0.046803 -0.040945
-0.010554 -0.075801 0.108351
0.014055 0.077558 -0.035867
-0.019877 0.075107 -0.035753
0.000413 0.043042 -0.015264
-0.030634 -0.083743 0.066004
-0.032094 -0.074441 0.040464
0.055002 -0.021947 0.069741
0.042089 0.001621 -0.101929
-0.041045 0.000608 -0.114042
0.035509 0.079204 -0.113933
0.049453 0.010040 0.024873
0.039548 -0.046487 0.101459
-0.006276 0.040547 -0.014086
-0.034769 -0.005407 -0.112823
-0.039230 0.074022 -0.050264
0.015489 0.028775 -0.000407
-0.011818 0.032237 0.014084
-0.006319 0.079536 -0.035772
0.010624 -0.074685 0.027477
0.046771 0.061470 -0.044205
-0.013966 -0.070770 0.112261
0.031933 -0.065278 0.031889
-0.025800 -0.063009 0.025352
-0.046450 0.016015 0.016167
0.030903 -0.011885 -0.050077
0.049546 0.051011 -0.038337
-0.052419 0.020529 -0.108530
0.046449 0.029241 -0.015923
-0.047355 0.019857 0.033146
-0.041786 0.029591 -0.011861
-0.028944 0.032799 0.021364
0.045721 0.026254 -0.010508
0.047507 0.002312 -0.033881
-0.034393 -0.072871 0.096098
-0.006257 0.035220 0.013787
-0.017857 -0.017072 -0.064550
0.042459 -0.046042 0.097754
-0.014987 -0.087483 0.050547
0.023993 -0.074493 0.033347
0.031767 -0.069647 0.102497
-0.052350 -0.025324 0.085112
-0.020051 0.077159 -0.037794
-0.038577 0.036893 -0.018926
0.034343 -0.036997 0.009315
-0.035479 0.069044 -0.038503
0.025535 -0.029691 -0.011857
-0.039517 0.067835 -0.041073
-0.012300 -0.022317 -0.041904
0.048660 -0.054447 0.079410
0.008279 0.032924 0.013638
-0.054360 -0.006610 0.048760
0.036147 0.034352 -0.015026
-0.041214 -0.069432 0.046698
-0.048252 0.017246 0.032983
-0.037969 -0.077561 0.078506
0.007268 0.030401 0.012198
-0.043445 -0.073411 0.064915
-0.031439 0.029080 -0.005134
-0.035757 0.028845 0.024804
-0.021211 -0.088295 0.070740
-0.035348 0.027370 0.023214
0.027271 -0.050707 0.016600
0.023206 -0.053977 0.112828
0.021201 -0.072356 0.107712
