-0.048932 -0.091720 0.036646
-0.014941 -0.076800 0.004178
0.044744 -0.174638 -0.031985
-0.032848 -0.171547 0.044234
-0.047363 -0.109889 0.032689
0.022942 -0.091655 -0.014337
0.037095 -0.023521 0.110268
-0.041139 -0.044871 0.014187
-0.032052 0.032815 0.108051
0.036447 -0.123191 -0.040750
-0.041509 -0.129648 -0.036087
-0.052375 -0.173575 0.016868
-0.021024 -0.061551 0.010029
-0.042298 -0.033898 0.085991
0.038177 0.032720 0.089686
-0.021948 -0.054384 0.009163
0.046483 -0.157378 0.029859
0.024456 -0.068822 0.075044
0.045667 0.020894 0.089996
0.005229 -0.037631 0.115832
-0.035896 -0.042652 0.006463
0.045131 -0.043019 0.018233
0.047174 -0.031087 0.076094
0.028040 -0.093615 0.058648
-0.020595 -0.041495 0.107463
-0.046901 -0.113296 -0.024512
-0.010487 -0.096062 -0.029240
0.046557 0.018173 0.091191
0.000995 0.054925 0.064874
-0.042010 -0.091645 -0.001930
0.024922 -0.015704 0.121682
-0.026133 -0.064447 0.010169
-0.026007 -0.082002 0.001391
0.032658 -0.094437 -0.012859
-0.010425 0.049112 0.090691
0.000000 -0.050498 0.000500
-0.054051 -0.052336 0.038908
-0.038127 -0.006620 0.115252
-0.043416 0.025127 0.090302
-0.054238 -0.082040 0.022448
0.019798 -0.078659 0.070871
0.046804 -0.178003 -0.028889
0.003698 -0.154867 0.055547
0.027730 -0.122655 0.050553
0.035960 -0.094965 -0.011194
0.045699 -0.031767 0.008051
-0.011607 -0.162147 0.054111
-0.049920 -0.030367 0.020073
0.052219 -0.024293 0.064372
-0.020706 -0.034396 0.113987
0.025788 -0.048610 0.001498
0.039689 0.037962 0.064454
-0.020520 -0.023734 0.120550
-0.003323 -0.057077 0.093465
-0.030094 -0.111958 -0.039751
0.010451 -0.194000 0.054012
0.012249 -0.078742 0.002187
0.044388 -0.016987 0.102961
-0.054453 -0.062701 0.035088
0.013673 0.053195 0.064902
0.052018 -0.117110 -0.016998
0.045224 0.002378 0.108733
0.040528 -0.106796 0.043176
0.008369 0.049990 0.088387
0.037267 -0.113534 -0.035881
0.046353 0.029650 0.000500
0.031956 0.033831 0.106789
-0.030015 -0.102473 -0.030192
-0.034512 -0.030449 0.107850
0.031762 -0.123255 0.047747
0.039409 -0.047009 0.013575
0.037062 -0.041103 0.004804
0.041637 -0.020322 0.107366
0.007073 0.036268 0.116671
0.011153 0.040111 0.112593
-0.048273 -0.074521 0.015604
0.019810 0.034141 0.114579
-0.046268 -0.174461 -0.029741
-0.041732 -0.073013 0.011567
-0.016170 -0.104407 0.060171
-0.012084 -0.002013 0.128151
-0.016980 -0.070192 0.008029
-0.023811 0.042054 0.099056
-0.027057 -0.048367 0.004721
-0.044185 -0.116808 0.036029
0.007351 0.032150 0.119537
0.012542 -0.126323 -0.053445
0.040793 -0.005183 0.113077
0.011183 -0.104949 -0.041967
-0.043203 -0.083048 0.006504
0.047083 -0.120951 0.030714
-0.008606 -0.071247 0.079616
-0.009539 -0.133224 0.056472
-0.040862 -0.017067 0.109877
-0.047159 -0.120403 -0.027708
-0.054562 -0.168566 0.007050
-0.020933 -0.051095 0.003254
-0.049681 -0.078715 0.015025
-0.019339 -0.055036 0.008790
-0.037948 -0.108765 -0.031452
0.049468 -0.020632 0.077982
0.048498 -0.165113 0.026198
0.036343 0.032959 0.095538
0.034525 -0.057384 0.075421
-0.011782 -0.014542 0.126426
-0.043905 0.006009 0.109841
0.040493 -0.021973 0.107791
-0.029341 0.024298 0.115746
0.029912 -0.040466 0.099382
-0.019299 -0.038972 0.110727
-0.035619 -0.016080 0.114923
0.048204 -0.126806 0.027948
-0.054207 -0.019610 0.058418
0.022052 -0.106033 -0.038818
-0.052686 -0.150406 -0.015800
-0.009020 -0.164314 0.054524
-0.037979 -0.113265 0.044155
0.041698 -0.069882 0.012769
0.051300 -0.116599 0.022367
-0.023605 -0.049589 0.093662
-0.018041 -0.109879 -0.043974
0.030251 -0.065111 0.073556
-0.039348 -0.079455 0.007070
-0.017665 -0.123942 0.055248
-0.038073 -0.051974 0.013671
0.008015 -0.126941 0.057387
-0.006313 0.045913 0.107294
0.001492 0.027290 0.122826
0.036883 -0.112286 -0.035381
-0.003323 -0.057077 0.093465
0.013409 -0.091469 -0.019308
0.032549 -0.036231 0.102072
-0.019580 -0.115486 0.055922
0.050321 -0.152889 0.022681
0.012281 -0.180928 -0.053617
-0.054408 -0.025108 0.055561
-0.053252 -0.114233 -0.011967
-0.006692 -0.044074 0.109540
-0.011175 -0.074755 0.005357
0.021264 -0.052610 0.007388
0.044415 -0.062712 0.016605
-0.003469 -0.138199 0.056750
0.049628 -0.107220 -0.014141
0.047515 -0.014086 0.093590
0.018369 -0.104280 0.059423
-0.021545 -0.063636 0.009865
0.041737 -0.035948 0.002968
-0.027564 0.047619 0.063823
-0.048156 -0.134268 -0.026573
0.002892 -0.083710 -0.005663
-0.054625 -0.096034 0.013740
-0.052541 -0.136072 0.016948
0.034405 0.006308 0.118151
0.022039 0.045016 0.090777
-0.003379 -0.058354 0.008087
-0.039641 -0.095280 -0.008597
-0.033468 -0.114444 -0.039305
-0.024655 -0.053716 0.009673
-0.043087 -0.045774 0.072687
-0.054378 -0.114469 -0.007777
0.015022 0.028908 0.119798
0.051796 -0.109779 0.022784
0.017603 -0.124048 0.055257
-0.043432 -0.080818 0.050347
0.006408 -0.047953 0.104437
0.029539 -0.088583 0.059963
0.001243 -0.111686 -0.049240
0.049817 -0.015177 0.081696
-0.022613 -0.038184 0.109763
0.017893 -0.099794 0.061195
0.048666 -0.120455 0.027840
-0.050233 -0.025162 0.071183
0.005226 -0.024123 0.124093
-0.034833 -0.106277 -0.031590
-0.048746 -0.077762 0.043775
0.023473 -0.125412 0.052608
-0.010085 -0.117500 -0.051234
0.022054 -0.005782 0.124912
0.000743 0.001359 0.129392
0.010948 0.050153 0.085156
-0.049822 -0.194000 0.000050
0.022907 -0.116386 -0.046084
0.017937 -0.052722 0.005169
-0.048070 -0.100453 0.034562
-0.023131 -0.056646 0.010130
-0.051318 -0.117836 0.022071
0.043916 -0.037618 0.012765
-0.019813 0.019083 0.122725
0.051074 -0.172463 -0.020424
0.044100 -0.181696 -0.032877
0.033455 -0.026424 0.111615
0.006717 -0.013341 0.127520
0.031058 -0.047395 0.008418
-0.009025 -0.091963 0.066969
-0.052882 -0.104721 -0.002096
-0.027526 -0.005275 0.122466
-0.004233 -0.046121 0.107516
-0.040200 -0.073051 0.010852
-0.026698 0.026139 0.116339
-0.008199 -0.025353 0.123162
0.008199 -0.010351 0.127938
0.039257 -0.071311 0.060608
0.032973 0.039041 0.085705
0.043835 -0.160990 0.033601
0.052575 -0.062726 0.028711
-0.054199 -0.158302 0.009542
0.049726 -0.037076 0.025764
0.017683 0.026939 0.120021
-0.012525 -0.049026 0.101057
0.015867 -0.054217 0.006725
0.049116 -0.026974 0.011750
-0.021562 -0.094756 0.061696
0.044550 -0.085995 0.005158
0.041033 -0.064166 0.014074
0.042506 -0.037005 0.009499
-0.041576 -0.104530 -0.022214
0.034666 0.031022 0.106849
-0.052163 -0.113465 -0.014538
0.045775 -0.084591 0.045224
-0.054238 -0.082040 0.022448
-0.055006 0.000946 0.059023
-0.017787 -0.171399 0.052135
-0.016085 0.047491 0.090844
0.043244 -0.043080 0.015630
-0.053085 -0.100528 0.022195
0.054848 -0.194000 0.004172
-0.038127 -0.006620 0.115252
-0.031191 -0.182513 0.045278
-0.041615 -0.131680 0.037642
0.050157 -0.127926 -0.022576
-0.054915 -0.077746 0.028292
0.039226 -0.039021 0.004961
-0.039348 -0.079455 0.007070
-0.053503 -0.102317 0.003343
0.048943 0.015287 0.084496
0.018354 -0.079632 0.002132
0.031912 -0.001187 0.120194
0.014539 -0.057043 0.090621
-0.032608 -0.044338 0.001783
0.028689 0.011025 0.120939
-0.000793 -0.048071 0.104936
-0.054902 -0.092905 0.018677
-0.050033 -0.022950 0.003477
-0.027385 0.041978 0.090643
0.021442 -0.099423 0.059871
0.047404 -0.091825 0.039313
-0.002862 -0.103473 -0.041859
-0.051474 -0.019376 0.000501
-0.015231 -0.104864 -0.040493
0.016108 0.021267 0.123154
0.017384 -0.078876 0.071741
-0.042045 -0.080599 0.007564
-0.034153 -0.027798 0.110147
-0.023389 -0.028561 0.116707
-0.048098 -0.149647 -0.026678
-0.024730 -0.089608 0.062446
0.031680 -0.034039 0.107120
0.002792 0.008235 0.128783
-0.043412 -0.070871 0.055656
-0.033130 -0.077053 0.063311
0.002462 0.042155 0.112008
-0.010883 -0.040794 0.112036
0.045152 -0.056960 0.018704
0.007453 -0.115627 0.059247
0.047237 -0.083869 0.043298
-0.044100 -0.020654 0.098821
0.013209 0.001318 0.127929
-0.003914 0.052469 0.078516
-0.045172 -0.112085 -0.026102
-0.049354 -0.049238 0.026715
-0.050606 -0.177775 -0.021542
-0.037810 -0.032094 0.098756
0.021239 -0.063478 0.009864
-0.001076 -0.114530 -0.050928
-0.052609 -0.077679 0.020513
-0.034891 0.033019 0.100233
-0.022006 -0.081525 0.000930
0.020169 -0.051232 0.002002
-0.040934 -0.036862 0.002967
-0.003469 -0.138199 0.056750
0.027446 0.036842 0.107968
-0.004050 -0.120864 -0.053445
0.023989 -0.020905 0.120267
0.006294 -0.062902 0.009434
0.025831 -0.092496 -0.014136
0.016034 -0.043644 0.107231
0.054907 -0.080570 0.026371
0.033686 -0.065110 0.011293
-0.019472 0.047953 0.082743
-0.003379 -0.058354 0.008087
-0.050868 -0.074311 0.019085
0.037267 -0.113534 -0.035881
0.030251 -0.065111 0.073556
-0.013551 -0.037900 0.113893
0.031913 -0.026755 0.112591
-0.031185 -0.163225 0.045639
0.054792 -0.021804 0.050908
-0.040844 -0.036849 0.000500
0.029628 -0.126998 0.048869
-0.037624 0.027027 0.107364
0.001115 -0.113284 -0.050232
0.052183 -0.010814 0.073065
-0.037544 -0.121358 -0.039301
0.018397 -0.052070 0.003283
0.006460 -0.057205 0.092854
-0.048181 -0.012383 0.092293
-0.027385 0.041978 0.090643
0.042063 -0.116155 -0.032706
0.005455 -0.108080 -0.046223
-0.036591 -0.034595 0.097445
-0.053736 -0.111928 -0.008572
-0.040916 -0.147062 -0.036758
0.003156 -0.084409 0.071688
-0.032706 -0.150120 -0.044221
0.045362 -0.143191 0.032055
0.023755 -0.049638 0.001537
-0.011996 -0.108225 -0.044910
-0.018031 -0.103589 -0.037946
-0.017830 -0.087386 0.066743
0.045966 -0.092907 0.041139
0.037373 -0.027757 0.106929
-0.016531 -0.055530 0.008347
0.001558 -0.088209 0.069731
-0.015271 -0.002452 0.127393
-0.016085 0.047491 0.090844
0.033602 -0.068650 0.068102
-0.005531 -0.171783 0.054794
-0.034639 -0.109744 -0.035218
0.003236 -0.127478 -0.054909
-0.028382 -0.057528 0.081369
-0.018041 -0.109879 -0.043974
0.022053 -0.023568 0.119985
0.043760 -0.057277 0.017284
-0.040309 -0.103914 0.044332
0.000845 -0.134853 0.057165
-0.041120 -0.028454 0.096344
0.029034 -0.183035 0.046688
-0.043766 -0.033665 0.004641
0.006719 -0.026123 0.123011
-0.039509 -0.120910 0.041093
0.022020 0.041014 0.106783
-0.041865 -0.123744 -0.035573
-0.018396 0.033857 0.115384
-0.048991 -0.027151 0.073898
0.016960 -0.052294 0.094819
-0.006345 -0.058939 0.091025
-0.024383 -0.104751 -0.036348
-0.000736 -0.082840 -0.004189
0.043244 -0.043080 0.015630
-0.039903 -0.194000 0.037805
0.012406 -0.108858 0.059918
-0.004693 0.006872 0.128835
0.010210 -0.096016 0.064926
0.050985 -0.180802 0.020624
-0.001072 -0.092626 -0.024430
-0.053706 -0.013483 0.063313
-0.007739 -0.061560 0.009435
0.027803 -0.051146 0.009562
0.054792 -0.021804 0.050908
-0.046342 -0.044359 0.020721
0.017916 -0.091419 0.064730
-0.000010 -0.081972 -0.002771
-0.040462 -0.022743 0.107196
0.027971 -0.113193 0.052141
-0.050447 -0.024404 0.013067
0.021845 -0.072840 0.007223
-0.032856 -0.103712 -0.029857
0.013841 -0.119640 0.057111
-0.009188 -0.112128 -0.048565
-0.027706 -0.049603 0.008180
0.033153 -0.029463 0.109788
-0.025879 -0.061714 0.010456
0.020833 -0.057439 0.009925
-0.052973 -0.026482 0.034193
-0.005985 0.045605 0.107881
-0.025452 -0.126992 -0.048770
-0.006174 -0.021197 0.125203
-0.000196 -0.051990 0.000500
-0.051946 -0.039270 0.034369
-0.023225 0.048666 0.070860
-0.040165 -0.108152 -0.028534
-0.036269 -0.029240 0.106864
-0.035460 -0.125070 -0.041965
0.039363 -0.097843 -0.013194
-0.036750 -0.073034 0.062288
-0.047691 0.000628 0.101693
0.021220 0.025426 0.119431
0.023148 -0.087127 -0.005986
0.003908 -0.109960 0.061054
0.030651 -0.010885 0.119825
-0.052860 -0.010877 0.069230
-0.029606 -0.049076 0.088678
-0.017787 -0.171399 0.052135
-0.022802 -0.142571 -0.050068
0.053596 -0.022703 0.036238
0.051255 -0.028077 0.023855
-0.046710 -0.006911 0.103811
0.039085 -0.103869 -0.024132
0.000164 -0.095293 -0.029281
0.032700 -0.126384 -0.044231
-0.002312 -0.054901 0.096029
0.021566 0.050513 0.064881
0.028182 -0.100629 -0.028567
0.054127 -0.014043 0.027716
0.031191 0.040663 0.085009
0.005955 -0.055018 0.003691
-0.019812 -0.026713 0.119337
0.036699 -0.058391 0.013016
0.048901 -0.086530 0.009007
0.046959 -0.080797 0.010887
0.038732 -0.048728 0.013587
0.005230 -0.028864 0.121743
0.024321 0.039004 0.107931
-0.027966 -0.185167 0.047333
-0.050084 -0.108241 -0.014485
-0.004205 0.046287 0.106990
0.054586 -0.106147 0.003690
-0.053130 -0.062739 0.030334
-0.049060 0.005452 0.093943
-0.011088 -0.077164 0.074821
0.046289 -0.099810 0.037855
-0.044117 -0.043215 0.016843
0.014539 -0.057043 0.090621
-0.003566 0.045545 0.108277
0.022608 -0.002691 0.124917
-0.040443 0.035005 0.072830
-0.049106 -0.171534 -0.024783
-0.037362 -0.066927 0.011903
-0.042298 -0.033898 0.085991
-0.054606 -0.076003 0.027802
-0.015505 -0.054958 0.007514
-0.027040 -0.119739 0.051403
0.053795 -0.098440 0.020461
0.053392 -0.188476 -0.013216
-0.050247 0.022339 0.062726
0.020558 -0.065427 0.009537
0.053849 -0.011252 0.063519
0.043467 0.001104 0.110737
0.043648 0.033333 0.064170
0.001409 -0.122154 -0.053987
-0.014237 -0.049993 0.000500
0.054838 0.004097 0.060218
0.038696 -0.130086 0.041009
0.044056 -0.071758 0.013390
-0.025219 -0.103003 -0.033850
-0.022454 -0.097614 -0.026936
0.020496 -0.043574 0.104323
0.040752 -0.073782 0.057442
-0.040970 -0.055355 0.015407
0.000212 -0.125518 0.058177
0.052947 -0.027888 0.059809
-0.000086 -0.098743 0.065026
0.013843 -0.093954 -0.024203
-0.017466 -0.059007 0.087316
0.054821 -0.004742 0.012372
-0.035049 -0.045815 0.010044
-0.044522 -0.142341 -0.032294
0.039121 -0.001064 0.114868
-0.026300 0.038117 0.107377
-0.001275 -0.017881 0.126674
-0.029091 -0.079498 0.065064
-0.049210 -0.037980 0.024651
0.044784 -0.095415 -0.003937
-0.054382 -0.008693 0.011598
0.024863 -0.182762 0.049040
-0.045172 -0.112085 -0.026102
0.038952 -0.051895 0.074341
0.025515 -0.048887 0.002962
-0.015179 -0.126427 0.055808
0.054908 -0.102671 0.009535
-0.032543 -0.044545 0.003440
0.052219 -0.024293 0.064372
-0.052512 -0.088039 0.030400
-0.022071 0.050386 0.000500
0.034404 -0.125301 -0.042842
-0.046587 -0.040629 0.069622
0.054792 -0.021804 0.050908
0.050964 -0.107831 -0.012209
-0.039323 0.038338 0.064461
-0.047481 -0.050320 0.061211
-0.054126 -0.088894 0.024782
-0.001481 -0.020373 0.125832
-0.046042 -0.194000 0.002939
0.026323 -0.108979 0.054199
-0.042378 -0.042540 0.014310
-0.048932 -0.091720 0.036646
0.035148 -0.099866 -0.021318
0.026494 -0.040291 0.103790
-0.048052 -0.150712 0.027375
0.051397 -0.025771 0.066520
-0.014475 -0.110760 -0.046071
-0.010487 -0.096062 -0.029240
0.053862 -0.011239 0.004747
0.044633 0.012445 0.107365
-0.052882 -0.104721 -0.002096
-0.051508 -0.035833 0.060283
0.038082 -0.180333 -0.039691
-0.044101 -0.012765 0.107995
-0.043824 -0.113301 -0.028834
0.048558 -0.077491 0.014403
-0.054807 0.004532 0.060215
-0.028753 -0.054491 0.083890
0.050461 -0.068919 0.021098
0.042105 -0.042985 0.014259
-0.053820 -0.110486 -0.006870
0.023894 -0.095224 -0.021272
-0.042651 0.034709 0.063751
-0.004222 -0.111482 -0.048918
0.041269 -0.099083 -0.013361
-0.047297 -0.150297 -0.028071
-0.040765 -0.088513 0.000463
0.002394 -0.081085 -0.001407
0.033630 -0.043653 0.002773
-0.050698 -0.175434 0.021392
-0.036726 -0.127368 0.043148
-0.019132 -0.042353 0.107256
-0.031911 0.017723 0.117013
-0.044851 -0.108778 -0.023447
0.040821 -0.044056 0.013512
0.015335 -0.118887 -0.050359
-0.036440 -0.059080 0.012870
0.042409 -0.005787 0.111434
0.054835 -0.068727 0.034762
-0.051253 -0.043150 0.032175
0.035033 -0.120938 -0.041204
0.042409 -0.005787 0.111434
-0.042853 -0.085185 0.004626
-0.019609 -0.121027 0.054901
0.053789 -0.017922 0.031207
0.009929 -0.115820 0.058767
-0.036389 -0.052765 0.012897
0.039689 0.037962 0.064454
0.039592 -0.062475 0.013711
-0.032926 -0.116352 0.047979
-0.035114 -0.045136 0.009463
-0.043432 -0.080818 0.050347
-0.034407 0.000730 0.118551
0.021366 -0.083403 -0.001397
-0.046025 -0.194000 -0.002916
-0.043596 -0.015678 0.107358
0.006088 0.006968 0.128704
-0.013761 -0.057258 0.008814
0.031174 -0.114939 0.049594
0.037736 0.030772 0.097249
0.005367 -0.055405 0.004682
0.047681 0.005852 0.100222
0.053393 -0.113925 -0.011301
0.030308 -0.126634 -0.045901
0.002436 -0.194000 0.054955
-0.028382 -0.057528 0.081369
0.041265 -0.181267 -0.036371
-0.010008 -0.052183 0.097855
0.037667 0.039972 0.064534
0.008200 -0.028042 0.121808
-0.047016 -0.159299 -0.028545
-0.054849 -0.155063 -0.004184
-0.054878 -0.085823 0.023891
0.053684 -0.127195 -0.011984
0.035438 -0.142689 0.043304
0.033481 -0.073903 0.008416
-0.026999 -0.088725 -0.006622
-0.044144 -0.036014 0.011472
-0.042877 -0.121761 -0.033945
-0.033387 -0.031728 0.107804
0.048654 -0.058095 0.054438
0.021218 -0.009779 0.124669
0.039616 -0.039187 0.006930
0.013409 -0.091469 -0.019308
-0.035795 -0.105980 0.048191
0.036447 -0.110492 -0.034382
-0.054991 -0.001304 0.013228
0.044859 -0.077389 0.050159
-0.032887 0.032948 0.106748
-0.040389 -0.070678 0.059651
-0.031849 -0.069236 0.069282
-0.050126 -0.150385 -0.022644
-0.038127 -0.006620 0.115252
-0.045511 0.007188 0.107797
-0.009142 0.045388 0.107395
-0.054759 -0.180367 0.005167
0.037460 0.036382 0.079854
0.020854 -0.051856 0.093008
0.037507 -0.041926 0.008146
-0.035974 -0.042983 0.007378
0.053735 -0.029981 0.041744
-0.006870 -0.088066 -0.014399
0.028229 -0.070295 0.071443
0.047599 0.019851 0.083010
0.003768 -0.055831 0.005302
-0.026089 -0.114450 0.052976
0.016684 -0.083426 0.069299
0.030636 0.030038 0.111325
-0.043447 0.008879 0.109795
-0.043230 -0.150646 -0.034009
0.038696 -0.025292 0.107539
0.020276 0.041850 0.106911
0.039578 -0.094147 0.048791
0.040502 -0.040502 0.082374
0.002905 -0.057228 0.007106
0.032675 0.036414 0.096189
-0.045641 -0.096732 -0.004718
-0.044973 0.001840 0.109064
-0.045106 0.010667 0.107335
0.021218 0.037135 0.111465
0.040994 -0.103016 0.043860
-0.028720 -0.110605 -0.039502
0.001492 0.027290 0.122826
0.006142 -0.110103 -0.047729
-0.051093 -0.194000 0.020396
0.002232 0.005376 0.129128
-0.054519 -0.146195 -0.007281
-0.025080 -0.090314 -0.010385
-0.008630 -0.154011 0.055039
0.024388 -0.071031 0.008243
-0.012697 -0.090822 -0.018264
0.031550 -0.038418 0.100188
0.014077 0.011850 0.126516
0.054334 -0.106319 0.001951
0.052563 -0.044007 0.036419
-0.031880 -0.123612 0.047617
-0.042307 -0.027788 0.094046
0.003768 -0.055831 0.005302
-0.011041 -0.061980 0.086894
0.027367 -0.026079 0.115995
-0.054562 -0.168566 0.007050
-0.033988 -0.047050 0.010284
-0.038034 -0.043062 0.010392
-0.049320 -0.030891 0.069846
-0.003737 -0.043272 0.110791
-0.051532 -0.016528 0.072364
0.053918 -0.112859 -0.008616
0.048063 -0.105875 -0.015106
-0.037895 -0.094941 0.050207
-0.043513 -0.022934 0.097467
0.036608 -0.194000 0.041018
0.054913 -0.075758 0.029541
0.043573 0.015368 0.107630
0.003680 -0.057072 0.093427
-0.037948 -0.108765 -0.031452
0.017031 -0.074383 0.005997
0.052302 -0.101162 0.024482
-0.045141 -0.010583 0.107292
0.046799 -0.050825 0.062204
0.053149 -0.104801 -0.001224
-0.043513 -0.022934 0.097467
-0.054861 -0.004050 0.009436
0.040671 -0.022641 0.106893
0.041758 -0.104620 -0.022134
0.051386 -0.002367 0.082343
0.053524 -0.174178 -0.012657
-0.018396 0.033857 0.115384
0.002461 -0.060356 0.009001
-0.034305 -0.182780 0.042964
-0.034365 -0.070039 0.010156
-0.033167 0.004529 0.119191
-0.041345 0.007194 0.112279
0.028117 -0.049679 0.008588
0.014346 -0.155118 0.053759
-0.051025 -0.068026 0.022483
0.033596 -0.048576 0.010964
0.047276 -0.046809 0.063859
-0.054682 -0.107240 0.002887
0.023095 -0.094636 0.061018
-0.030343 -0.087056 0.060134
0.022053 -0.023568 0.119985
-0.008665 -0.172536 -0.054316
0.026036 -0.012421 0.122027
0.027649 -0.047597 0.092449
-0.038836 -0.039169 0.003529
-0.028483 -0.053838 0.010724
0.026700 0.027896 0.115322
0.027639 -0.088510 -0.005977
0.035336 -0.114419 -0.037975
-0.053999 -0.080124 0.030586
0.004370 0.039085 0.114721
-0.001363 -0.062643 0.009402
-0.022082 0.050299 0.064851
-0.035835 -0.180201 -0.041728
-0.054928 -0.035333 0.049302
0.014600 0.046712 0.096472
0.008069 0.045246 0.107929
-0.005973 0.021799 0.124994
-0.041222 -0.032335 0.090553
0.044744 -0.174638 -0.031985
0.021681 -0.074025 0.072960
-0.009678 0.040288 0.112784
-0.015912 -0.095972 0.063406
-0.015459 -0.122956 0.056124
-0.049076 -0.097280 0.033945
-0.036205 -0.103839 -0.027095
0.016668 -0.047202 0.101554
-0.025948 -0.045384 0.096939
-0.045483 -0.073189 0.013769
-0.049546 -0.144002 -0.023881
-0.046646 -0.045200 0.066211
0.005827 -0.104525 -0.042711
-0.042784 -0.071271 0.012820
0.035207 -0.096699 -0.015041
-0.034014 -0.075043 0.007965
0.010008 0.054088 0.063915
0.046362 0.025752 0.075090
0.020538 -0.100009 -0.032011
-0.025612 -0.062730 0.010329
-0.047939 0.023917 0.071897
0.014353 -0.115768 0.057690
-0.050371 -0.044329 0.058530
-0.012389 -0.007656 0.127617
0.006718 0.022904 0.124453
-0.011782 -0.014542 0.126426
-0.009653 -0.045015 0.107854
0.045421 -0.052114 0.063897
-0.049722 -0.115203 -0.020942
0.034835 -0.169164 0.042748
-0.051723 -0.032610 0.031123
0.054433 -0.089544 0.018009
-0.003294 -0.069741 0.007787
-0.011188 -0.119865 0.057736
0.042135 -0.092600 0.046510
0.012784 -0.070053 0.079453
-0.043766 -0.033665 0.004641
0.043034 -0.103348 0.041261
-0.045896 -0.004236 0.107769
-0.019242 0.051530 0.064296
-0.035114 -0.045136 0.009463
-0.024434 -0.052851 0.009146
-0.039645 -0.093983 -0.006660
-0.006313 0.045913 0.107294
0.002563 -0.058646 0.008208
0.002952 -0.048169 0.104668
0.040907 0.031462 0.083006
-0.005228 -0.026182 0.123136
0.012324 -0.055882 0.007531
0.037690 -0.072072 0.061886
0.005051 -0.122639 -0.053875
0.023996 -0.175430 0.049531
0.037823 -0.169756 -0.039935
0.054985 -0.003529 0.051727
-0.035807 0.034131 0.093610
-0.036417 -0.114290 -0.037070
-0.017234 0.043000 0.107358
-0.004205 0.046287 0.106990
0.000009 -0.102021 0.063796
0.019814 -0.037826 0.111535
0.018393 -0.020371 0.122757
-0.041781 -0.171016 -0.035770
-0.017918 -0.113990 -0.046887
0.019333 -0.125980 0.054399
-0.013331 -0.119015 0.057349
-0.005988 -0.119577 0.058694
-0.022345 -0.071479 0.074359
-0.043426 -0.069464 0.013860
-0.050205 -0.052886 0.027593
0.016770 -0.052569 0.002977
0.046531 -0.096566 -0.003423
0.016478 0.052464 0.064450
0.030776 -0.106295 0.052125
0.016630 0.044955 0.100934
-0.046471 -0.092276 0.040647
0.047206 -0.055998 0.021401
-0.018744 -0.095783 0.062470
0.037690 -0.072072 0.061886
-0.016704 -0.054811 0.007788
0.014803 -0.036322 0.114806
0.020760 -0.163498 0.051243
-0.048980 -0.023836 0.076918
0.036034 -0.168993 -0.041558
0.054748 -0.009339 0.038273
0.034413 -0.002392 0.118503
0.046478 -0.109348 -0.021727
0.013395 0.044348 0.107339
-0.040630 -0.036456 0.086672
-0.017095 -0.101630 -0.035833
-0.019735 -0.170441 0.051454
0.007075 -0.054557 0.000500
0.032509 -0.153508 0.045089
0.045537 0.007890 0.107614
-0.005710 -0.080182 -0.000029
0.027366 -0.030685 0.113096
0.052093 0.017681 0.000500
-0.048213 -0.050352 0.024280
-0.054637 -0.108560 0.000567
-0.021721 -0.041299 0.106903
-0.005668 -0.115556 0.059507
-0.041932 -0.182522 0.035562
-0.003936 -0.054916 0.001886
0.050053 -0.041520 0.060892
-0.012694 -0.170511 -0.053517
0.011376 -0.058785 0.009133
0.038421 -0.041701 0.009295
0.044588 0.023595 0.088899
-0.002132 -0.059300 0.008547
0.036550 -0.074190 0.009059
0.037476 -0.115505 -0.036886
-0.051007 -0.090011 0.009386
-0.030225 -0.093936 -0.013800
-0.027641 0.030525 0.113039
-0.018833 -0.065250 0.080959
0.045699 -0.031767 0.008051
0.054379 -0.008299 0.000500
0.034220 -0.006983 0.118197
0.015022 0.028908 0.119798
0.001212 -0.126495 -0.054921
-0.021221 -0.009779 0.124676
-0.020756 -0.084384 0.067124
0.010573 -0.052460 0.097322
-0.041037 -0.049195 0.015359
-0.028753 -0.054491 0.083890
-0.030635 0.026216 0.113820
-0.027444 -0.034054 0.110473
0.004782 -0.057138 0.007274
0.053813 -0.050835 0.038719
0.051490 -0.134862 0.020189
-0.000290 -0.087211 -0.013517
-0.049554 -0.089907 0.007233
0.044552 -0.041775 0.016737
-0.035570 0.041842 0.064670
-0.036591 -0.034595 0.097445
-0.008313 -0.047803 0.104185
0.025019 -0.114984 -0.044291
0.042275 -0.074079 0.011359
-0.004976 -0.055361 0.004475
0.034707 0.036846 0.088050
0.003962 -0.111128 -0.048715
-0.054868 -0.154807 0.003983
0.051386 -0.002367 0.082343
-0.041781 -0.171016 -0.035770
0.009887 -0.124466 -0.053600
0.041948 -0.194000 0.035532
-0.052645 -0.014645 0.068149
0.002461 -0.060356 0.009001
0.020345 -0.101093 0.059725
0.028916 -0.052684 0.010605
-0.003860 -0.055099 0.003151
0.049792 -0.090929 0.006710
-0.021221 -0.009779 0.124676
-0.039519 -0.042270 0.011269
-0.037644 -0.183351 0.040069
-0.039125 -0.113374 -0.034062
0.048537 0.023594 0.069463
0.045151 -0.105826 0.037506
0.053991 -0.070460 0.028665
-0.047226 -0.104287 -0.014140
0.016034 -0.043644 0.107231
0.040997 -0.125071 -0.036676
-0.050731 -0.029213 0.022445
-0.023135 -0.024884 0.118864
0.038841 -0.099743 -0.017232
0.044126 -0.105779 -0.020744
0.054995 0.001260 0.059138
0.040388 -0.017115 0.110337
-0.045199 -0.009218 0.107702
-0.039869 -0.063532 0.013654
-0.039348 -0.079455 0.007070
0.012096 -0.175177 0.053687
-0.017095 -0.101630 -0.035833
0.046387 -0.077028 0.048070
0.037867 -0.039882 0.000501
-0.050247 0.022339 0.062726
0.000154 -0.085697 -0.010125
-0.022454 -0.097614 -0.026936
-0.003098 0.034378 0.118489
0.034525 -0.057384 0.075421
0.008893 -0.174030 -0.054278
-0.053475 -0.073587 0.025113
0.011153 -0.042592 0.110145
-0.042636 -0.031545 0.088053
0.044489 -0.034989 0.010825
0.007513 -0.194000 -0.054505
-0.043309 -0.105394 -0.021283
-0.043658 -0.035614 0.009847
0.050852 0.010618 0.080610
-0.017383 -0.115686 0.056720
0.054838 0.004097 0.060218
-0.000541 0.051161 0.086064
-0.037786 -0.042673 0.009684
0.047642 -0.079044 0.012587
-0.054199 -0.029971 0.054519
0.025884 -0.075762 0.069428
-0.053574 -0.194000 -0.012603
-0.041427 0.021189 0.106871
-0.045017 -0.134891 -0.031604
0.011776 -0.103451 -0.040049
0.052739 -0.032345 0.036316
-0.044120 -0.106815 -0.022132
0.037850 0.026126 0.107898
0.019229 -0.053950 0.091659
-0.043355 -0.009518 0.109751
0.046839 -0.034168 0.014826
-0.033939 -0.044333 0.006629
-0.052806 -0.086896 0.015152
0.011428 -0.022060 0.124033
-0.051332 -0.050360 0.053045
-0.023281 -0.087863 -0.007090
-0.025049 -0.170789 0.049080
0.006517 -0.082835 -0.003737
-0.054523 -0.144733 0.007507
-0.036996 -0.080649 0.005374
-0.048119 -0.126980 0.028104
0.053327 -0.038761 0.053569
0.037142 -0.087397 -0.000369
0.024351 -0.067532 0.009358
0.003812 0.045792 0.107948
-0.044512 0.019060 0.098593
-0.046073 -0.001669 0.107752
-0.046217 -0.136702 0.031006
-0.025892 -0.048114 0.093516
0.046434 -0.001262 0.107110
-0.013176 -0.145035 0.054691
-0.044265 -0.058323 0.061861
0.014097 -0.169106 -0.053168
-0.038486 -0.086194 0.053499
-0.052973 -0.026482 0.034193
-0.041436 -0.102554 -0.019263
0.006933 -0.004022 0.128869
-0.033416 -0.032411 0.106991
0.005827 -0.104525 -0.042711
-0.001481 -0.020373 0.125832
-0.032106 -0.112669 -0.039065
-0.019598 -0.077081 0.004459
0.054440 -0.012412 0.059826
-0.007330 -0.081325 0.072968
0.024351 -0.067532 0.009358
0.035801 -0.096366 0.051607
-0.004493 -0.143558 0.056228
-0.027057 -0.048367 0.004721
-0.037717 -0.091149 0.051996
-0.035568 0.006822 0.117237
-0.032767 -0.078849 0.005431
0.029596 -0.105045 -0.033806
-0.053985 -0.116834 -0.010563
-0.036052 0.029396 0.106861
-0.034407 0.000730 0.118551
0.016802 -0.115621 0.056936
-0.054207 -0.019610 0.058418
-0.009957 -0.057563 0.008405
0.022077 0.034445 0.113294
-0.052915 -0.106718 -0.005357
-0.009457 -0.067635 0.082294
-0.052201 -0.024069 0.023989
-0.004983 -0.106304 -0.044663
0.029902 0.033005 0.109602
-0.003953 -0.084886 -0.007941
0.047522 -0.172017 -0.027695
-0.028612 -0.067945 0.009730
-0.004693 0.006872 0.128835
-0.046469 0.013680 0.098458
0.022848 -0.012756 0.123409
-0.052902 -0.134921 -0.015045
0.033171 -0.011191 0.118130
0.019767 -0.039850 0.109644
-0.033847 0.014222 0.116862
-0.002406 -0.118983 -0.052911
-0.051271 -0.024942 0.018529
-0.037862 -0.054847 0.013635
0.035617 -0.021691 0.112523
-0.036037 -0.036767 0.095313
-0.050636 -0.026166 0.017037
0.039817 -0.112911 -0.033079
-0.027385 0.041978 0.090643
0.039336 -0.038546 0.002557
-0.051736 -0.159226 -0.018680
0.043024 -0.113688 -0.030083
-0.006505 -0.079188 0.001204
0.041796 -0.171992 -0.035755
0.053241 -0.111362 -0.009827
0.010356 -0.056432 0.007608
0.051300 -0.116599 0.022367
0.047043 -0.029821 0.008855
-0.043567 -0.104196 -0.019191
-0.031376 -0.050541 0.085174
-0.052860 -0.010877 0.069230
0.043467 0.001104 0.110737
0.039257 -0.071311 0.060608
-0.037775 -0.124815 0.042383
0.019017 -0.003564 0.126214
-0.043495 -0.015182 0.107793
-0.050501 -0.119314 0.023945
0.047022 -0.008401 0.101336
0.043737 -0.089779 0.001307
0.015475 -0.068905 0.008414
0.033229 -0.044259 0.004679
-0.014603 -0.017341 0.124963
-0.051253 -0.043150 0.032175
-0.003639 -0.124461 -0.054434
-0.025190 -0.061994 0.079949
-0.037615 -0.097651 -0.014563
-0.033947 0.043302 0.000500
-0.045117 -0.043493 0.018440
-0.037978 -0.015451 0.113191
0.042814 -0.168480 -0.034531
0.017937 -0.052722 0.005169
-0.041436 -0.102554 -0.019263
0.019106 -0.007418 0.125805
0.005095 -0.060283 0.009099
0.050633 -0.028862 0.021464
0.037169 -0.040589 0.001903
0.034268 -0.194000 -0.043025
-0.000949 -0.194000 0.055000
0.015475 -0.068905 0.008414
-0.033195 -0.093090 -0.010054
0.007264 -0.123667 -0.053850
-0.026583 -0.056584 0.010645
-0.049898 -0.194000 -0.023163
0.045511 -0.083293 0.007981
-0.037510 -0.037286 0.091876
-0.053417 -0.095937 0.023335
-0.018789 -0.069589 0.077531
-0.009682 -0.021830 0.124457
0.012529 -0.054782 0.093909
0.046016 -0.113523 -0.025998
-0.024509 -0.039177 0.107610
0.000154 -0.085697 -0.010125
-0.036567 -0.085458 0.055749
0.024673 -0.008503 0.123439
0.013098 -0.166006 0.053639
0.053212 -0.040733 0.039363
0.047950 -0.089115 0.005879
-0.029755 -0.103634 -0.031975
0.025699 -0.084935 0.064242
0.031212 -0.108468 -0.036355
-0.047772 -0.093063 0.038147
-0.000184 -0.051975 0.000648
0.024678 -0.034170 0.112106
0.026297 -0.042562 0.100553
0.032189 -0.089767 -0.005512
0.053134 -0.109458 -0.008282
0.022848 -0.012756 0.123409
0.054404 -0.022712 0.056424
-0.045087 -0.014938 0.102942
0.019811 0.007966 0.125478
0.027246 -0.048228 0.004626
-0.051372 -0.088193 0.011405
-0.053540 -0.013067 0.009127
-0.039552 -0.155482 0.038812
0.046663 -0.142304 0.030058
-0.045439 -0.020695 0.093868
0.051217 -0.089466 0.032918
0.024220 0.027009 0.117198
0.044771 0.012800 0.106784
0.040544 -0.093483 -0.005253
-0.054848 -0.147034 -0.004193
0.035868 -0.042786 0.006761
-0.043517 -0.041918 0.015327
0.031956 0.033831 0.106789
0.025931 -0.125039 0.051345
-0.054867 -0.011156 0.049142
0.002247 -0.021345 0.125436
0.053143 -0.022361 0.061753
-0.005091 -0.095409 -0.029156
0.007475 -0.166365 0.054690
-0.046336 -0.066003 0.017244
-0.053045 -0.173207 0.014627
0.003737 0.010675 0.128334
0.054967 -0.181554 0.001971
0.010336 0.045416 0.106730
-0.008834 -0.004309 0.128612
-0.052900 -0.103441 -0.000141
0.035762 0.029753 0.106846
0.002022 -0.029890 0.121383
-0.005126 0.053713 0.070897
-0.052745 -0.166295 -0.015604
0.000617 -0.173250 0.055050
-0.011162 0.042761 0.109965
-0.053706 -0.013483 0.063313
-0.046762 -0.092350 0.001623
0.007220 -0.115563 -0.050891
-0.045986 -0.180736 0.030163
-0.014079 0.015433 0.125652
-0.013393 -0.053813 0.004214
0.000000 -0.050498 0.000500
0.018393 0.029657 0.118204
-0.028030 0.004809 0.122233
0.050655 -0.026953 0.068361
0.015003 -0.027451 0.120605
-0.008196 0.043151 0.110272
-0.051535 -0.102921 -0.003378
-0.001481 -0.020373 0.125832
-0.051946 -0.039270 0.034369
0.047490 -0.158824 0.028141
-0.051722 -0.004412 0.079585
-0.043183 -0.047476 0.017100
0.034797 -0.107635 -0.033113
-0.046811 -0.080218 0.011110
-0.042864 -0.111764 -0.028839
0.054493 -0.116206 0.008550
0.015527 -0.005740 0.127079
-0.041641 -0.099398 -0.013501
0.042506 -0.037005 0.009499
-0.012525 -0.115008 0.058353
-0.053264 -0.021025 0.061871
-0.006914 -0.124860 -0.054183
0.030603 -0.050911 0.010663
0.008687 -0.045530 0.107466
-0.037350 -0.040447 0.002276
0.054442 0.007888 0.060259
-0.042325 -0.138351 -0.035130
-0.033416 -0.032411 0.106991
-0.051397 -0.028144 0.065038
0.020510 -0.101276 -0.033885
0.026052 -0.050640 0.008126
-0.048273 -0.074521 0.015604
0.054770 -0.103770 0.011607
0.032251 -0.047373 0.009401
0.042320 -0.052753 0.016608
-0.006677 -0.051086 0.100086
-0.049863 -0.111003 0.027409
0.040061 -0.145110 0.038703
0.049699 -0.163207 0.023834
-0.030914 -0.151126 -0.045496
-0.001898 -0.058575 0.091981
-0.054552 -0.089497 0.018502
-0.019595 -0.053352 0.007395
0.029864 -0.047739 0.089912
0.041692 -0.059078 0.015436
0.006719 -0.006649 0.128661
0.048824 -0.101241 -0.006601
0.027860 -0.048976 0.007445
0.000000 -0.050498 0.000500
-0.030480 -0.075792 0.006844
0.030482 -0.072537 0.008439
0.023303 0.008820 0.123994
-0.052541 -0.049971 0.034739
0.002461 -0.060356 0.009001
-0.042836 -0.039128 0.012556
-0.010186 -0.093341 -0.024288
0.021442 -0.089503 -0.010964
-0.051115 0.005940 0.083127
-0.039193 -0.042233 0.082949
-0.026300 0.038117 0.107377
-0.047148 -0.052307 0.022181
0.024990 -0.164863 0.049275
-0.007682 -0.126449 -0.054377
-0.037977 -0.041074 0.007376
0.021218 -0.009779 0.124669
0.051000 -0.094630 0.005293
-0.048667 -0.040488 0.024358
-0.028390 -0.047329 0.003511
0.051195 -0.120556 -0.020118
0.036139 -0.083525 0.002837
-0.032269 -0.032912 0.107768
-0.038697 -0.074864 0.059187
-0.046885 -0.025845 0.082264
-0.041334 -0.020253 0.107842
0.027165 -0.144470 0.049067
0.042695 -0.112923 0.038899
-0.011153 0.010504 0.127420
0.051403 -0.049940 0.031431
0.051575 -0.038400 0.032859
0.021805 0.050500 0.000500
-0.014237 -0.049993 0.000500
-0.001347 -0.112949 -0.050030
-0.032041 -0.033780 0.107001
0.045505 0.017688 0.096715
-0.000481 -0.050651 0.101404
0.053363 -0.085210 0.029520
-0.049548 -0.099659 -0.002987
-0.023222 -0.086516 -0.005014
-0.011102 -0.030392 0.119937
-0.043260 -0.120857 0.036574
-0.007739 -0.061560 0.009435
-0.047352 -0.046730 0.022922
0.033323 -0.053735 0.079895
0.050319 -0.025242 0.013896
-0.042789 -0.102378 0.041895
0.025153 -0.055335 0.010268
0.050659 -0.098648 0.000390
-0.041340 -0.096504 -0.008933
-0.044659 -0.048791 0.018989
-0.017234 0.043000 0.107358
0.020888 -0.061087 0.010039
-0.050527 -0.100535 -0.002297
0.054647 -0.096434 0.013519
0.050614 -0.138460 0.022360
0.043835 -0.160990 0.033601
-0.050324 0.020244 0.067465
-0.054853 -0.037812 0.049346
-0.049539 -0.101447 -0.005576
0.038823 -0.084151 0.003354
0.001906 -0.062236 0.088303
0.010036 0.044878 0.107895
0.001945 -0.094829 0.066557
0.040804 -0.127097 0.038888
0.011137 -0.083558 0.070871
0.002072 -0.076760 0.076513
-0.001323 -0.036276 0.117178
-0.019611 -0.061348 0.083984
0.009681 -0.008092 0.128068
0.005230 -0.028864 0.121743
0.050095 -0.051647 0.027731
-0.053642 0.006974 0.067123
0.036373 0.022142 0.111662
-0.054378 -0.114469 -0.007777
0.017501 0.010228 0.125892
-0.003613 -0.155253 0.055535
-0.043921 -0.052067 0.066521
-0.035657 0.029099 0.107849
-0.049920 -0.030367 0.020073
-0.044552 -0.158278 -0.032252
0.036439 -0.056057 0.074279
0.033484 -0.044612 0.006471
-0.019963 -0.169569 -0.051252
-0.021251 -0.194000 0.050747
-0.044705 0.011069 0.107824
0.051019 -0.077358 0.017694
0.009179 -0.071463 0.007152
0.054868 -0.173067 -0.003832
0.006535 -0.055988 0.006186
-0.047152 -0.098743 -0.005539
-0.046042 -0.194000 0.002939
0.052334 -0.100863 0.001516
0.027369 -0.044949 0.096070
0.005455 -0.108080 -0.046223
-0.040863 -0.006912 0.112789
0.053840 -0.105710 0.016573
0.040997 -0.125071 -0.036676
0.030191 -0.080154 0.003921
-0.054914 -0.104999 0.007393
0.004425 -0.090112 -0.019245
-0.048113 -0.083481 0.010264
-0.021010 -0.112847 -0.044803
-0.037286 -0.044366 0.010784
-0.036236 -0.044126 0.009509
-0.054280 -0.100420 0.008363
-0.014584 -0.044472 0.106741
-0.032205 -0.169748 -0.044592
0.041906 -0.050266 0.016215
0.029594 -0.148446 0.047334
-0.026089 -0.114450 0.052976
0.001409 -0.122154 -0.053987
-0.042523 0.034892 0.000500
-0.054340 -0.111415 -0.005458
-0.045706 -0.006173 0.107718
-0.002715 -0.068648 0.082548
-0.032674 -0.084956 0.059421
-0.050561 -0.106101 -0.010815
-0.030291 -0.138521 -0.045910
0.049006 -0.178810 -0.024978
0.006718 0.015043 0.127102
0.025411 -0.089051 -0.007986
0.051217 -0.089466 0.032918
-0.053149 0.014119 0.061718
0.020299 -0.109620 0.057038
-0.028029 0.007474 0.121922
0.049435 -0.068352 0.019824
-0.037928 -0.112281 -0.034439
0.053851 -0.117923 0.012524
-0.031063 -0.056534 0.079786
-0.016551 -0.053693 0.006232
-0.035981 -0.168418 0.041787
-0.004354 -0.179151 -0.054831
-0.008174 0.054317 0.064893
0.032143 -0.046064 0.007494
0.024823 -0.079082 0.003700
-0.013861 -0.042446 0.109454
0.050633 -0.028862 0.021464
-0.017731 -0.074434 0.074498
0.042702 -0.049415 0.070500
0.013552 -0.029553 0.119833
0.027649 -0.047597 0.092449
0.024321 0.039004 0.107931
-0.012618 0.019760 0.124635
-0.030640 0.014892 0.118794
-0.008150 -0.017686 0.126168
-0.031727 0.044943 0.063765
0.033165 -0.060769 0.074197
0.013568 -0.009458 0.127096
-0.052147 -0.028641 0.030224
0.041227 -0.102294 -0.019072
-0.027079 -0.097771 0.057538
-0.054830 -0.056234 0.041382
-0.040037 -0.108439 0.043253
-0.003556 -0.056295 0.006061
0.038075 -0.040531 0.006227
0.055003 -0.111282 0.000614
-0.026546 -0.080859 0.002560
0.016770 -0.052569 0.002977
0.031058 -0.047395 0.008418
-0.018031 -0.103589 -0.037946
0.050029 -0.181851 -0.022855
-0.035974 -0.042983 0.007378
-0.037510 -0.037286 0.091876
-0.042081 -0.088296 0.048478
0.017987 0.049087 0.080063
-0.019814 0.030625 0.117034
-0.005404 -0.048506 0.103849
-0.050122 -0.070065 0.020025
-0.033737 -0.144208 -0.043438
0.026192 -0.086673 -0.004010
-0.054539 -0.017381 0.044976
-0.043230 -0.150646 -0.034009
-0.011735 0.036787 0.115328
-0.043613 -0.080092 0.008809
-0.025204 -0.036642 0.109652
0.009769 -0.049418 0.101506
-0.021545 -0.063636 0.009865
0.030637 -0.103641 -0.031402
-0.030882 -0.116679 -0.042163
-0.050636 -0.026166 0.017037
-0.002312 -0.094669 -0.028097
0.009094 -0.097346 -0.031797
-0.029202 -0.059984 0.078523
0.027954 -0.181346 -0.047370
0.013190 -0.110831 -0.046571
0.042702 -0.049415 0.070500
-0.051375 -0.119330 -0.019439
-0.043180 -0.107255 0.039813
-0.054922 -0.109354 0.001854
0.039554 -0.124450 -0.038151
0.020053 -0.084469 -0.003191
0.009836 -0.082199 -0.002291
-0.017993 -0.171345 -0.051980
0.032509 -0.153508 0.045089
0.026540 -0.098709 -0.026348
0.003726 -0.132455 0.057285
0.042818 -0.096233 -0.007100
0.037244 -0.050273 0.078140
0.035851 -0.111219 0.046681
0.025953 -0.055263 0.085556
-0.005895 -0.179827 0.054685
0.046172 -0.045136 0.020657
-0.052730 -0.149251 0.016075
-0.011406 0.044869 0.107403
0.035336 -0.114419 -0.037975
0.000812 -0.102825 -0.041160
0.033172 0.012604 0.117782
0.031168 0.045330 0.063768
-0.042459 0.019042 0.106874
-0.054833 -0.112069 -0.003144
-0.018775 -0.075555 0.005413
0.043245 -0.034125 0.003138
0.043242 -0.041058 0.014438
0.044179 -0.036333 0.011931
-0.044147 -0.063256 0.059029
0.032453 -0.020638 0.115460
-0.009679 0.002367 0.128577
-0.028483 -0.053838 0.010724
0.026698 0.023723 0.117607
0.000000 -0.050498 0.000500
0.049819 -0.033111 0.022913
0.042383 -0.025517 0.097204
-0.036752 -0.040929 0.000500
0.052947 -0.027888 0.059809
-0.033099 0.035212 0.098905
-0.012877 -0.054891 0.006450
0.051706 -0.030594 0.062573
0.015076 -0.126387 -0.052796
0.040300 -0.054619 0.015002
-0.021985 -0.127143 -0.050420
0.048163 -0.028946 0.011625
-0.032102 -0.011652 0.118740
-0.033240 -0.091872 -0.008033
-0.031604 -0.110232 -0.037603
0.026206 0.021408 0.118950
-0.045662 -0.123841 -0.030665
0.039847 -0.065864 0.063228
0.026960 -0.173401 -0.047940
-0.040862 -0.017067 0.109877
0.044110 -0.042167 0.073675
-0.015559 -0.102596 -0.037699
-0.012123 -0.057193 0.091378
0.047876 -0.061401 0.054022
-0.018259 0.044774 0.099032
-0.033957 -0.065133 0.011351
-0.054454 -0.035136 0.046411
-0.029341 0.024298 0.115746
-0.041001 -0.126897 0.038682
-0.053752 0.011633 0.061314
-0.035365 -0.043504 0.087728
-0.028662 -0.036681 0.107054
0.045111 -0.119903 -0.030530
0.042341 -0.161952 0.035468
-0.015215 -0.133061 0.055127
0.042105 -0.047985 0.016089
0.030990 -0.066949 0.010360
-0.045544 -0.118666 -0.029482
0.046116 -0.013124 0.100817
0.008304 0.054285 0.064998
0.018554 -0.045017 0.103519
0.010622 0.006878 0.128065
-0.025879 -0.061714 0.010456
0.009531 -0.057661 0.008398
-0.043266 -0.132539 0.035502
-0.040037 -0.108439 0.043253
0.006460 -0.057205 0.092854
-0.048113 -0.083481 0.010264
0.017878 -0.061511 0.084709
0.026178 -0.054344 0.010275
-0.008010 -0.105411 -0.043267
0.022248 -0.114325 0.055008
0.051201 -0.096885 0.003412
-0.052850 -0.096973 0.007036
0.035467 -0.149642 0.042914
0.049066 -0.033151 0.020151
-0.054552 -0.089497 0.018502
-0.053535 -0.016501 0.062777
0.030503 -0.037649 0.102916
0.010595 -0.121858 -0.052748
0.041801 0.024157 0.099195
-0.045135 -0.095166 0.041438
-0.007151 -0.077910 0.002574
-0.053985 -0.116834 -0.010563
-0.040044 -0.146504 0.038657
0.044185 -0.014840 0.106578
-0.008708 -0.119035 0.058376
-0.043270 -0.141634 -0.033959
-0.036205 -0.103839 -0.027095
-0.008208 -0.061913 0.087687
0.018078 -0.127277 -0.051950
0.053116 -0.059411 0.032152
0.023762 -0.050514 0.092465
-0.053166 -0.119784 0.015487
-0.028684 -0.059627 0.010970
0.045872 -0.004320 0.107792
-0.043238 -0.171412 0.034130
0.052385 -0.004967 0.075372
0.031534 0.033492 0.107881
0.011885 -0.031915 0.118806
-0.054221 -0.075825 0.026275
-0.054807 -0.009467 0.043258
0.005226 -0.024123 0.124093
0.023988 0.023666 0.119041
-0.053706 -0.013483 0.063313
-0.002779 -0.010481 0.128427
-0.054897 -0.045864 0.045172
-0.019814 0.030625 0.117034
0.053596 -0.022703 0.036238
-0.047215 0.010932 0.098337
-0.010560 -0.060046 0.009381
-0.009454 -0.054191 0.000500
0.049198 -0.095099 0.001881
-0.006628 -0.056813 0.093257
0.044526 -0.082791 0.007587
0.044719 -0.050933 0.019079
-0.036711 -0.067398 0.065826
-0.032731 -0.050074 0.084099
-0.027957 -0.110869 0.052718
0.028861 -0.022984 0.116715
-0.042617 -0.034899 0.002919
0.042453 0.029255 0.083230
0.032875 -0.127686 0.046439
0.040712 -0.175376 -0.036980
-0.021862 -0.080255 0.002167
0.009887 -0.124466 -0.053600
-0.032731 -0.164964 0.044483
-0.050561 -0.106101 -0.010815
0.038293 -0.045619 0.080961
0.054967 -0.181554 0.001971
0.009813 -0.108110 -0.045427
-0.044031 -0.130180 -0.032967
-0.005638 -0.068244 0.008373
-0.014718 0.053017 0.000500
-0.028377 -0.153515 0.047843
0.051250 0.013492 0.074746
-0.052086 -0.081307 0.035076
-0.040508 -0.065480 0.062638
-0.044411 -0.174009 0.032531
0.054900 -0.007210 0.045442
0.054770 -0.103770 0.011607
-0.001714 -0.100833 -0.038380
-0.054101 -0.044502 0.042216
-0.036811 0.019299 0.112665
-0.048282 -0.022230 0.081157
0.052527 -0.120861 0.017780
-0.050193 -0.009071 0.085188
-0.036962 0.030616 0.100459
-0.045075 -0.152476 0.032155
0.039975 0.036534 0.069044
0.036524 -0.133426 0.042910
-0.054629 -0.006749 0.012023
0.027543 0.025383 0.116274
0.046093 -0.001029 0.107749
0.022512 -0.042887 0.103708
-0.040120 0.037649 0.063454
-0.006197 -0.054713 0.001970
0.010410 -0.083827 -0.004748
-0.045935 0.003933 0.107762
-0.022899 0.044571 0.090819
0.004160 0.054831 0.064484
0.039554 -0.124450 -0.038151
0.018399 -0.035396 0.114217
0.036673 -0.045336 0.010978
-0.052638 -0.158204 0.016238
-0.052101 -0.098108 0.004061
0.034194 -0.047541 0.010730
0.052376 -0.194000 -0.016874
0.032675 0.036414 0.096189
-0.045689 -0.031199 0.005976
-0.039502 -0.027288 0.102479
0.047471 -0.104009 -0.013317
-0.016445 0.019395 0.123755
-0.036127 -0.119650 -0.039883
-0.000753 -0.043072 0.111152
-0.054907 -0.015806 0.056346
-0.017918 -0.113990 -0.046887
-0.002248 0.023766 0.124452
-0.001988 -0.173920 -0.054965
0.050852 -0.102408 -0.004275
0.033498 -0.113729 -0.038855
-0.007429 -0.178380 0.054496
-0.030368 -0.167974 -0.045858
0.048163 -0.048721 0.024381
0.006035 0.045905 0.107386
-0.043721 -0.060179 0.016667
-0.046664 -0.146739 0.029893
0.051038 -0.040282 0.059115
0.018931 -0.194000 -0.051651
0.026696 0.014217 0.121219
-0.018661 -0.110128 0.057562
-0.034612 -0.145257 0.043849
-0.051818 -0.123286 0.019750
-0.046901 -0.113296 -0.024512
0.009094 -0.097346 -0.031797
-0.047235 0.028176 0.063173
-0.006297 -0.064642 0.009259
0.007271 -0.054733 0.095477
0.043017 0.010422 0.109901
-0.050485 -0.065911 0.022543
0.003908 -0.109960 0.061054
-0.015867 -0.120990 -0.051000
-0.054929 -0.006710 0.058521
-0.030022 -0.136253 0.047852
-0.024655 -0.053716 0.009673
-0.054929 -0.003444 0.015705
-0.029339 0.018254 0.118447
0.023987 0.001499 0.124380
0.046640 -0.057125 0.020336
0.004911 -0.068640 0.008234
0.004425 -0.090112 -0.019245
-0.047691 0.000628 0.101693
0.050807 -0.021077 0.000500
0.006642 0.054590 0.064432
0.003680 -0.057072 0.093427
-0.053940 -0.032151 0.043464
-0.047658 0.003297 0.101390
0.005229 -0.031473 0.120214
0.032887 -0.162971 0.044431
-0.019296 -0.000681 0.126222
0.024187 -0.051662 0.008022
0.051605 -0.098934 0.027476
0.024285 -0.104739 -0.036389
0.008616 -0.109176 -0.046578
0.053969 -0.170031 -0.010633
-0.031453 -0.080220 0.062883
0.042002 -0.107804 -0.026025
0.022906 0.047001 0.079886
0.039919 0.023001 0.107789
-0.043924 -0.039674 0.014433
-0.022838 -0.066853 0.077515
-0.032205 -0.169748 -0.044592
0.035821 -0.032885 0.101639
-0.036812 -0.000496 0.116776
0.005466 -0.052812 0.098132
-0.045728 0.027993 0.071853
-0.029197 -0.194000 -0.046616
-0.030225 -0.093936 -0.013800
0.054842 -0.043786 0.046979
0.035073 -0.109222 -0.034432
-0.044516 -0.183813 -0.032317
0.028027 -0.032869 0.111025
0.010530 -0.088045 -0.013132
0.028211 0.047204 0.064311
0.027219 -0.047839 0.001921
-0.053963 -0.147767 0.010944
0.051504 -0.153694 0.019723
0.048114 -0.032764 0.071935
0.038987 0.024558 0.107785
0.012219 -0.088676 0.067854
0.044526 -0.082791 0.007587
0.028201 0.019403 0.118670
-0.050154 -0.113114 -0.018755
0.014076 0.004546 0.127557
0.030603 -0.050911 0.010663
0.044232 -0.014111 0.107138
-0.016474 -0.106356 -0.041554
0.017603 -0.124048 0.055257
0.043075 -0.034208 0.000500
-0.045891 -0.077139 0.012132
-0.006182 0.041128 0.112642
-0.005228 0.039550 0.114207
0.044039 -0.085577 0.047223
0.000000 -0.050498 0.000500
0.044579 -0.123612 -0.032213
0.045902 -0.006066 0.107415
0.029877 -0.069843 0.070498
0.035868 -0.042786 0.006761
-0.001072 -0.092626 -0.024430
-0.003294 -0.069741 0.007787
-0.033387 -0.031728 0.107804
0.051931 -0.068444 0.024071
-0.026204 -0.101454 -0.031132
0.039368 -0.108194 -0.029436
-0.018395 -0.002767 0.126450
-0.054850 -0.138281 -0.004191
-0.022082 0.050299 0.064851
-0.022610 0.035158 0.112430
0.027219 -0.047839 0.001921
-0.044636 0.032155 0.000500
0.051988 -0.183567 0.017923
0.053865 -0.115807 -0.010751
0.019084 -0.051734 0.094284
-0.048851 -0.053730 0.024641
0.053425 -0.013298 0.006652
0.054563 0.006372 0.061023
0.038109 -0.062053 0.067814
-0.034730 -0.169801 0.042801
-0.044327 -0.040913 0.074333
0.043163 -0.045063 0.016390
-0.040044 -0.146504 0.038657
0.037837 0.026670 0.107426
-0.024113 -0.065486 0.009784
-0.029549 0.035038 0.108093
-0.021494 -0.049990 0.094782
0.041375 0.033616 0.073812
0.009148 -0.015499 0.126650
0.046362 0.025752 0.075090
-0.006197 -0.054713 0.001970
-0.036417 -0.114290 -0.037070
0.024854 -0.000526 0.124017
-0.050548 -0.033789 0.026568
-0.039502 -0.027288 0.102479
0.026207 -0.052550 0.088152
0.008099 -0.089135 -0.016361
-0.017891 -0.180847 -0.052017
-0.010119 -0.106905 -0.044260
0.033881 -0.047153 0.010293
0.001558 -0.088209 0.069731
-0.013938 -0.108648 -0.044617
0.040671 -0.022641 0.106893
-0.043167 -0.141351 0.035196
0.037630 -0.081351 0.056788
0.013448 -0.108513 -0.044680
-0.032706 -0.150120 -0.044221
0.020874 -0.174015 0.050952
0.012148 -0.113354 -0.048565
-0.035358 -0.091423 0.054081
0.032200 0.044455 0.064988
0.012221 -0.074713 0.076190
0.047640 -0.098794 0.035997
-0.048890 -0.042878 0.062839
-0.004484 0.043601 0.110369
0.011373 -0.102013 -0.038328
0.006183 -0.001340 0.129081
-0.047917 -0.086741 0.007696
0.039173 -0.034006 0.092976
-0.037118 -0.040745 0.088192
0.009041 -0.055019 0.005087
0.051298 -0.094660 0.030214
0.034985 -0.039124 0.093829
-0.047923 -0.094337 0.000948
-0.040462 -0.022743 0.107196
0.043573 0.015368 0.107630
0.013568 -0.009458 0.127096
-0.016978 -0.041062 0.109701
0.027957 -0.082759 0.001137
-0.028516 -0.048091 0.006595
0.023762 -0.050514 0.092465
-0.050321 -0.096569 0.002136
-0.054207 -0.019610 0.058418
-0.000761 0.044341 0.109796
-0.044083 -0.014858 0.106897
0.050321 -0.152889 0.022681
-0.015562 -0.086098 0.068211
0.038421 -0.041701 0.009295
-0.043278 -0.025586 0.094346
-0.045565 -0.007934 0.107514
-0.045649 -0.009277 0.106670
0.051351 -0.180144 -0.019707
0.053033 -0.091331 0.012419
0.044552 -0.041775 0.016737
-0.047939 0.023917 0.071897
-0.021251 -0.194000 0.050747
0.036343 0.032959 0.095538
0.009679 0.036888 0.115713
0.013209 0.001318 0.127929
-0.019132 -0.042353 0.107256
0.008200 -0.034428 0.117848
-0.027564 0.047619 0.063823
0.031738 -0.062040 0.011328
0.041272 -0.123754 0.038680
-0.016442 -0.049058 0.099156
