-0.052329 -0.063511 0.007053
-0.094820 -0.021965 -0.061584
0.033452 -0.013531 -0.022799
0.015533 0.025082 -0.016148
0.048679 0.036867 0.085069
0.011596 0.042661 -0.024264
-0.009437 0.028556 -0.002852
-0.080292 0.007403 -0.048846
-0.050560 -0.078431 -0.037366
0.050374 0.081466 0.043162
0.053644 0.070217 0.067561
-0.021568 0.036666 0.016228
-0.010346 -0.063869 -0.014911
0.007214 0.065958 0.009115
0.034397 0.071422 0.067645
0.086159 0.032225 0.010551
0.066506 0.069860 0.005822
-0.064548 -0.050462 0.010854
-0.014395 0.009607 0.042509
0.070607 -0.021675 -0.013482
-0.018248 0.035572 0.014841
0.025155 0.080379 0.025733
0.083079 0.056888 0.015834
0.094963 0.003757 0.033483
-0.024804 -0.061656 0.006807
-0.057498 -0.074750 -0.026161
-0.083187 -0.012511 -0.004435
-0.095262 -0.037976 -0.082090
0.050131 0.070522 0.068273
0.054817 0.072904 -0.001075
-0.011603 0.035840 0.002929
-0.010001 -0.060895 -0.006269
0.072464 0.071176 0.015846
0.042287 0.066470 -0.007138
0.001227 -0.048874 -0.014862
-0.077134 -0.039435 0.006571
-0.090390 -0.006423 -0.058587
0.087820 -0.009667 0.004492
-0.016937 0.023454 -0.001982
-0.000971 -0.048607 -0.005885
0.071853 0.036879 0.075780
-0.061708 0.022858 -0.078929
-0.090428 -0.004079 -0.074966
-0.079804 0.010374 -0.069124
0.000210 0.067583 0.018462
-0.016628 -0.077005 -0.077967
0.047022 0.030744 -0.017113
0.011261 0.065688 -0.001842
0.018773 0.022624 -0.018161
-0.058151 0.020883 -0.040925
-0.002837 0.044072 0.053531
-0.026422 0.036816 0.018192
0.046131 0.070631 0.068929
-0.005768 -0.004306 0.060286
-0.005556 0.034737 0.055232
-0.045937 0.006990 0.008691
0.074150 0.072583 0.025199
-0.013080 0.031825 0.004174
-0.058364 0.021763 -0.048249
0.017633 0.067985 0.063889
0.091539 0.026977 0.024365
0.000716 0.033811 -0.005645
0.036705 0.081912 0.043668
-0.036534 -0.003648 0.015406
-0.077343 -0.054422 -0.004435
-0.079347 -0.046327 0.000645
-0.003078 0.015587 0.061293
0.045410 -0.005008 -0.021181
-0.017596 -0.006527 0.031951
0.053153 0.061917 0.078401
-0.017791 0.019615 -0.046415
-0.082530 -0.061382 -0.052180
-0.016138 -0.027527 0.030172
-0.019392 0.042653 0.017669
-0.018295 0.029791 0.031706
0.001904 0.051821 -0.008831
0.046470 0.080167 0.050572
0.058652 0.063799 0.071236
-0.028949 -0.027525 0.021878
-0.011726 -0.013132 0.048749
-0.008913 0.015088 -0.052103
-0.015250 0.030136 0.005563
0.018079 0.078372 0.031593
0.083461 0.060459 0.044808
-0.005328 0.058877 0.020879
0.066476 0.057930 -0.004097
-0.022200 0.020633 0.001388
0.023563 0.055390 -0.009080
-0.020994 0.024482 0.012180
-0.024036 -0.032627 0.024037
-0.051963 -0.070640 -0.002530
-0.018963 0.035545 0.020082
-0.021854 0.022667 0.012936
0.024520 -0.046400 -0.023319
0.082018 0.030898 0.003323
0.082026 -0.003276 -0.002766
-0.018551 0.021391 -0.005736
0.010648 0.035215 0.072414
0.004233 0.035977 -0.008475
0.063799 0.062892 -0.003092
0.093807 0.003575 0.044191
-0.070083 -0.073758 -0.063468
0.080419 0.023706 0.066426
0.012385 -0.016539 -0.078968
0.045440 -0.021665 0.087811
0.001322 0.061633 0.049743
-0.091239 -0.006315 -0.070638
0.055655 0.070153 0.066835
0.090931 0.035171 0.037758
-0.017925 0.026529 0.005643
0.081036 0.034996 0.002510
0.043000 -0.012405 -0.021682
-0.023619 -0.066687 0.000277
0.075249 0.070630 0.020376
0.093263 0.002558 0.019158
0.084352 0.061510 0.014057
0.076867 -0.016149 0.074713
0.060365 -0.018099 0.084464
0.069799 0.060962 0.065944
-0.040012 -0.019862 0.019761
0.041784 0.030276 0.083509
0.035999 0.057134 -0.011834
0.054142 0.072935 0.064160
-0.016929 -0.038336 0.029532
-0.079887 -0.013732 0.002301
0.017162 -0.006991 -0.034902
-0.049452 0.022260 -0.035312
-0.038479 -0.062791 0.009047
0.090581 0.011040 0.052470
-0.013647 0.026691 -0.000779
-0.026134 -0.012288 0.021027
-0.076064 -0.016903 0.007634
0.018045 -0.003411 -0.032534
-0.043250 0.021724 -0.028014
0.015358 0.000600 -0.033642
-0.065741 0.013416 -0.019015
-0.075797 -0.035428 0.008677
0.041242 -0.016072 -0.021838
-0.014071 0.042746 -0.002484
-0.025655 0.000119 0.018614
0.050558 0.031017 -0.016535
-0.069314 0.007930 -0.007172
0.036009 -0.000536 -0.021567
0.015533 0.025082 -0.016148
0.045669 0.072912 -0.003370
-0.048361 0.019622 -0.019173
0.001560 0.028872 -0.009387
0.058140 0.036905 -0.017174
0.011835 0.038183 -0.022398
0.016471 -0.003755 -0.034500
0.007156 -0.002888 -0.067920
-0.007619 0.048193 0.010253
-0.045539 -0.067684 0.004075
0.077513 0.050615 0.062490
0.001307 0.042758 -0.019265
-0.059682 0.017229 -0.022823
0.017925 0.012315 -0.025494
-0.018584 0.028160 0.027002
0.015159 0.059189 0.068888
0.010449 -0.046617 -0.082350
0.066420 0.035014 0.076371
-0.013787 0.037422 -0.012355
0.037464 0.082278 0.024288
-0.007184 0.037424 -0.019341
0.007350 0.058060 0.062294
-0.045886 -0.076628 -0.022583
0.007121 0.013277 -0.030231
0.013493 0.035846 -0.012391
-0.025651 0.018253 0.001562
-0.086533 -0.002499 -0.042798
-0.048730 -0.073024 -0.007174
0.095904 -0.014087 0.029154
-0.021547 -0.061626 0.005205
-0.027137 0.013618 0.010745
0.094919 0.000395 0.027138
0.003014 0.038193 -0.022225
-0.020587 -0.045022 0.024113
-0.000093 0.035085 0.063052
0.054458 0.022450 0.082946
-0.074606 -0.071266 -0.072896
-0.046449 -0.050598 0.015659
0.092031 0.026565 0.038647
0.014901 0.027680 -0.016555
-0.051903 -0.080379 -0.055768
0.083000 0.062808 0.024432
0.054584 0.037862 -0.014403
0.017291 -0.004941 0.081759
0.049695 0.035915 -0.015858
-0.001249 -0.058766 -0.031980
0.009154 -0.006226 -0.058838
0.050597 0.073748 0.002307
-0.075548 -0.006036 0.002962
-0.018222 0.037860 0.002612
-0.011450 0.028873 -0.000602
0.014550 0.011448 -0.027585
-0.092782 -0.032673 -0.040927
0.036407 0.045025 0.083951
-0.003136 0.061556 0.020834
-0.020654 -0.029751 0.027049
-0.028520 0.011966 0.010462
0.006492 -0.001558 -0.071627
0.066854 0.024830 -0.011491
-0.011099 -0.072898 -0.063421
0.058844 0.023702 -0.015394
0.081437 0.059920 0.007318
-0.044221 -0.043029 0.018336
-0.014659 0.044778 0.032928
0.084995 0.054893 0.046504
-0.030132 0.012642 0.007740
-0.024925 -0.000030 0.019274
0.082018 0.030898 0.003323
-0.058037 0.008497 0.003684
0.069799 0.060962 0.065944
-0.060244 -0.004316 0.012063
-0.015388 -0.027526 0.015015
0.012548 0.037877 -0.023127
0.083003 0.004133 0.066739
-0.055038 0.003187 0.009632
0.078822 0.065907 0.058073
0.095293 -0.014659 0.023913
0.050478 0.079505 0.014900
0.095110 -0.006880 0.024940
-0.061264 0.010695 -0.001769
-0.038063 -0.080736 -0.049604
0.093273 -0.021718 0.050779
0.089487 0.041439 0.027112
-0.010001 -0.060895 -0.006269
0.046355 0.067376 0.072085
-0.047934 -0.053997 0.013983
-0.070537 -0.074019 -0.071008
-0.073516 -0.034117 0.010524
0.008384 -0.050332 -0.068834
-0.009636 0.026988 -0.004428
-0.003220 0.010554 -0.057529
0.013326 -0.022326 -0.063113
0.032150 0.029587 -0.016938
0.080560 0.046512 0.000690
-0.066518 -0.064920 -0.004435
-0.055073 -0.072860 -0.012965
0.029307 0.007174 -0.023053
0.032899 0.055080 0.077962
-0.011453 0.040325 0.040361
-0.041658 -0.075290 -0.014645
-0.063429 -0.078374 -0.088001
0.017078 -0.016343 -0.038236
-0.066993 -0.053560 0.007883
0.007731 -0.003922 -0.064489
-0.034539 0.017750 -0.006998
-0.010801 0.045956 0.038072
0.077885 0.044519 0.068843
-0.015730 0.031830 0.038192
0.030579 0.070861 0.067373
0.057255 0.074744 0.007096
-0.010305 0.021922 -0.013792
-0.075409 0.010110 -0.037018
-0.017505 -0.037137 0.029867
-0.013017 -0.048246 0.009169
0.044028 0.081978 0.022105
-0.011234 -0.021502 0.049714
-0.055721 0.024320 -0.067239
-0.033530 -0.041389 0.018290
0.028306 0.067984 0.069668
0.013700 -0.020304 -0.054413
-0.049266 0.025446 -0.063605
0.093182 -0.010737 0.015978
0.025523 0.059317 0.074435
-0.052182 -0.058529 0.010809
-0.012008 0.049081 0.028609
0.089487 0.041439 0.027112
-0.080962 -0.052802 -0.012500
0.050894 0.069403 0.069304
-0.026760 0.037223 0.014070
0.094737 0.002032 0.039286
-0.067355 -0.047741 0.010613
-0.070104 0.004642 -0.001769
0.017496 -0.032252 -0.019478
-0.006172 0.026401 -0.011544
-0.063755 0.020244 -0.054059
0.053432 -0.027524 -0.020655
-0.081262 0.005531 -0.044675
0.018847 0.018039 -0.021607
0.013848 -0.010222 -0.043087
-0.078900 -0.052149 -0.004436
0.062503 0.035174 0.078158
-0.079034 -0.064106 -0.044852
0.034657 0.080357 0.016557
0.001651 0.016747 0.067298
-0.082905 -0.021007 0.000680
-0.036359 -0.072730 -0.005089
-0.080356 -0.043932 0.000720
-0.035081 -0.082241 -0.071753
0.037463 0.077580 0.057709
0.013342 0.044314 -0.020027
-0.091671 -0.045622 -0.055539
-0.005322 0.052961 0.011301
-0.017442 0.019870 -0.056320
-0.000218 0.026618 -0.010595
-0.023370 -0.023902 0.024533
-0.010011 -0.072770 -0.071704
0.008937 0.036193 0.073122
-0.076655 0.003616 -0.015700
-0.000963 -0.065369 -0.082122
0.014152 0.018421 -0.022085
-0.065541 -0.077178 -0.078559
0.032342 0.017618 -0.020184
-0.076289 -0.045004 0.005213
-0.008902 0.047934 0.040904
-0.015927 0.036305 0.030924
0.087802 -0.023993 0.003696
-0.068367 -0.049163 0.009438
0.005073 -0.045482 -0.026323
-0.023213 0.021145 -0.039852
-0.087424 -0.011341 -0.024136
0.003163 0.003756 -0.057885
-0.059812 0.023422 -0.074785
-0.024666 0.020495 -0.018411
-0.024241 -0.057566 0.009655
-0.006532 0.025532 0.053893
0.070630 0.056720 -0.005759
-0.047637 -0.077748 -0.030043
0.068540 0.076443 0.035035
-0.088225 -0.036857 -0.017277
-0.023663 -0.069168 -0.004493
-0.009945 0.017022 -0.079097
-0.064548 -0.050462 0.010854
0.086181 0.056784 0.027601
-0.017159 -0.029380 0.030805
0.001646 0.025560 -0.012436
0.028718 0.004429 -0.023667
0.051284 0.072887 -0.002326
0.034874 0.023284 -0.018446
0.046382 0.011028 -0.019779
-0.009065 0.015236 -0.061182
-0.014630 0.020116 -0.088001
0.011387 0.037407 -0.030250
0.002058 0.068212 0.029533
-0.089100 -0.009755 -0.037187
-0.025891 0.015318 0.011073
0.009894 0.059308 0.064324
0.035951 0.076497 0.059716
-0.001788 0.062801 0.039706
0.024109 -0.046406 -0.022069
0.025537 0.054994 -0.009970
0.005215 0.068278 0.046908
-0.066741 -0.031473 0.014525
0.081324 0.048385 0.008048
-0.007784 0.043874 -0.005164
0.032932 0.081309 0.044613
0.040403 0.072904 -0.003698
0.023209 0.032229 0.079850
0.013762 0.032242 0.075017
-0.089599 -0.034601 -0.022465
-0.037932 -0.073666 -0.007766
-0.021450 -0.027525 0.026217
-0.086186 -0.052028 -0.035312
0.090581 0.011040 0.052470
0.042944 0.065277 0.074006
0.007267 -0.027526 -0.018250
0.060396 0.071924 0.004066
0.016275 0.033339 -0.012363
-0.005604 0.029630 0.054207
0.021890 0.028740 -0.015473
-0.075548 -0.006036 0.002962
0.048811 0.026755 -0.017491
0.042615 0.056503 0.081661
-0.068902 -0.051210 0.008048
-0.027349 -0.058222 0.010260
-0.042419 -0.065817 0.006422
0.005802 0.006399 -0.040452
0.011596 0.042661 -0.024264
-0.017009 0.025707 0.032916
-0.026755 0.036991 0.016930
0.049895 0.003650 0.086021
-0.028520 0.011966 0.010462
0.095401 -0.021463 0.042494
-0.045347 0.019979 -0.019166
0.036533 0.008361 -0.020736
-0.086510 -0.022371 -0.007172
-0.004123 -0.068512 -0.082127
-0.033009 0.007910 0.010138
0.027677 0.022866 -0.018379
-0.014116 -0.046290 0.017659
0.042033 0.081256 0.047511
0.056175 0.017048 0.083185
-0.017714 -0.063346 0.000363
0.014294 0.063472 0.000111
0.068815 0.035110 0.074624
0.012814 0.075683 0.037390
-0.006131 0.055148 0.015444
-0.059967 -0.071792 -0.016274
0.085900 -0.008672 0.064341
-0.044153 0.000414 0.013075
-0.019427 0.020080 0.026204
-0.032027 0.017726 -0.005993
-0.050888 -0.004273 0.014558
-0.092013 -0.021780 -0.036667
0.004734 -0.046378 -0.011483
0.051284 0.072887 -0.002326
0.003278 0.032289 0.065823
0.085902 0.003761 0.062862
-0.040180 -0.002191 0.014469
0.040386 0.059849 0.080693
0.000868 0.039257 -0.017170
-0.019671 0.022188 0.024761
-0.023928 0.019517 -0.008305
-0.000093 0.035085 0.063052
0.038272 0.007365 -0.020571
-0.082003 0.007396 -0.062574
0.044335 0.027164 0.083898
-0.044221 -0.043029 0.018336
0.061734 0.013871 0.081580
0.005613 0.016304 -0.027087
-0.040191 -0.029047 0.020297
-0.000709 0.031605 0.060830
-0.019065 0.013506 0.028271
-0.052139 0.024646 -0.059883
0.007372 -0.002265 -0.088000
-0.004735 0.061763 0.013094
-0.027493 0.015012 0.008009
-0.021854 0.022667 0.012936
0.006486 -0.050559 -0.049403
-0.089590 -0.003842 -0.063405
-0.043077 0.020830 -0.022916
-0.017529 0.043100 0.029077
-0.025066 -0.074151 -0.022859
0.086154 0.036710 0.005823
-0.090559 -0.024874 -0.025865
0.034199 0.075075 0.062028
-0.018673 0.035689 0.024967
-0.059538 0.022204 -0.056113
0.017109 -0.044247 -0.036322
-0.025523 -0.072589 -0.014566
0.048104 -0.007258 0.087039
0.025515 0.040363 -0.013310
-0.061693 -0.015249 0.015258
-0.050889 -0.000885 0.012945
0.051184 0.068202 0.070401
-0.014809 -0.073177 -0.045388
0.024037 0.080500 0.034089
0.007475 -0.028217 -0.022017
0.059353 -0.010558 -0.018555
0.042302 0.068168 -0.005714
-0.015808 0.018816 -0.050105
0.073334 0.032225 0.071615
-0.058217 -0.073124 -0.019208
-0.065703 -0.042304 0.013215
-0.073780 -0.010544 0.007275
-0.055269 -0.028394 0.018646
0.019608 -0.046334 -0.030303
0.080062 0.049171 0.006415
-0.011618 -0.064766 -0.014308
0.086958 0.055024 0.030776
-0.070697 0.018073 -0.074966
-0.034488 -0.034183 0.019617
0.058456 0.069066 -0.000756
0.089604 0.030443 0.018444
-0.003995 0.042777 -0.013264
0.028702 -0.027526 -0.024591
0.014111 0.071953 0.011202
-0.015099 0.043908 0.033204
0.044501 -0.022212 -0.021880
-0.014892 -0.047272 0.010663
0.010113 0.055015 -0.002063
-0.092137 -0.042971 -0.051858
0.039923 0.083032 0.032999
-0.003136 0.061556 0.020834
0.052176 0.072933 0.001125
-0.068272 -0.040490 0.012418
0.060495 0.078301 0.046274
-0.013461 0.019660 0.043275
-0.017478 -0.033395 0.030466
0.020220 0.077614 0.019586
0.044641 0.060959 -0.010449
0.016643 -0.027526 -0.041388
0.008561 -0.039662 -0.036583
0.006829 -0.040867 -0.027853
-0.026755 0.036991 0.016930
0.054885 0.003817 -0.018952
0.089883 0.016922 0.052433
0.083829 0.034377 0.058930
0.004141 -0.052126 -0.038305
-0.024732 -0.040502 0.022409
0.011451 -0.043669 -0.084491
-0.074958 -0.044806 0.006572
-0.025255 -0.017082 0.022474
-0.093957 -0.037015 -0.056270
0.047179 0.065033 0.078196
-0.021140 -0.079067 -0.079369
-0.057886 -0.065718 0.002302
0.005622 0.058984 0.064923
0.023730 0.046710 0.077213
-0.081262 0.005531 -0.044675
0.075738 0.063184 0.001879
0.086942 0.037252 0.051668
-0.038786 -0.024105 0.020224
0.031379 0.063163 0.074231
-0.068714 -0.075696 -0.088001
-0.080226 -0.065505 -0.063558
0.090637 -0.027526 0.008767
0.066376 0.065618 0.065151
-0.072637 -0.071479 -0.057821
-0.051168 -0.010269 0.016770
-0.077917 0.008826 -0.042796
0.014197 -0.021074 -0.051241
0.022991 -0.017992 -0.029284
0.001651 0.016747 0.067298
-0.076064 -0.016903 0.007634
0.075951 0.036923 -0.006550
0.013758 -0.030699 -0.057907
0.049154 0.068827 -0.006664
0.045874 0.058448 0.077432
0.071682 0.074747 0.032999
0.048682 0.071976 0.066814
-0.083748 -0.062420 -0.074255
0.075351 0.054902 0.063540
-0.011074 -0.044562 0.009412
-0.067223 0.019060 -0.059688
0.010775 -0.038413 -0.051841
-0.088306 -0.042996 -0.025683
0.009963 -0.007327 -0.055607
-0.017577 -0.030109 0.030753
-0.015114 0.036144 0.033764
0.033139 -0.027525 -0.023060
0.057936 0.067456 -0.002640
-0.023392 -0.004011 0.021445
-0.078683 0.000298 -0.013124
0.044840 0.067374 -0.006251
0.002509 0.054962 0.057338
0.012133 -0.003914 -0.041552
0.009570 0.042090 -0.006569
-0.019897 -0.070210 -0.014677
-0.053819 -0.001139 0.012455
0.087802 -0.023993 0.003696
-0.021125 0.037241 -0.001210
-0.093085 -0.016642 -0.052181
-0.022954 -0.064832 0.002455
0.044981 -0.007096 0.087337
0.025207 0.059231 -0.008350
-0.069281 0.006825 -0.004432
-0.036366 -0.064484 0.007423
0.017700 0.056979 0.071555
-0.021486 0.012844 0.021884
0.047411 0.080742 0.048257
-0.037018 0.020422 -0.020238
-0.083359 -0.031381 0.000680
-0.009863 0.049569 0.037004
-0.090718 -0.046323 -0.049075
0.067682 0.073149 0.052761
-0.026457 0.011076 0.013967
0.056646 0.055379 0.075987
-0.088306 -0.042996 -0.025683
0.002430 0.066260 0.017802
-0.081758 0.009059 -0.081958
-0.028464 -0.079573 -0.052498
0.044371 0.035575 -0.018035
0.023887 0.031928 -0.014905
-0.011618 -0.064766 -0.014308
0.028903 0.070776 -0.000915
-0.053045 -0.077262 -0.033202
-0.039815 0.026802 -0.078838
-0.041870 -0.056622 0.013057
0.000866 -0.061515 -0.060038
-0.022636 -0.056001 0.010005
-0.058326 0.012486 -0.002584
0.025380 0.044061 -0.022288
0.004241 0.021798 -0.018170
0.027677 0.022866 -0.018379
0.017792 0.040191 -0.010759
-0.042954 0.026270 -0.067340
-0.005876 0.014254 -0.043021
0.039849 0.066554 0.073065
-0.073836 0.004411 -0.008703
-0.014071 0.042746 -0.002484
-0.068176 -0.071599 -0.037188
0.073334 0.032225 0.071615
0.070368 0.018424 0.076315
0.016786 0.021273 -0.019192
-0.008061 -0.058820 -0.006041
-0.032807 0.012863 0.005034
0.056730 0.080949 0.035572
-0.058822 -0.078840 -0.059704
0.027961 -0.033754 -0.023232
0.017147 0.026107 -0.017936
-0.073774 -0.013268 0.008367
-0.013547 -0.060880 -0.000578
-0.000630 0.052251 0.005050
0.083856 0.062421 0.037446
-0.074291 0.010000 -0.031557
-0.019159 0.025415 0.006654
0.056294 0.080999 0.029094
-0.012687 0.045153 0.016775
-0.058390 -0.055493 0.010823
0.041991 0.071919 -0.001696
0.018691 -0.044703 -0.033042
-0.045930 0.005635 0.009731
-0.065055 -0.054331 0.008558
0.015720 0.054969 0.070967
0.029660 0.081898 0.034493
0.092393 0.018684 0.043260
-0.006110 -0.070085 -0.077452
0.073476 0.035223 -0.005039
0.083108 0.062892 0.040693
-0.060814 -0.002050 0.010741
-0.000819 0.008185 -0.065405
0.070779 0.071980 0.014925
0.042264 0.046074 0.083951
-0.089174 -0.050913 -0.052545
-0.045347 0.019979 -0.019166
-0.018248 0.035572 0.014841
0.011675 0.074506 0.024209
-0.054540 -0.071964 -0.008367
-0.042694 -0.068717 0.003007
0.001957 0.052615 0.002858
-0.088686 -0.047359 -0.037180
-0.060608 -0.078513 -0.063644
-0.021010 0.020368 -0.006201
-0.077449 -0.068919 -0.072894
0.013675 -0.027526 0.080590
0.039500 0.057159 -0.012084
0.063174 0.065164 -0.001802
0.055982 0.050543 0.077364
0.048593 0.065283 -0.007376
-0.027112 -0.010175 0.020063
0.001322 0.061633 0.049743
-0.082779 -0.046362 -0.006468
-0.066347 0.017503 -0.042796
-0.012699 0.022038 -0.011301
0.064424 -0.027525 -0.016900
-0.027615 0.009520 0.013449
0.090733 -0.006712 0.055715
0.017917 0.072690 0.008720
-0.085832 -0.024583 -0.004436
-0.003213 0.023954 -0.012671
0.026589 0.024841 0.082203
0.046029 0.023516 -0.018293
-0.021277 -0.072673 -0.023037
0.078621 0.058986 0.057078
0.059422 0.003581 -0.017562
0.016026 -0.025131 -0.043482
0.046034 0.055495 0.078377
0.009154 -0.006226 -0.058838
0.087229 0.003935 0.060742
0.070611 0.035019 -0.007570
-0.013855 0.036819 0.042018
0.016735 0.035083 0.076820
0.091469 0.036874 0.048734
-0.093409 -0.013830 -0.063469
-0.037736 0.014049 0.001216
-0.000190 0.015391 -0.031999
0.039879 -0.013574 -0.021787
-0.047419 -0.078600 -0.035316
0.007448 -0.048389 -0.049404
-0.010475 -0.027526 0.051771
-0.026473 0.017021 0.005308
0.013258 -0.028026 -0.085968
0.074980 0.049087 0.070366
-0.019392 0.042653 0.017669
0.017955 0.077122 0.021536
-0.090018 -0.041763 -0.033437
-0.071938 -0.071326 -0.052180
-0.065055 -0.054331 0.008558
-0.031805 -0.082017 -0.077618
-0.030430 -0.014078 0.019823
-0.084354 -0.026745 -0.000872
-0.019338 0.028967 0.014533
0.010331 0.072934 0.019428
0.075206 0.065650 0.010427
-0.086542 -0.054904 -0.048424
-0.037027 -0.079969 -0.043754
-0.086714 -0.057270 -0.063469
0.035753 0.052711 -0.018621
0.002439 -0.050429 -0.024015
0.043504 0.079890 0.052039
-0.018107 -0.027524 0.030587
0.032387 0.080585 0.018508
0.091731 0.008828 0.049981
0.073119 0.055378 0.000294
-0.061184 -0.045687 0.014069
0.015466 -0.030796 -0.046325
-0.026511 -0.028809 0.018985
-0.084650 -0.052995 -0.029717
-0.063618 -0.060681 0.004464
-0.077842 0.011788 -0.063686
0.002318 0.008505 -0.042685
-0.065648 0.021189 -0.082449
-0.035272 -0.028962 0.020005
0.062083 0.077857 0.020300
-0.081300 -0.014595 0.000681
-0.018190 0.002762 0.030990
-0.001131 0.011521 0.064777
-0.036316 0.010978 0.005777
-0.080336 -0.026667 0.005003
0.012247 0.046653 0.070692
0.066053 0.077595 0.029880
-0.079775 -0.038345 0.004075
0.071482 0.068210 0.008839
-0.032012 -0.044630 0.018582
-0.091254 -0.050502 -0.078423
-0.015978 -0.043768 0.027112
0.005466 0.067567 0.049126
0.027407 0.045116 0.082243
0.059422 0.003581 -0.017562
0.050374 0.081466 0.022836
0.006200 -0.039800 -0.022895
-0.015420 0.038355 -0.004557
-0.007748 0.038293 -0.005716
0.051608 0.072309 0.000408
0.008847 -0.001092 -0.045907
-0.015978 -0.043768 0.027112
0.011205 -0.044089 -0.079205
0.014313 0.064536 -0.005673
-0.000499 0.018089 -0.026385
0.007519 0.068567 0.051279
0.083000 0.062808 0.024432
-0.057886 -0.080467 -0.088001
0.012358 -0.032996 -0.060396
-0.001346 0.060624 0.045016
0.018150 -0.046294 -0.032840
-0.080405 0.010619 -0.088001
0.015773 -0.007091 -0.037045
0.081718 -0.021970 -0.004219
0.073022 0.026600 -0.006999
-0.079054 -0.036272 0.005482
0.031428 0.081956 0.038631
-0.057451 0.007575 0.005003
-0.039756 -0.078431 -0.031865
-0.014016 0.037897 -0.012866
-0.011066 0.049725 0.032634
0.045440 -0.021665 0.087811
0.011776 -0.014626 -0.071203
0.004203 -0.030919 -0.088001
0.049838 -0.014429 0.087116
-0.031277 -0.072714 -0.007863
0.028500 0.074479 0.004876
-0.080523 0.003989 -0.033452
-0.074204 -0.038547 0.009275
-0.036534 -0.003648 0.015406
0.080259 0.035162 0.001875
0.085512 0.037444 0.011235
0.092149 -0.009117 0.013294
0.010954 0.057496 0.066286
-0.007748 0.038293 -0.005716
-0.005322 0.052961 0.011301
0.093031 0.010526 0.021308
-0.017897 -0.033053 0.030395
0.081935 0.064783 0.025463
0.021857 0.067985 0.066703
-0.015195 0.042115 0.024539
0.024362 0.066330 -0.003540
-0.070251 -0.062954 -0.006468
-0.006886 -0.060402 -0.014370
0.026829 0.066710 -0.004266
0.006239 0.003316 -0.044828
-0.092928 -0.040191 -0.052362
0.016403 -0.040826 -0.039962
-0.050889 -0.045434 0.016913
-0.006734 0.038197 -0.017130
0.076382 0.071177 0.027146
0.061281 0.037753 0.078005
0.044131 -0.014457 0.087712
-0.070662 -0.039004 0.011438
-0.026881 -0.035931 0.018026
-0.008726 -0.057280 -0.002079
-0.071616 -0.029319 0.012049
0.059224 0.018673 0.081964
0.035849 0.069198 0.070372
-0.070083 -0.073758 -0.063468
-0.044794 0.017469 -0.007238
0.082976 0.003351 -0.000886
-0.071807 0.009262 -0.019347
-0.062361 0.021250 -0.057818
0.004792 -0.036330 -0.011348
0.008081 -0.052223 -0.082701
0.042041 0.060719 -0.014854
-0.017451 -0.076164 -0.058851
0.014469 0.036787 0.078167
0.017544 0.038133 -0.011263
-0.036883 0.026647 -0.079038
-0.060581 -0.030491 0.017066
0.050131 0.070522 0.068273
0.000693 0.042763 -0.018512
0.069061 -0.003085 0.079552
0.065651 0.030378 0.077221
0.034264 0.057945 0.077301
0.017614 0.074980 0.051538
0.013741 0.070067 0.008041
0.017011 0.017435 -0.022373
-0.028520 0.011966 0.010462
-0.018067 0.021515 -0.074614
0.033645 0.039322 0.081395
-0.004570 -0.054132 -0.005237
-0.034671 0.015279 -0.000236
-0.000279 0.038518 -0.019983
0.012158 -0.014809 -0.088000
0.006898 -0.054499 -0.082907
0.051642 0.034263 -0.016202
0.012680 0.004634 -0.033802
-0.017897 -0.033053 0.030395
0.009459 0.044264 -0.018447
-0.006349 0.027851 -0.009213
-0.006233 -0.064313 -0.031879
0.028446 -0.019973 0.086431
-0.027030 -0.066654 0.002370
-0.060025 0.000386 0.009674
-0.077635 -0.042137 0.005099
-0.014503 0.028498 0.002565
-0.015007 0.034626 0.009814
-0.003303 -0.066566 -0.063687
-0.002916 0.028488 -0.010365
0.046470 0.080167 0.015426
-0.031718 0.016782 -0.002525
-0.050840 0.022867 -0.041227
0.082590 0.055400 0.052390
0.072013 0.000084 -0.011387
-0.039815 0.026802 -0.078838
-0.042788 0.007292 0.008663
0.026969 0.081308 0.033373
0.052718 0.062892 -0.007980
0.018346 0.054932 0.072626
-0.015484 0.028928 0.036197
-0.026358 0.018011 0.000174
0.021808 0.039195 -0.012434
0.049820 0.061916 0.079134
-0.030872 0.016577 -0.001256
0.012330 0.038121 -0.022892
0.017128 0.065214 0.066250
-0.004755 0.021726 -0.016985
0.078617 0.048374 0.004142
0.091869 0.036859 0.018621
-0.003136 0.061556 0.020834
-0.025848 -0.065192 0.003657
0.045787 0.035206 0.082657
-0.025891 0.015318 0.011073
0.095294 -0.003636 0.037877
0.040490 0.079078 0.011584
0.017261 0.019657 -0.020597
0.018968 -0.046398 -0.020115
-0.003303 -0.066566 -0.063687
-0.000819 0.008185 -0.065405
0.003002 0.059599 0.061213
-0.086510 -0.022371 -0.007172
0.084767 0.035016 0.007975
-0.012064 0.043041 -0.001136
-0.093085 -0.021877 -0.044456
0.057204 0.035168 0.080277
0.030974 0.045287 -0.013717
-0.000908 -0.065050 -0.076124
-0.052329 -0.063511 0.007053
0.054123 0.043273 -0.013483
0.094313 0.010761 0.033479
-0.026450 0.037369 0.019447
0.090830 0.044952 0.045701
-0.004254 0.030952 -0.007134
0.008298 0.037019 -0.011963
-0.015388 -0.027526 0.015015
-0.095568 -0.021755 -0.074480
0.073517 0.071922 0.020253
0.051608 0.055262 0.077500
0.008842 0.018622 -0.022850
-0.067483 -0.065088 -0.006466
-0.060658 -0.065550 0.000681
-0.084233 0.002394 -0.048371
0.005676 0.071175 0.029608
-0.012020 -0.038635 0.011634
-0.056750 0.013921 -0.004435
0.013039 -0.020602 -0.065849
0.044658 0.065601 0.073658
-0.070044 -0.054471 0.005021
0.004401 -0.049574 -0.032175
0.035321 0.019645 -0.019370
-0.019416 -0.004723 0.027434
-0.060848 0.012927 -0.006468
-0.031970 0.007358 0.011137
-0.013575 0.026367 -0.005686
0.032804 0.019813 -0.019469
-0.054139 0.014796 -0.004435
-0.002838 0.044588 -0.009737
-0.087955 -0.053960 -0.055757
-0.076993 -0.069765 -0.083287
0.067273 0.069094 0.060522
-0.091886 -0.049529 -0.088001
-0.023958 -0.069870 -0.006038
-0.018652 0.027429 0.008861
0.086942 0.037252 0.051668
0.071853 0.036879 0.075780
0.027616 -0.038462 -0.024387
0.068568 0.048973 -0.005352
0.089877 0.035006 0.020700
0.062367 0.071238 0.061596
-0.014264 -0.057319 0.004150
0.083410 0.063484 0.030762
0.070601 -0.003209 -0.012606
-0.069846 -0.035361 0.012555
-0.055720 0.015029 -0.006535
0.083247 0.034239 0.006092
0.065348 0.059636 -0.004046
0.036705 0.081912 0.043668
0.079153 -0.012413 0.072463
-0.082261 -0.005039 -0.013487
-0.008369 0.059359 0.016142
0.047446 0.037756 -0.015871
0.035849 0.069198 0.070372
-0.095303 -0.028019 -0.063470
-0.043165 -0.081798 -0.060126
0.049546 0.041931 -0.014777
-0.092497 -0.026532 -0.037505
-0.076503 -0.025689 0.008677
-0.023158 -0.047623 0.014066
-0.001054 0.036925 0.064301
-0.017077 0.019663 -0.033827
-0.027605 -0.044860 0.019806
-0.013804 0.017903 -0.053915
-0.065517 -0.004439 0.009826
0.066854 0.024830 -0.011491
0.069615 0.034376 0.073992
0.007659 0.045250 -0.004405
0.012522 -0.039044 -0.058034
0.011231 0.033006 -0.012740
-0.009372 -0.069929 -0.048186
-0.011629 0.034208 0.042764
0.038518 0.064580 0.078714
0.070313 0.003767 0.078175
-0.016748 -0.015350 0.033414
0.005476 0.041004 -0.004821
0.038273 0.016918 0.085286
0.084065 0.054698 0.049358
0.085555 0.055517 0.022090
-0.002881 0.023059 -0.014377
-0.084062 -0.015123 -0.004435
0.051155 0.056890 -0.011111
-0.001378 0.031088 -0.008658
-0.000639 0.061947 0.044741
0.005639 -0.041772 -0.022757
-0.081579 -0.047338 -0.004435
0.031221 0.075124 0.004934
0.077198 0.037058 0.071421
0.076171 0.065653 0.054060
-0.016832 -0.043913 0.027978
-0.020586 0.006892 0.024519
0.005764 0.025178 -0.014095
-0.064543 0.010943 -0.006468
-0.072796 -0.041816 0.009398
0.009668 -0.037149 -0.040690
0.013496 -0.028110 -0.065871
0.081858 0.065767 0.030456
-0.017203 0.021393 -0.083317
0.041137 0.060001 -0.011026
0.008693 -0.028195 -0.028893
0.042919 0.063773 -0.009007
-0.013869 -0.046405 0.016319
-0.007089 0.056518 0.020951
0.078978 0.003764 0.071233
0.076462 0.068126 0.049227
0.069061 -0.003085 0.079552
-0.082128 -0.064548 -0.078189
0.009154 -0.006226 -0.058838
-0.076064 -0.016903 0.007634
0.092612 -0.005008 0.050761
-0.070293 0.017575 -0.063457
0.026967 0.077794 0.052933
0.078841 0.059614 0.003524
0.023696 0.073140 0.060946
0.046468 0.075449 0.061736
0.047905 -0.016151 -0.021437
-0.010796 0.037582 0.042974
0.001904 0.051821 -0.008831
0.079363 0.055006 0.007680
-0.030984 0.001938 0.014603
-0.043385 -0.073613 -0.007256
-0.050888 -0.055835 0.012595
-0.083993 0.005275 -0.065352
-0.093904 -0.043959 -0.088001
0.018842 -0.027525 -0.035708
0.004636 0.031180 -0.009142
-0.000412 0.008270 -0.073246
-0.007089 0.056518 0.020951
0.080733 0.043279 0.060710
-0.068849 0.018991 -0.071010
-0.017421 0.028802 0.007915
-0.002837 0.044072 0.053531
-0.078132 -0.046390 0.002306
-0.038166 0.012311 0.003709
-0.048328 0.026036 -0.071010
0.025523 0.059317 0.074435
0.002282 -0.059473 -0.058850
-0.067355 -0.047741 0.010613
0.000622 -0.052871 -0.021823
0.027335 -0.037898 -0.023202
-0.013588 0.044305 0.006062
-0.079635 -0.049352 -0.002494
0.035193 0.081008 0.047261
0.091892 0.045588 0.026480
-0.015860 0.037342 0.014980
-0.038784 -0.065547 0.006635
0.014545 -0.046369 -0.040354
-0.014798 -0.075964 -0.076125
0.041258 -0.027526 0.088001
0.070278 0.059274 0.066526
0.035951 0.078658 0.054863
0.007491 -0.049837 -0.055395
-0.002135 0.013862 -0.037310
0.079344 0.063540 0.059255
-0.035497 -0.071787 -0.002981
0.060868 0.037723 -0.012198
-0.009897 0.007100 0.051987
0.010186 0.063160 0.061840
-0.024154 0.037553 0.004635
-0.079692 0.010892 -0.075010
-0.090667 -0.030583 -0.026285
-0.086027 0.001761 -0.059877
-0.015507 -0.046402 0.023267
0.001904 0.051821 -0.008831
0.081792 0.061036 0.017094
0.092659 0.017186 0.023171
-0.008439 0.054944 0.032687
0.007669 0.072935 0.033796
-0.019439 0.037622 -0.005150
-0.010238 -0.018881 0.052363
-0.047935 -0.032943 0.019732
-0.043022 0.025748 -0.060088
0.014244 -0.015890 -0.046570
0.085124 0.057135 0.053746
0.083755 -0.024044 -0.001900
0.040386 0.059849 0.080693
-0.080217 -0.062101 -0.041096
-0.024921 0.006467 0.017781
0.045519 0.048677 0.079949
0.009668 -0.037149 -0.040690
-0.034430 0.006856 0.010263
0.054670 0.079177 0.016576
0.008842 0.018622 -0.022850
0.026160 0.071563 0.064732
0.019711 0.059985 0.075499
-0.005678 0.059709 0.028766
0.019529 0.008370 -0.026827
-0.040919 -0.059261 0.011554
-0.030166 -0.076819 -0.029446
-0.071616 -0.029319 0.012049
0.005638 -0.051879 -0.047758
0.056939 0.036880 0.083214
0.010500 0.066933 0.006768
0.035999 0.057134 -0.011834
0.013149 -0.007081 -0.042203
-0.092194 -0.013162 -0.052103
-0.017232 0.030435 0.009656
0.038491 0.061452 -0.010257
0.016111 -0.034368 -0.043355
0.066172 0.012450 0.079640
-0.015501 -0.018008 0.036655
-0.057644 -0.076666 -0.037869
-0.078459 -0.033795 0.006571
0.009459 0.044264 -0.018447
-0.001434 0.008845 -0.058527
-0.077914 -0.066904 -0.055940
0.086219 0.064801 0.024821
0.025207 0.059231 -0.008350
-0.019428 -0.062705 0.002649
0.009570 0.042090 -0.006569
0.011017 -0.046299 -0.053675
-0.019355 0.021621 -0.002965
-0.089468 -0.026413 -0.019550
0.031428 0.081956 0.027367
0.015984 -0.016381 -0.040966
0.063849 -0.013969 0.082894
-0.016879 0.025479 0.001913
0.087152 0.034992 0.012859
-0.021196 0.042380 0.002520
0.091170 0.046075 0.022741
0.011263 0.035096 0.073275
-0.073774 -0.013268 0.008367
0.037460 0.078764 0.011090
-0.012656 -0.074517 -0.072025
-0.051493 -0.066260 0.004464
0.015562 0.074867 0.048913
-0.092444 -0.007887 -0.088001
0.043000 -0.012405 -0.021682
0.015544 0.068573 0.061474
0.051112 0.061847 -0.008991
0.074665 0.059502 0.062016
-0.087724 -0.009557 -0.029372
-0.080930 0.007764 -0.055941
0.032301 0.043174 -0.022380
0.015420 0.072905 0.059014
-0.004799 0.010174 0.059768
-0.054805 -0.070649 -0.004432
0.065958 0.017061 0.079157
-0.092928 -0.040191 -0.052362
-0.069086 -0.069642 -0.029721
-0.056717 -0.033535 0.018018
0.011544 0.008944 -0.031417
-0.076145 -0.042161 0.006569
-0.091941 -0.019028 -0.039052
0.053153 0.061917 0.078401
-0.078226 -0.067950 -0.069122
-0.085972 -0.028022 -0.004432
0.016947 -0.030802 -0.041074
0.018314 0.076951 0.045908
-0.005824 0.042641 -0.013596
-0.055710 -0.057854 0.010325
0.013108 -0.033520 -0.073063
-0.081843 0.008679 -0.075456
0.011504 -0.013439 -0.065408
-0.013771 -0.075696 -0.088001
0.013557 0.066807 0.003823
0.067513 0.035915 -0.009059
-0.061482 -0.072433 -0.022460
0.074865 0.034997 0.070217
0.028903 0.070776 -0.000915
0.077752 0.056209 0.000646
-0.076517 -0.003109 -0.000977
0.038560 0.063196 -0.009302
0.018842 -0.027525 -0.035708
-0.015789 -0.046282 0.026118
0.079185 0.007052 -0.004625
-0.029676 -0.005247 0.017683
0.071778 0.073836 0.042360
0.089045 -0.012411 0.006357
-0.035512 -0.006844 0.016776
-0.005551 0.051420 0.045175
0.070325 0.055370 0.068212
0.018696 0.044138 -0.010020
0.043302 0.067432 0.072316
0.083410 0.063484 0.030762
-0.011919 0.030493 0.043522
-0.015096 0.026492 0.000778
-0.085530 -0.012351 -0.013295
0.032868 0.063948 -0.008072
0.031094 0.028512 -0.018659
-0.042997 0.010266 0.005869
0.078175 -0.003096 0.072716
-0.033688 -0.073167 -0.007799
0.012477 0.055764 -0.013446
-0.032186 -0.082240 -0.084479
-0.077289 -0.062327 -0.027852
-0.030727 -0.041307 0.019889
-0.014544 -0.027526 0.039235
-0.050814 -0.071719 -0.004432
0.015773 -0.007091 -0.037045
-0.039203 -0.064055 0.008045
-0.021016 0.024622 0.016076
-0.004205 0.017607 -0.029419
0.008473 0.003625 -0.040009
0.041242 -0.016072 -0.021838
0.026345 -0.041929 -0.024517
-0.006924 0.013698 -0.062665
0.096024 -0.018270 0.036858
-0.063867 -0.069235 -0.013414
-0.065975 -0.003280 0.008965
0.000107 0.052804 0.054370
0.092708 0.020609 0.039894
-0.060669 -0.069571 -0.008176
-0.010548 0.037653 0.005908
0.082002 -0.010493 -0.003400
0.029088 0.071835 0.065614
0.083387 0.011079 0.065195
-0.093899 -0.014710 -0.067238
-0.048815 -0.018247 0.019028
0.053432 0.064756 0.072571
0.087029 0.023021 0.056785
-0.049452 0.022260 -0.035312
-0.038597 0.007934 0.008294
0.079737 0.036756 0.068779
0.006567 0.037939 -0.006660
0.086577 -0.014467 0.002203
0.001375 0.055584 0.061093
-0.072985 -0.072359 -0.070981
-0.002124 0.004219 0.064597
0.021501 0.000724 -0.028313
-0.018054 -0.077861 -0.084493
0.010704 -0.028159 -0.042430
0.040323 0.025889 -0.018165
-0.087869 -0.049273 -0.037250
-0.092939 -0.045915 -0.074812
0.044098 0.036803 -0.021397
0.012652 -0.043889 -0.049496
0.089604 0.030443 0.018444
0.029119 0.055063 -0.011097
0.020317 0.043998 -0.021945
0.095634 -0.021812 0.024930
0.048355 0.033818 -0.017943
0.079232 0.063496 0.051427
-0.094631 -0.015112 -0.082084
0.006156 -0.053966 -0.063023
0.001738 0.019580 -0.022500
0.054458 0.022450 0.082946
-0.011969 -0.046389 0.011124
-0.016198 0.023062 -0.004059
-0.015700 -0.066623 -0.010088
0.007491 -0.049837 -0.055395
0.089919 0.030438 0.046473
-0.020807 0.036445 0.016471
0.080366 0.066601 0.024381
-0.036398 -0.070238 0.000277
-0.031718 0.016782 -0.002525
0.010651 0.025392 -0.015049
0.061562 0.045282 -0.010318
0.023563 0.055390 -0.009080
0.012330 0.038121 -0.022892
-0.069187 -0.026333 0.013385
-0.002124 0.004219 0.064597
0.053626 0.036898 -0.018870
0.008767 -0.041306 -0.014483
-0.007197 0.042794 -0.016685
-0.021010 0.020368 -0.006201
-0.032583 -0.079018 -0.040752
-0.074671 0.014917 -0.069124
0.024362 0.066330 -0.003540
-0.032853 0.001111 0.014169
0.025276 0.001989 -0.025689
-0.014544 -0.027526 0.039235
0.016403 -0.040826 -0.039962
0.087957 0.050572 0.034858
0.013050 0.070858 0.055363
-0.019748 -0.046274 0.024346
0.015587 0.026299 -0.015378
-0.045947 -0.075361 -0.016141
0.077656 0.000590 -0.006837
0.005950 0.032222 0.068686
0.010577 -0.019923 0.078580
0.091085 0.032219 0.039086
0.055786 0.044813 0.078677
-0.010151 0.015813 -0.054179
0.002554 -0.043205 -0.009402
-0.046240 -0.073740 -0.008716
0.013472 -0.022242 -0.088001
-0.036401 0.012070 0.004433
-0.032123 -0.033157 0.020852
-0.015565 0.042450 -0.007994
-0.017496 0.036953 0.007154
0.005737 0.002899 -0.047207
0.051024 0.006689 -0.019556
0.057535 0.059461 -0.008163
-0.016601 0.037609 0.003674
-0.062803 -0.075338 -0.042791
0.006195 0.032178 -0.009230
-0.022669 0.019972 0.015123
0.091089 0.035075 0.029643
0.012629 0.070999 0.010986
-0.084043 -0.011580 -0.008123
-0.084043 -0.011580 -0.008123
-0.070910 -0.064400 -0.013096
-0.005784 0.021081 -0.019039
-0.012613 -0.050708 0.007666
-0.030508 -0.007298 0.017996
0.043890 0.023519 -0.018443
0.055786 0.044813 0.078677
-0.079887 -0.013732 0.002301
0.081324 0.048385 0.008048
0.001957 0.052615 0.002858
-0.005202 0.060234 0.031245
0.068363 -0.014283 -0.014609
0.056789 0.023346 0.082139
0.086955 0.035078 0.012848
-0.012542 0.026939 0.043405
-0.018827 -0.071239 -0.021823
0.075738 0.063184 0.001879
-0.031805 0.026097 -0.082702
0.050904 0.013511 -0.018870
-0.005823 0.012860 -0.053959
0.002465 0.060456 0.053365
-0.030418 -0.002431 0.016503
-0.079775 -0.038345 0.004075
0.012427 0.037820 -0.023947
0.016264 0.011850 -0.026477
0.009374 0.065200 0.005795
-0.009297 0.019408 0.050951
-0.027822 -0.042093 0.017070
0.058324 0.058554 0.074239
0.011137 -0.000798 -0.040430
0.039879 -0.013574 -0.021787
0.076950 0.023348 -0.004175
0.034803 0.064835 0.073833
0.004734 0.063050 0.054674
0.014348 0.002522 0.079593
-0.000218 0.026618 -0.010595
0.086327 0.041432 0.014860
-0.071554 -0.062608 -0.008718
-0.082001 -0.044430 -0.002534
-0.011534 0.022790 -0.010016
0.091055 -0.003102 0.011545
-0.072752 -0.004912 0.005061
0.053408 0.037927 0.080709
-0.030516 0.023895 -0.051512
-0.011776 0.018942 -0.029875
-0.005795 -0.068976 -0.064936
-0.023106 -0.040450 0.023484
0.068265 0.036853 -0.012125
-0.086388 0.002184 -0.067279
0.007678 0.025754 -0.014057
0.090601 -0.001480 0.055216
-0.056513 0.020208 -0.032947
0.095770 -0.017727 0.039407
0.059991 0.072910 0.064525
0.006421 0.064422 0.008049
0.003921 0.008308 -0.040251
0.007372 -0.002265 -0.088000
0.020267 0.056978 0.073004
0.046064 0.055398 -0.012403
-0.009504 -0.065188 -0.022836
0.089547 0.000263 0.008857
-0.053388 -0.081080 -0.069118
-0.073774 -0.013268 0.008367
0.088224 -0.018461 0.004555
-0.005567 0.039022 -0.014504
0.059593 0.078924 0.021120
-0.089068 -0.043847 -0.031578
0.003439 0.065600 0.048366
-0.011453 0.040325 0.040361
0.047691 0.063408 0.074765
-0.018440 0.009140 0.030438
-0.089468 -0.026413 -0.019550
0.001738 0.019580 -0.022500
-0.021727 -0.008672 0.023944
0.056670 0.067384 0.069275
-0.012064 0.043041 -0.001136
0.058709 0.034881 -0.014951
-0.024451 0.042545 0.016134
0.086297 0.060888 0.018524
-0.096256 -0.027213 -0.088000
-0.031469 -0.018207 0.020426
-0.002401 0.039016 -0.011319
0.075395 0.000376 0.074814
0.002581 0.022644 -0.016539
0.052409 0.072900 0.068000
0.044356 0.062810 0.075492
-0.027818 0.011161 0.012082
-0.021178 0.020173 -0.008756
0.052372 0.077908 0.054574
-0.017673 0.035600 0.012912
-0.048989 -0.036629 0.019195
-0.021019 0.000125 0.024121
0.017031 -0.036926 -0.039962
-0.075728 0.014612 -0.078694
-0.048634 -0.067539 0.003684
0.067226 0.030375 -0.010315
0.001140 0.030464 -0.008014
0.001843 0.025457 -0.014200
-0.002955 -0.050539 -0.003623
0.013569 -0.025771 -0.062728
-0.002027 0.009826 -0.053042
0.002871 -0.046424 -0.016170
0.094105 -0.010557 0.019136
0.065442 0.037757 0.075914
0.034220 0.082038 0.024704
0.080194 0.067375 0.026891
-0.087886 -0.022726 -0.013098
0.005302 0.001088 -0.055930
0.080459 0.064752 0.019696
0.025307 0.035032 0.080529
-0.003871 -0.008108 0.063579
-0.004297 0.026598 -0.008591
-0.015792 0.038446 0.029251
0.028522 0.037060 -0.025943
0.094910 0.004082 0.031190
0.004553 0.039323 0.065447
0.022274 0.045112 -0.011134
0.091469 0.036874 0.048734
-0.002955 -0.050539 -0.003623
0.043188 0.055496 -0.012593
0.020396 0.075521 0.012723
0.022781 0.068052 -0.001167
0.050775 0.030485 0.082576
0.092149 -0.009117 0.013294
0.059077 0.076860 0.013353
0.060767 0.054848 -0.008430
-0.061315 -0.026642 0.016839
-0.076586 -0.020277 0.007961
-0.022863 0.013257 0.018960
0.012566 0.030432 -0.012423
0.076455 0.067379 0.015243
0.021009 -0.046234 -0.020764
0.063091 0.041599 0.076363
0.057393 0.005510 0.084068
-0.085324 -0.035563 -0.004435
-0.075027 -0.065897 -0.033965
-0.014694 -0.046251 0.019974
-0.067614 -0.073858 -0.050299
0.027405 0.027411 -0.018485
0.025549 0.061359 -0.007450
-0.011203 -0.049299 0.007396
-0.080161 -0.009384 -0.000930
-0.039751 0.000933 0.012887
0.001869 0.067199 0.039704
0.053714 0.003768 0.085249
-0.008314 0.053040 0.037109
-0.003881 0.011750 -0.071947
0.057668 0.078422 0.049261
-0.030651 0.013352 0.006154
0.066871 0.074129 0.014703
0.022991 -0.017992 -0.029284
0.090915 -0.027524 0.056690
0.041883 0.056840 -0.012219
-0.084605 -0.059781 -0.059372
-0.069806 -0.003356 0.006488
0.005884 0.056891 0.061146
-0.028037 -0.009640 0.019522
-0.006233 -0.064313 -0.031879
-0.036015 -0.067767 0.003838
-0.040158 0.010044 0.006160
-0.021016 0.024622 0.016076
0.015055 -0.016224 -0.043752
-0.069842 -0.020022 0.012453
0.062263 0.055520 0.073492
-0.080333 -0.066633 -0.082646
0.085720 0.063287 0.046130
0.037078 0.061836 0.075938
0.014582 0.076790 0.033524
-0.022213 0.020587 -0.024001
0.027407 0.045116 0.082243
0.030434 -0.004940 0.086247
0.025846 -0.039556 -0.025976
0.025276 0.001989 -0.025689
0.071969 0.061898 0.063239
-0.031483 -0.081646 -0.070424
-0.061307 -0.070427 -0.012969
-0.029879 -0.077667 -0.035095
-0.032517 0.025065 -0.060073
0.033458 0.032223 0.082591
0.011903 -0.042063 -0.057894
-0.064809 0.020772 -0.065352
0.036916 0.077530 0.008256
0.038244 0.010144 0.086037
0.072523 -0.017917 0.078118
-0.091384 -0.050533 -0.084217
-0.090348 -0.027800 -0.024131
0.079366 0.065655 0.047483
0.090713 0.022234 0.017951
-0.012699 0.022038 -0.011301
-0.012469 0.037605 0.039623
0.085962 0.035040 0.055844
-0.004473 -0.065835 -0.048993
0.024519 -0.038446 -0.027612
0.041255 -0.027526 0.088001
-0.041238 -0.083032 -0.088001
-0.029075 -0.031473 0.021762
0.004095 -0.012410 0.073164
0.027376 0.059258 -0.009115
0.070679 0.055271 -0.001960
0.007665 0.072306 0.039432
-0.076243 0.000915 -0.006509
0.041883 0.056840 -0.012219
0.071682 0.074747 0.032999
-0.083359 -0.031381 0.000680
-0.012813 0.016350 0.045185
0.083079 0.056888 0.015834
0.081042 -0.014088 0.070647
-0.010810 0.051613 0.027783
0.026259 0.072932 0.063221
0.052406 0.061902 0.074635
0.013614 0.056880 -0.003434
-0.034341 0.023601 -0.043558
0.009387 -0.006540 -0.088001
0.079912 -0.027525 -0.006151
0.091779 0.000132 0.013943
-0.063785 -0.031209 0.015830
0.002262 0.027024 -0.011222
0.052301 0.023343 0.083337
0.071608 0.072578 0.047913
0.086942 0.037252 0.051668
-0.010052 0.051417 0.007100
0.041255 -0.027526 0.088001
0.010563 0.061738 0.001572
0.071612 0.010883 0.076497
-0.090210 -0.038621 -0.029893
0.025921 0.055948 -0.017247
-0.013974 -0.043905 0.011352
0.046800 0.045465 0.083785
-0.000920 -0.012413 0.067840
0.021164 0.069507 -0.002929
0.047411 0.080742 0.048257
-0.062409 0.017354 -0.029717
0.005741 0.009972 -0.035509
0.011755 0.061928 0.064414
-0.072791 -0.058614 -0.002530
0.005638 -0.051879 -0.047758
0.011982 -0.046408 -0.048001
0.090903 -0.023961 0.009342
0.037462 0.075173 0.062451
-0.001400 0.008968 -0.068197
-0.019427 0.020080 0.026204
-0.009056 0.036215 0.003202
-0.009180 0.025018 -0.007495
0.012070 -0.035551 -0.058043
0.001322 0.061633 0.049743
-0.072791 -0.058614 -0.002530
0.019507 0.032662 -0.013574
-0.018233 -0.036067 0.029728
-0.012687 0.045153 0.016775
-0.004413 -0.066637 -0.054954
-0.046425 0.025767 -0.063097
-0.030770 0.025450 -0.070414
-0.025366 0.012945 0.014493
-0.017442 0.019870 -0.056320
-0.047195 -0.022065 0.019723
0.087631 -0.007068 0.061552
-0.029729 0.024426 -0.058849
0.038560 0.063196 -0.009302
-0.008292 0.019100 -0.026636
0.013326 -0.022326 -0.063113
0.067460 0.067375 0.003550
-0.022356 0.021141 -0.045578
-0.007208 0.013904 -0.053155
0.073827 0.059578 -0.001976
0.077397 0.060881 0.008565
-0.004254 0.030952 -0.007134
0.086214 0.057212 0.014783
0.055655 0.070153 0.066835
-0.001301 0.064343 0.023974
0.070192 0.041810 0.075934
-0.033595 0.005109 0.011767
-0.011725 0.026974 -0.002534
0.013688 -0.027028 -0.083004
-0.083691 -0.056698 -0.037186
-0.017398 0.023760 -0.000513
0.059860 0.066955 0.068156
0.074856 0.068204 0.052209
-0.006826 0.042497 -0.017651
0.028422 0.066551 0.070982
-0.071352 -0.000565 0.002964
0.062405 0.030374 -0.012862
-0.055290 -0.067878 0.000685
-0.053816 -0.041680 0.017366
0.067800 0.054866 -0.004311
-0.028601 0.019458 -0.013346
0.013522 -0.030414 -0.077806
0.087137 -0.012414 0.062803
0.093499 0.013850 0.025867
0.007341 -0.033555 -0.022981
0.000607 0.058559 0.051566
-0.008690 0.052510 0.017386
0.051155 0.056890 -0.011111
-0.012671 -0.046270 0.013212
0.068286 -0.018273 0.080785
-0.039702 -0.082042 -0.063101
0.007508 0.042492 -0.026502
0.029645 0.036957 -0.025342
0.028449 0.081386 0.027423
-0.059812 0.023422 -0.074785
-0.073684 -0.004294 0.003679
0.092211 0.026384 0.029086
-0.017086 0.021188 -0.009669
-0.026449 0.036921 0.013821
0.007521 0.027594 -0.015050
0.048365 0.048312 0.079679
-0.060669 -0.069571 -0.008176
0.037078 0.061836 0.075938
0.008830 -0.004647 -0.054752
-0.083533 -0.019439 -0.000930
-0.080059 -0.032219 0.005103
0.046468 0.075449 0.061736
0.053272 0.036879 0.084213
-0.066648 -0.056762 0.005842
0.000742 0.059454 0.009437
0.015417 0.009734 -0.028260
-0.078272 -0.068719 -0.088001
-0.008913 0.015088 -0.052103
0.062058 0.078988 0.039141
0.067061 0.013868 -0.012973
0.002148 0.002526 0.069970
0.079606 -0.018238 -0.006286
0.072249 0.062333 0.003374
-0.019870 -0.054542 0.009675
0.027327 -0.039624 -0.023981
0.001676 0.024388 -0.013825
-0.011960 0.044466 0.014061
0.019259 0.036863 0.080761
0.002148 0.002526 0.069970
0.026300 0.075071 0.058886
0.049456 0.066006 0.072675
0.040486 0.075224 0.062594
-0.008174 0.042739 -0.011378
0.016596 0.037830 -0.021480
-0.053678 0.025240 -0.074784
0.000324 -0.063807 -0.079051
-0.022734 -0.029547 0.025115
-0.009012 0.015821 -0.044042
-0.017529 0.043100 0.029077
-0.063219 0.019095 -0.042792
-0.055290 -0.067878 0.000685
0.005052 0.000668 -0.066483
-0.021125 0.037241 -0.001210
-0.025506 0.037336 0.022081
-0.035323 -0.079052 -0.038194
-0.033768 0.003987 0.012359
0.046870 0.069659 0.069865
-0.045938 -0.071362 -0.001768
-0.079034 -0.064106 -0.044852
0.034855 0.016821 0.084978
-0.061182 -0.068064 -0.004432
0.020267 0.056978 0.073004
0.010650 0.002209 -0.038260
0.054670 0.079177 0.016576
0.017507 -0.043112 -0.019494
-0.044751 -0.079660 -0.040908
0.045863 0.060762 0.080121
0.075395 0.000376 0.074814
-0.090447 -0.005327 -0.065353
0.086107 -0.027526 0.064844
-0.079815 -0.052013 -0.006503
0.050057 0.047166 0.082966
-0.033147 -0.014978 0.019455
0.020531 -0.037556 -0.032873
-0.056717 -0.033535 0.018018
0.012903 -0.014681 -0.052199
0.000709 0.007331 -0.079394
-0.089259 -0.031169 -0.018894
0.002441 0.044570 -0.001448
0.025661 0.021571 -0.018940
0.091539 0.026977 0.024365
0.026252 -0.009412 -0.026185
-0.004686 0.045859 0.049834
0.063059 0.062176 -0.008215
-0.033614 -0.070038 -0.000081
-0.070910 -0.064400 -0.013096
0.026932 -0.002338 -0.025293
-0.012064 0.043041 -0.001136
0.062940 0.071922 0.005926
0.044017 0.032897 -0.018584
-0.076145 -0.042161 0.006569
-0.051161 -0.075887 -0.022862
0.011004 0.066437 0.059444
0.032899 0.055080 0.077962
-0.096256 -0.027213 -0.088000
0.091892 0.045588 0.026480
-0.013575 0.026367 -0.005686
-0.014794 0.044537 0.010031
0.022274 0.045112 -0.011134
0.086978 0.043277 0.017642
0.008480 0.071159 0.018153
-0.002219 0.011698 -0.043823
-0.012173 -0.027526 0.013317
0.033458 0.032223 0.082591
-0.076289 -0.045004 0.005213
0.070544 0.068921 0.057277
0.006614 0.068882 0.015471
0.002057 0.059617 0.007971
0.031187 0.055021 -0.011625
0.036705 0.082794 0.036036
-0.060479 -0.018381 0.016324
-0.053820 -0.009364 0.015930
-0.022401 -0.067521 -0.002119
0.011501 0.075099 0.034924
-0.027253 0.006371 0.015368
-0.065741 0.013416 -0.019015
-0.078382 -0.063687 -0.039054
-0.064781 -0.077305 -0.072897
-0.080059 -0.032219 0.005103
-0.079583 0.005955 -0.037165
0.005198 -0.047120 -0.030556
0.077192 0.045436 0.001472
0.007659 0.045250 -0.004405
0.051155 0.056890 -0.011111
0.040194 0.064729 0.074398
-0.051493 -0.066260 0.004464
0.035507 0.067664 -0.008835
0.009668 -0.037149 -0.040690
-0.005561 0.059403 0.024004
0.037268 0.042216 -0.021791
0.083915 0.045267 0.054654
0.009024 0.062298 0.003293
-0.027315 -0.019952 0.021950
0.046674 -0.014279 0.087516
0.013840 0.042965 -0.022167
0.047322 0.003606 -0.020384
-0.035781 -0.069512 0.001345
-0.014720 -0.046409 0.019387
0.045720 0.068608 0.071063
-0.001008 0.063882 0.020811
0.046493 0.057295 0.081184
0.050438 0.035009 0.082300
-0.045827 -0.005485 0.015740
0.036705 0.082794 0.036036
-0.047085 -0.059761 0.010899
-0.007184 0.037424 -0.019341
0.095634 -0.021812 0.024930
-0.009165 0.049250 0.039157
-0.016468 -0.038386 0.029183
0.028421 0.073224 0.002735
0.012385 -0.016539 -0.078968
-0.063365 0.018221 -0.037416
-0.027030 -0.066654 0.002370
-0.007583 0.029909 -0.003056
-0.075214 0.014030 -0.063470
-0.094328 -0.038329 -0.063648
0.025307 0.035032 0.080529
0.009293 0.038395 -0.021289
0.059086 0.070121 0.065215
-0.034007 0.026307 -0.077746
0.012661 -0.036994 -0.073494
0.006532 0.061288 0.004715
0.012822 -0.033298 -0.067327
0.003926 0.066560 0.015211
-0.027169 -0.074843 -0.022922
