-0.052106 -0.033951 -0.115237
0.043742 -0.064714 -0.108875
-0.000130 0.048562 -0.093381
-0.040277 0.064141 0.081580
0.020209 0.015669 -0.041889
-0.015939 0.046446 -0.095102
0.024221 0.001790 -0.052868
-0.045005 -0.055049 -0.095769
-0.046127 0.058275 0.094795
-0.018302 0.081587 0.070175
0.022004 0.033316 0.058625
-0.032577 0.011144 -0.128933
0.007986 0.017225 -0.148529
0.027950 0.067318 0.051130
0.032901 0.046485 0.058458
0.032952 0.061852 0.135590
0.031758 0.036628 -0.034377
-0.042155 -0.072457 -0.127241
-0.011525 0.056173 0.149286
-0.026821 -0.041700 -0.072063
0.012024 0.037175 0.051766
0.035809 0.078282 0.115022
0.039097 0.016017 -0.090840
0.029559 -0.082096 -0.117800
0.047330 0.054811 0.099202
0.033317 -0.081337 -0.132893
0.016990 0.061359 -0.025050
-0.045861 0.057226 0.114255
-0.004069 0.065265 -0.017565
0.013853 0.085376 0.130854
0.026500 -0.030535 -0.067899
0.017025 0.076287 0.140743
0.032212 0.055608 0.054215
-0.028458 0.079019 0.076868
0.022399 0.017549 -0.128936
-0.016241 0.068486 0.147680
0.043971 0.061361 0.089247
-0.024910 0.036859 0.058004
0.051246 -0.057398 -0.140466
0.045113 -0.021670 0.087195
0.024996 -0.077787 -0.099747
-0.025986 0.069418 0.137876
-0.037121 0.074200 0.119615
-0.011241 0.062002 -0.028188
-0.046527 -0.057631 -0.106034
-0.026203 0.067204 0.042800
-0.030591 0.049518 0.043365
-0.030423 0.065806 0.136191
-0.024232 -0.086858 -0.155599
0.020767 0.043866 -0.088769
-0.013165 0.088938 0.124309
0.021653 0.055297 -0.058610
-0.034582 0.081627 0.100184
-0.042558 -0.014384 -0.077024
0.024674 -0.038199 -0.069666
-0.016394 -0.019531 -0.060248
-0.008489 0.067166 -0.001729
-0.040243 0.011803 -0.096713
-0.039385 -0.073856 -0.118004
0.030883 0.042376 -0.038713
-0.008829 0.017061 -0.148829
0.049494 -0.061499 -0.155599
0.020346 0.052960 0.146564
0.023976 0.057450 -0.027031
0.019540 0.058077 -0.037647
-0.033437 -0.035459 -0.073683
0.007025 0.091721 0.099227
-0.014972 0.047628 -0.086350
-0.028343 0.071395 0.134611
0.042294 -0.000060 -0.132675
0.015764 0.046737 -0.088098
-0.032432 0.080836 0.089069
0.048705 -0.053013 -0.108750
0.022461 -0.038056 -0.068732
0.046215 -0.067481 -0.141511
-0.007206 0.066247 -0.010392
-0.039924 0.072040 0.115767
0.005182 0.051977 0.150908
0.022341 -0.087794 -0.144139
-0.042910 0.055375 0.082878
-0.037684 0.025570 0.073814
0.043124 -0.060968 -0.098727
0.003292 0.092376 0.105474
-0.020675 0.074982 0.054240
-0.028900 0.084829 0.094296
0.036199 0.057275 0.067856
0.030587 0.031489 -0.034274
-0.013589 0.066132 -0.003571
-0.053084 -0.023137 -0.147126
-0.039648 0.032621 0.075983
0.037402 -0.077953 -0.144346
-0.006769 0.069016 0.005234
-0.023307 -0.080140 -0.102126
-0.049392 -0.012743 -0.129503
0.043465 0.035022 0.083238
-0.012221 -0.043674 -0.069034
0.051185 -0.020187 -0.119807
0.039743 -0.073184 -0.116967
0.031776 0.019023 -0.111491
-0.000910 0.070566 0.011381
-0.036528 0.078441 0.117992
-0.028194 0.054819 0.146298
-0.015449 0.062177 -0.026509
-0.017789 -0.089314 -0.136563
0.027108 -0.037902 -0.070688
-0.001777 0.075707 0.145252
-0.018533 -0.063840 -0.081782
0.041121 -0.074020 -0.155599
0.031185 0.041164 -0.042914
-0.029124 -0.055671 -0.080910
0.019007 0.045803 -0.095091
-0.037232 0.074512 0.087731
0.016152 0.040481 0.150997
0.035469 0.061511 0.067653
0.029302 -0.015691 -0.064022
-0.028742 0.078936 0.074572
-0.037867 -0.059762 -0.090817
0.029826 0.081260 0.082153
-0.020986 0.025903 0.060175
0.031346 0.085421 0.110152
-0.027801 0.044438 0.049884
0.018897 -0.066822 -0.084288
0.011320 0.054074 -0.071553
-0.027675 0.084448 0.119075
-0.015973 -0.090107 -0.147297
0.039691 0.014639 -0.089059
-0.039973 0.072577 0.080110
-0.019776 0.068675 0.146065
-0.004131 0.068004 0.000658
-0.044772 -0.004148 -0.135898
-0.014274 0.068452 0.010052
-0.029361 -0.083912 -0.131631
0.031962 -0.014571 -0.065451
0.051925 -0.053192 -0.129379
-0.040861 0.008501 -0.106038
-0.019307 0.032350 -0.104718
0.000501 0.086192 0.133095
0.051238 -0.057520 -0.150751
-0.042083 0.069831 0.112029
-0.027815 0.072184 0.051247
-0.011241 0.062002 -0.028188
-0.015375 -0.049475 -0.072044
-0.016324 -0.061866 -0.079651
0.019639 0.022539 -0.033553
0.009107 0.057242 0.149658
0.027672 0.016105 -0.045451
0.031913 -0.082386 -0.144693
0.025143 0.033732 0.060118
0.029712 0.059241 0.039669
0.032831 0.008138 -0.139884
-0.027685 -0.073251 -0.095747
0.016513 -0.014081 -0.058173
0.033931 0.080477 0.114854
0.036879 0.066062 0.135861
-0.042155 -0.072457 -0.127241
0.052364 -0.020594 -0.151279
-0.029836 0.037375 -0.083282
-0.015968 0.017043 -0.138624
0.000370 -0.091097 -0.127442
0.028459 0.045565 0.041938
0.049590 -0.021182 -0.104924
0.014587 0.038755 0.049871
0.025896 0.052293 -0.041305
0.026237 0.023251 -0.037166
0.019284 0.026424 -0.025662
0.049956 0.066634 0.098284
0.035338 0.057332 0.061340
0.040418 -0.000787 -0.070665
-0.035324 0.025395 0.070923
-0.009417 -0.080120 -0.095019
0.016083 0.015150 -0.153004
-0.027028 0.011408 -0.143071
0.039556 0.002570 -0.136503
-0.047589 0.050315 0.108601
0.030820 -0.077235 -0.104425
-0.018653 -0.077820 -0.095664
-0.053343 -0.025822 -0.135881
0.005466 0.042585 -0.097379
-0.032265 0.049543 0.054074
-0.049547 0.049210 0.105476
-0.016099 0.075474 0.049959
-0.026961 0.018040 -0.121527
-0.008492 -0.033858 -0.064864
-0.011444 0.069314 0.009906
0.049401 0.043693 0.104641
0.005385 0.066023 0.147732
0.023728 -0.087092 -0.137299
-0.014959 0.078315 0.139695
-0.000530 0.052000 -0.082983
0.024975 0.056526 -0.047399
-0.040181 0.062530 0.135740
-0.015432 0.063721 0.151279
0.015866 0.077717 0.057166
-0.018939 0.079670 0.065651
-0.027099 0.051586 -0.035606
-0.039576 0.075166 0.108300
0.012583 -0.049145 -0.071474
0.048990 -0.011911 -0.138528
-0.018036 0.080909 0.133861
-0.022492 0.035655 0.057480
0.019295 0.073460 0.046498
0.028229 0.084585 0.091802
-0.024059 0.059585 -0.031525
0.039323 0.075248 0.109831
-0.033895 0.007124 -0.140713
0.029360 0.046972 0.046085
0.026000 0.043286 0.046131
0.035258 -0.069192 -0.097642
-0.009815 0.074774 0.041995
-0.013734 0.063454 -0.018513
0.047734 0.052135 0.101218
0.044855 0.063680 0.095775
0.029548 0.048164 -0.026193
-0.019375 -0.087079 -0.118799
0.049949 -0.048238 -0.109263
0.044999 -0.053979 -0.094682
-0.036302 0.024867 -0.064695
0.052763 -0.049722 -0.129882
0.013142 0.086435 0.079828
0.020242 0.073668 0.138898
0.035557 0.004893 -0.146867
0.011708 0.030045 0.056108
0.031982 0.059301 0.047851
-0.035076 0.024420 -0.053361
0.038508 0.001834 -0.152515
-0.025985 0.064344 0.140465
-0.044421 -0.017690 -0.081182
-0.002841 -0.044163 -0.068730
-0.006365 -0.021670 0.150899
-0.022431 -0.040025 -0.069486
0.043596 0.001988 -0.094346
-0.052813 -0.052814 -0.148425
-0.043860 -0.058359 -0.096918
-0.024049 0.012545 -0.146068
-0.010069 0.063041 -0.025999
0.031708 0.059376 0.045818
0.011945 -0.084692 -0.103257
0.032486 0.036759 -0.061621
0.011628 0.027833 -0.114867
0.047235 -0.021670 0.095249
0.033557 -0.073788 -0.101834
0.019849 -0.010374 -0.057372
-0.007459 0.082294 0.065563
0.007642 -0.090844 -0.129016
0.043240 0.074854 0.100302
-0.033895 0.007124 -0.140713
0.009297 0.051193 -0.084221
-0.033492 -0.059925 -0.087030
-0.020687 0.086159 0.085449
0.047868 0.048662 0.101228
-0.017618 -0.050102 -0.072849
0.004327 0.027777 -0.116620
0.044603 -0.062754 -0.107924
0.034515 0.071797 0.065980
0.039323 0.075248 0.109831
-0.027073 0.057929 -0.035270
-0.031825 0.051451 0.050668
0.031224 0.051961 0.143708
-0.013506 0.031005 -0.109344
-0.040308 0.008215 -0.111183
-0.032643 0.053372 0.055297
0.053471 -0.028701 -0.131082
-0.040642 0.060054 0.126036
0.048774 -0.025615 -0.098223
0.008866 0.075842 0.141826
-0.024127 0.053353 -0.047277
0.011628 0.027833 -0.114867
-0.016648 0.087795 0.086903
0.049118 -0.060192 -0.125100
-0.002718 -0.047571 -0.070208
-0.002988 0.067385 -0.006051
0.010837 0.090737 0.095070
0.018337 0.014810 -0.147148
-0.027035 0.079453 0.130285
-0.012383 0.016786 -0.039320
-0.035374 -0.079756 -0.134561
-0.017789 -0.089314 -0.136563
0.020839 0.082618 0.129996
-0.047413 0.052320 0.109142
-0.015453 0.067820 0.005057
-0.052753 -0.053015 -0.155599
0.002080 -0.085544 -0.102330
-0.000143 -0.003231 -0.052505
0.012635 0.048729 -0.084574
0.000911 0.091465 0.119683
-0.054054 -0.047533 -0.148791
0.022038 0.067549 0.145857
-0.034127 0.078045 0.119706
-0.016466 -0.033495 -0.065423
0.033111 0.049417 0.057104
-0.017220 0.055296 -0.055884
-0.033084 0.061072 0.060960
0.015739 -0.058096 -0.076990
-0.024092 0.057395 -0.026632
-0.030078 0.048335 0.044630
0.027863 0.009991 -0.152388
-0.028699 0.019413 -0.115994
0.033345 0.034330 -0.055369
-0.010069 0.066621 -0.003733
0.038066 0.076517 0.095035
-0.051739 -0.055739 -0.138067
0.030468 0.085178 0.103653
-0.019947 0.015638 -0.138816
0.023335 -0.087297 -0.150898
0.024116 0.052703 0.144608
0.027128 -0.071855 -0.093662
0.047977 -0.060874 -0.119637
0.009478 0.024378 -0.121939
0.037355 0.059026 0.071121
-0.030425 -0.079939 -0.111559
-0.018518 0.073824 0.046687
-0.022353 -0.072675 -0.091529
-0.041072 -0.068760 -0.108994
-0.001320 0.092462 0.108464
-0.045423 -0.040342 -0.155599
-0.012504 0.067592 0.003672
-0.002664 -0.033963 -0.064670
0.017423 0.075195 0.139286
0.031986 0.051565 0.051512
-0.009809 0.075784 0.046183
-0.002989 0.068092 0.000643
-0.041170 0.005510 -0.076835
-0.024069 0.072129 0.140765
-0.018022 0.044559 -0.090541
0.035929 0.007215 -0.132337
-0.022353 -0.072675 -0.091529
-0.046947 0.051181 0.094231
0.033932 0.064305 0.065765
-0.004628 0.085981 0.133022
0.002382 0.085504 0.073429
0.019351 0.085898 0.083174
-0.030187 0.060885 0.138535
0.000147 -0.053202 -0.072851
0.008363 -0.080948 -0.095899
0.054437 -0.041713 -0.138105
0.028981 0.085893 0.100802
-0.029868 0.038405 -0.079836
-0.039123 0.049835 0.131019
0.033080 0.032520 0.066798
0.040906 -0.069269 -0.109653
-0.002733 0.091632 0.118467
-0.004471 0.092363 0.108381
0.037988 0.077186 0.109516
-0.020714 0.076994 0.060252
0.012445 -0.089950 -0.127141
-0.037547 0.065134 0.128150
-0.018177 0.028292 -0.018173
-0.032685 -0.023340 -0.069241
-0.044707 -0.000721 -0.100606
0.027437 0.032129 -0.023898
-0.023033 -0.058098 -0.079430
0.034448 -0.080554 -0.137564
0.034869 0.080745 0.096426
0.044012 -0.003922 -0.143861
0.051837 -0.022121 -0.123598
-0.008489 0.065736 -0.009844
-0.015334 0.016242 -0.143677
-0.015289 0.020346 -0.128381
0.002696 0.081455 0.062182
-0.020904 -0.074556 -0.092847
-0.009775 -0.088931 -0.115783
-0.013093 0.036629 0.052783
0.038022 0.012986 -0.063516
-0.044663 0.057919 0.118004
-0.033937 -0.062992 -0.090020
-0.023836 0.085994 0.121478
-0.027796 0.083306 0.086776
-0.029132 0.018760 -0.044703
0.033018 0.078941 0.085839
0.023569 -0.065371 -0.085154
0.053343 -0.043357 -0.126982
-0.017554 0.088898 0.120737
-0.019931 0.027822 -0.022105
0.003294 0.038757 -0.101596
-0.042471 -0.002511 -0.152418
-0.001521 0.027212 -0.017774
0.038441 -0.017913 -0.072468
-0.035005 0.078422 0.089839
0.032050 -0.048070 -0.078124
-0.027603 0.068802 0.053420
-0.031591 0.078389 0.081578
0.032211 0.034128 -0.082237
0.025214 0.058193 -0.037643
-0.002656 0.010106 -0.044600
0.028480 0.013847 -0.129874
0.034203 -0.021670 0.069819
-0.029672 0.062396 0.048862
0.028876 0.045764 -0.049869
-0.038344 0.077187 0.106435
-0.022608 0.075078 0.057844
-0.001051 -0.088128 -0.107772
-0.018525 0.014325 -0.153378
0.047223 -0.021670 0.111625
-0.021298 -0.083767 -0.107555
-0.041846 -0.066131 -0.105282
0.019849 -0.010374 -0.057372
0.035394 -0.056735 -0.086103
0.000949 -0.087212 -0.105641
-0.032707 0.083275 0.108224
-0.010739 0.034446 0.053930
0.018930 0.054716 -0.055672
-0.006129 0.069220 0.008733
0.030731 0.036650 0.062720
0.002496 0.025216 -0.024952
0.031012 0.040882 -0.021232
0.016103 0.087826 0.086524
-0.010004 0.024409 -0.121692
0.004727 0.027280 -0.017717
-0.004744 -0.092237 -0.149491
-0.021583 0.054448 -0.050763
-0.018177 0.028292 -0.018173
0.050337 -0.022016 -0.109152
-0.037420 0.002839 -0.153228
0.034768 0.026380 0.070154
-0.036972 -0.076656 -0.119272
-0.026141 0.011024 -0.150791
-0.018720 0.042883 -0.092339
0.037988 0.077167 0.097198
-0.006769 0.067902 0.001447
-0.034897 0.082511 0.100346
-0.022985 0.056036 0.144774
-0.000148 0.069539 0.009781
-0.013393 0.068158 0.005000
0.024013 -0.022315 -0.063741
-0.040903 -0.003765 -0.072161
0.051925 -0.053192 -0.129379
0.024482 0.011916 -0.150425
0.053801 -0.042865 -0.130891
-0.014274 0.068903 0.009974
-0.029739 0.047165 -0.028793
0.045517 -0.002687 -0.116569
0.044072 -0.070367 -0.131372
-0.028308 0.004343 -0.053688
0.029317 0.049860 0.141294
-0.011468 0.067284 0.001088
0.022345 0.077699 0.134264
0.000712 0.078634 0.140747
0.046183 0.059383 0.110313
-0.030829 0.038688 -0.081326
0.054571 -0.030654 -0.149499
0.027169 0.031093 0.144343
-0.009852 0.090603 0.093621
0.025388 0.039013 0.056310
-0.005164 0.046744 -0.091378
-0.027060 0.087185 0.105436
-0.002990 0.068537 0.000566
0.006825 0.072169 0.147466
0.000009 0.028326 0.151309
0.036294 -0.076148 -0.114808
-0.053420 -0.048049 -0.134213
-0.031407 0.073944 0.132851
-0.023711 0.057803 -0.026219
-0.023195 0.087859 0.095886
-0.029358 0.066039 0.053936
-0.011398 0.091019 0.097449
-0.014172 -0.090626 -0.155599
0.042657 0.059810 0.084326
-0.032120 -0.021670 0.067840
-0.004595 0.051797 -0.083262
-0.021699 0.086687 0.088543
-0.015697 0.057738 -0.051019
-0.045423 -0.040342 -0.155599
-0.003113 0.035435 0.051455
0.029760 0.085571 0.102558
-0.008245 0.018341 -0.037151
-0.022147 0.014478 -0.139941
-0.014583 -0.090444 -0.143059
0.025898 0.053871 -0.033413
0.019817 0.017393 -0.132587
-0.008171 0.086348 0.077175
0.016275 0.055887 -0.054382
-0.030229 0.074628 0.071913
-0.008486 0.064055 -0.021712
0.013680 0.090186 0.094501
0.047311 0.049906 0.110910
0.035964 0.046416 0.065982
-0.053343 -0.025822 -0.135881
0.003533 0.090734 0.122650
-0.039017 -0.076417 -0.133721
-0.004549 0.026814 -0.019890
0.047511 -0.065227 -0.151153
0.020074 0.017476 -0.040073
-0.045834 0.054559 0.115974
-0.023219 0.052804 -0.053847
0.014145 -0.033751 -0.065272
0.031599 0.079827 0.124251
-0.038049 -0.061383 -0.092437
-0.024232 -0.086858 -0.155599
0.006793 -0.088328 -0.109914
-0.000688 0.074835 0.039069
-0.037145 -0.077163 -0.122563
-0.029933 0.052904 -0.031563
0.002918 0.092323 0.112004
-0.012504 0.067592 0.003672
0.023654 0.049201 -0.081391
0.012504 0.054028 -0.065634
-0.008485 -0.010107 -0.055842
-0.010906 0.053691 -0.068079
-0.025143 0.059410 -0.008340
0.007855 0.089111 0.126456
0.017476 0.036319 -0.100960
0.014566 -0.076273 -0.091886
0.007829 0.083825 0.136354
-0.024675 0.074353 0.060011
-0.005157 0.092052 0.101340
0.005845 -0.002941 -0.052490
-0.024199 0.074676 0.054621
-0.032611 0.021833 -0.047648
0.030616 0.042524 -0.046363
-0.001504 0.061942 -0.032501
-0.002988 0.067809 -0.000991
0.050006 -0.014394 -0.147063
-0.012133 0.054370 -0.069855
-0.026328 0.080465 0.127678
-0.031858 -0.082394 -0.145436
-0.008832 0.055055 -0.063825
-0.008484 0.026972 -0.019931
0.009107 0.057242 0.149658
-0.043700 0.000285 -0.090412
-0.007371 0.027639 -0.116359
-0.002841 -0.044163 -0.068730
0.016736 0.084165 0.075800
-0.021570 0.040445 0.044421
0.024539 0.030880 -0.019191
-0.044878 0.061111 0.114575
0.024781 0.063827 0.147196
-0.018863 0.015659 -0.140623
-0.034923 0.033153 0.137925
-0.016523 0.089505 0.094018
0.047855 -0.021670 0.100672
-0.007157 -0.057947 -0.075607
-0.015448 0.068961 0.011391
-0.014349 0.081912 0.067911
-0.001151 0.024741 -0.026123
0.029923 -0.010548 -0.062292
-0.042327 -0.071488 -0.122854
-0.000326 0.086923 0.132041
0.043039 0.069399 0.106933
-0.001376 0.085797 0.133583
-0.011046 0.062676 -0.024852
-0.006769 0.069609 0.008665
0.029963 0.069376 0.041814
-0.024127 0.053353 -0.047277
0.014587 0.038755 0.049871
-0.043549 0.062902 0.089468
-0.047879 0.049603 0.104112
-0.013407 0.066958 0.000898
0.040837 -0.000579 -0.152041
0.000632 0.037468 0.047842
0.015273 0.049859 0.148799
0.031701 0.038497 -0.036805
0.013116 0.054497 -0.063239
0.042429 0.075390 0.107075
-0.029886 0.083610 0.091923
0.017032 0.026775 -0.023255
0.016502 -0.089952 -0.146114
-0.006365 -0.021670 0.150899
0.047143 0.069593 0.093733
0.046989 -0.009439 -0.100633
0.014496 0.027789 -0.113785
0.014107 -0.090329 -0.136675
-0.014136 0.085547 0.130463
-0.028118 0.023354 -0.109518
-0.024999 0.031337 -0.018687
-0.013493 0.054089 -0.064630
-0.044772 -0.004148 -0.135898
-0.047499 -0.008946 -0.106944
0.045337 -0.065952 -0.119076
-0.032925 0.073257 0.127978
-0.025406 -0.086293 -0.148453
-0.032001 0.033147 -0.085871
0.043900 0.067446 0.107278
0.029177 0.031548 0.142928
0.004579 -0.085022 -0.101663
0.047739 -0.018599 -0.096089
0.015242 0.046377 -0.095593
0.034203 -0.021670 0.069819
-0.051116 -0.020415 -0.118568
0.014095 0.016022 -0.040315
0.020370 0.072870 0.046212
0.035661 -0.079378 -0.151241
-0.043688 -0.066942 -0.114240
-0.032823 0.004661 -0.057464
-0.051039 -0.017697 -0.128639
-0.003277 0.091063 0.093283
0.023145 -0.087416 -0.147335
-0.005832 -0.091945 -0.142604
0.021813 0.053743 -0.053547
0.046544 -0.048732 -0.093694
-0.026849 0.067388 0.046679
-0.024465 0.030802 -0.102711
0.012755 0.047547 -0.093699
0.028387 0.078094 0.074722
0.002482 -0.033743 -0.064594
-0.014812 0.024103 0.057826
-0.038049 -0.061383 -0.092437
-0.007820 0.022313 -0.127152
-0.047023 0.069739 0.093871
0.016609 0.054700 -0.059448
-0.013507 0.046012 -0.090856
-0.044942 -0.069364 -0.139579
-0.031498 0.037525 -0.031679
-0.001671 0.080971 0.140376
0.028869 0.071672 0.051371
-0.018806 0.028057 -0.019961
0.046751 -0.005824 -0.109390
-0.013311 0.045755 -0.097786
-0.032090 0.053278 0.052570
0.043380 -0.071511 -0.137560
-0.046004 0.071749 0.103064
-0.016448 -0.089651 -0.135308
0.030152 0.008794 -0.148572
0.045546 -0.003752 -0.124001
-0.005403 0.091302 0.119524
-0.013306 0.021388 -0.127011
0.033080 0.032520 0.066798
-0.040780 0.058373 0.078920
0.030365 0.036586 -0.024682
-0.022477 -0.087701 -0.148480
0.009397 0.088625 0.084935
-0.018975 0.048709 -0.079596
0.002124 -0.088034 -0.107610
0.021778 -0.088010 -0.141078
0.006158 0.056336 0.150286
-0.011066 0.069612 0.011283
0.034009 0.014230 -0.054370
-0.000252 0.078279 0.143052
0.009099 -0.082489 -0.098398
0.007542 0.018181 -0.141669
0.028232 0.061288 0.147021
0.026641 0.053377 -0.030320
-0.012306 0.066875 -0.003191
0.031734 -0.037067 -0.073029
-0.028663 -0.078953 -0.105075
-0.011191 0.067560 0.002434
-0.045421 -0.034604 -0.155599
-0.050303 0.065538 0.108704
-0.031903 -0.082323 -0.148690
0.023201 0.013216 -0.144208
-0.034739 0.080991 0.097007
0.036816 -0.078487 -0.132916
-0.042463 0.072851 0.116661
-0.024727 0.086471 0.092353
-0.048971 0.066838 0.110923
-0.025973 0.016907 -0.043496
-0.023838 0.075066 0.060092
-0.032233 0.014623 -0.120240
0.017604 -0.055905 -0.076123
0.003141 0.062993 -0.027583
-0.047123 0.055077 0.109080
0.027262 -0.021670 0.063992
0.014411 0.069225 0.144205
0.024295 -0.086753 -0.134879
0.031814 0.027869 0.066896
-0.021723 0.047651 -0.078410
-0.027784 0.081888 0.123834
0.008865 0.079006 0.139377
0.051077 -0.050607 -0.118554
-0.017573 0.090447 0.103177
-0.037585 0.050126 0.133072
0.027609 0.051622 -0.031086
0.042820 0.051944 0.081890
0.040725 0.073883 0.103868
-0.029305 0.069297 0.059912
-0.039528 0.034868 0.132571
0.035801 -0.078714 -0.124703
0.038346 -0.077141 -0.136762
0.031870 0.038830 -0.047530
-0.023783 0.070778 0.046620
0.029475 0.047207 0.042435
0.025225 0.077848 0.068893
-0.043351 -0.020402 -0.079482
0.034952 0.027306 -0.055405
0.030772 0.037675 -0.077638
-0.035182 0.067385 0.136262
0.034601 0.028813 -0.084639
-0.040861 0.008501 -0.106038
0.004542 -0.092236 -0.148628
-0.035223 0.029455 -0.068901
-0.009881 0.041604 -0.097780
-0.054311 -0.043288 -0.138342
0.003283 -0.089480 -0.115230
-0.019724 0.035771 0.056061
0.014254 -0.055355 -0.075024
0.028593 0.062284 0.040211
0.032275 0.050034 0.053667
-0.043187 -0.055276 -0.093202
-0.017927 0.017631 -0.039308
-0.053982 -0.047266 -0.142543
0.053566 -0.048918 -0.138823
0.014411 0.069225 0.144205
0.028950 0.034973 0.062096
-0.041853 0.071534 0.098994
-0.014729 0.028299 -0.112867
-0.034541 0.002675 -0.060392
0.047759 -0.044833 -0.095597
-0.042019 0.075375 0.109735
-0.015447 0.067655 0.006772
0.054452 -0.045346 -0.155599
-0.035548 -0.064240 -0.092660
-0.040597 -0.074691 -0.145933
0.045763 -0.051379 -0.093982
0.025150 -0.081377 -0.106024
0.018606 -0.084986 -0.107988
-0.038476 0.075574 0.084656
-0.019733 0.079386 0.136104
-0.044015 0.054026 0.085226
0.009484 0.088608 0.127062
0.026925 -0.063624 -0.085534
-0.039623 0.075047 0.118712
-0.038746 0.005264 -0.128539
-0.004695 -0.087916 -0.107702
-0.048950 -0.036566 -0.098104
-0.018156 -0.074635 -0.091533
0.030856 0.038695 -0.081280
0.003802 0.088828 0.083909
0.009905 0.091719 0.102175
-0.011616 0.067236 0.000936
0.020581 0.039965 0.050390
-0.048404 0.067292 0.090868
-0.042910 0.055375 0.082878
0.036009 0.076551 0.088367
0.047262 -0.042947 -0.092274
0.003346 0.090812 0.091972
-0.028420 0.031421 -0.028357
-0.038126 0.012267 -0.063814
-0.019776 0.068675 0.146065
0.045151 -0.038142 -0.086467
-0.005164 0.046744 -0.091378
-0.032335 0.020807 -0.106864
-0.015400 0.086029 0.080135
0.026807 -0.021670 0.143133
-0.029883 0.054429 0.140395
-0.008486 0.067996 0.000385
-0.012570 0.066868 -0.000347
0.041788 -0.069576 -0.113687
0.030707 0.082068 0.088655
0.026925 -0.063624 -0.085534
0.045159 0.063942 0.098681
0.045729 -0.063058 -0.113437
-0.034900 0.029736 -0.061944
-0.033842 0.061313 0.063278
-0.019775 0.075215 0.049498
-0.028607 -0.050555 -0.077451
0.039225 0.061017 0.076526
0.045601 0.067068 0.121221
0.052112 -0.040173 -0.116089
-0.001157 0.091059 0.121655
0.028362 0.068660 0.031608
-0.013393 0.052009 -0.073344
-0.003241 -0.073333 -0.086497
-0.001663 0.036547 0.049851
-0.054177 -0.045508 -0.140580
-0.016644 0.024637 -0.028592
0.030186 0.048563 0.043773
-0.053993 -0.029097 -0.138318
0.020456 0.087734 0.090903
-0.051312 -0.047797 -0.116721
0.014812 -0.087449 -0.113157
-0.040538 -0.023662 -0.076517
-0.027191 0.044338 0.044399
0.043539 0.063088 0.130760
0.038750 0.075450 0.112109
0.022923 0.088969 0.106793
-0.020832 0.089232 0.099659
-0.023359 0.085145 0.085546
0.033013 0.084224 0.101112
0.019103 -0.079632 -0.098470
-0.014950 0.087074 0.127539
-0.012737 0.063235 -0.020614
0.047832 0.051231 0.104371
-0.032274 0.038841 0.063060
0.029576 0.010920 -0.137745
0.024864 0.015731 -0.130627
0.010733 0.045911 -0.092010
-0.018405 0.039731 0.048495
0.054437 -0.041713 -0.138105
0.024902 0.036567 0.058235
0.002986 -0.076320 -0.089458
-0.039342 -0.054775 -0.088358
0.054420 -0.033532 -0.137797
-0.039214 0.076122 0.102057
0.011524 0.048760 -0.090935
0.033429 0.055111 0.059047
-0.042086 0.035976 0.080298
0.049046 -0.017275 -0.104991
-0.010992 0.074146 0.142439
-0.002990 0.068840 0.002316
0.031482 0.039296 -0.034258
-0.020904 0.088864 0.116069
-0.040876 -0.049959 -0.086734
-0.026813 0.016471 -0.125503
0.039593 0.071213 0.118173
-0.033783 0.069815 0.057001
-0.018450 0.090338 0.105927
-0.008483 0.016589 -0.039135
-0.027187 0.027217 -0.104654
0.024553 0.036756 -0.095038
0.029184 -0.083948 -0.130017
0.016407 0.034612 -0.105123
0.031616 0.044563 0.057653
-0.036335 0.012074 -0.116142
-0.026237 0.038220 -0.090625
-0.008613 -0.064278 -0.079762
0.046544 -0.048732 -0.093694
-0.030473 0.071379 0.132541
0.045167 -0.068862 -0.132285
-0.008489 0.069438 0.011314
-0.042788 0.069067 0.110199
0.035661 -0.079378 -0.151241
-0.014143 0.067354 0.001203
0.002375 0.088317 0.132047
-0.013589 0.066132 -0.003571
0.023420 -0.069726 -0.089061
-0.015848 0.090653 0.113577
0.037154 0.033855 0.071589
0.051361 -0.046763 -0.115854
0.047907 0.049232 0.103134
-0.048109 -0.009341 -0.122764
0.016103 0.087826 0.086524
0.025357 0.072882 0.057820
-0.010765 0.076138 0.143248
0.012065 -0.091083 -0.144982
0.024007 0.076329 0.059932
0.018035 -0.088006 -0.122162
-0.029050 -0.084241 -0.147092
0.005826 0.000442 -0.050773
-0.012321 -0.090879 -0.140104
0.026552 0.037564 0.058594
0.020409 0.034664 -0.101194
-0.017150 0.026234 -0.024929
-0.016756 0.079199 0.062310
-0.052367 -0.054161 -0.142602
0.029728 -0.006469 -0.060294
-0.009309 0.091946 0.110195
-0.054553 -0.030628 -0.149833
0.052749 -0.046785 -0.125341
0.017950 0.039505 0.049406
-0.016760 0.035423 0.055139
-0.013312 0.087113 0.082045
-0.024156 0.085953 0.089436
0.041250 -0.000839 -0.148047
0.043606 -0.062747 -0.104078
-0.028675 0.020818 -0.042380
-0.007206 0.066247 -0.010392
0.029243 0.063837 0.049308
-0.004380 -0.083103 -0.098360
-0.030634 0.055781 0.041722
-0.030900 0.037311 -0.078231
-0.044419 -0.060254 -0.102197
-0.031538 -0.069719 -0.094755
-0.029997 -0.082896 -0.124350
0.045936 -0.004935 -0.127080
-0.029526 0.046070 -0.039579
0.033418 0.081924 0.116407
-0.018282 -0.015855 -0.059205
-0.034035 0.005751 -0.155599
-0.000760 0.052651 -0.075213
0.004230 0.086466 0.132403
-0.025965 -0.084875 -0.122316
0.032347 0.059159 0.050082
0.041464 -0.002586 -0.073229
0.007760 0.024005 -0.123235
0.046068 -0.043043 -0.089696
-0.018244 -0.087691 -0.120440
-0.013369 -0.047313 -0.070713
-0.014009 0.000162 -0.051521
0.025752 0.036041 -0.096830
-0.045835 -0.003716 -0.119151
0.011603 -0.079751 -0.095167
0.022691 0.083763 0.126794
-0.053730 -0.048909 -0.144439
-0.034372 0.081996 0.103984
0.022130 0.044170 -0.086293
-0.005004 0.069152 0.007756
-0.035354 0.028787 0.070410
-0.044651 -0.022214 -0.082045
0.030126 0.046548 -0.059831
-0.021986 0.076174 0.138126
0.045059 -0.065751 -0.117109
0.028886 0.019341 -0.115879
0.034869 0.080745 0.096426
-0.031342 0.007645 -0.054393
0.000754 0.027130 0.055112
0.050417 -0.055162 -0.121804
0.018176 -0.001614 -0.052939
-0.020734 0.089577 0.110738
-0.043010 0.074478 0.095335
0.030135 0.052928 0.140407
-0.034124 0.025328 -0.049477
-0.044942 -0.069364 -0.139579
0.017859 0.049812 0.147846
0.045480 -0.068162 -0.129949
0.029912 0.060936 0.047228
-0.032158 0.010908 -0.130771
0.029072 -0.048377 -0.076488
-0.037680 -0.077121 -0.125649
-0.009775 -0.088931 -0.115783
0.005351 0.031805 0.054188
0.036959 0.016838 -0.102005
-0.027672 0.067403 0.050279
0.038903 0.064846 0.078736
0.050914 -0.016589 -0.150118
0.028465 -0.084666 -0.139241
0.017792 0.087611 0.087345
0.021813 0.053743 -0.053547
0.024739 -0.053737 -0.077384
-0.016834 0.071240 0.025641
-0.013687 0.039040 0.045833
-0.014009 0.000162 -0.051521
0.000147 -0.053202 -0.072851
0.007186 -0.082784 -0.098374
-0.006242 0.077901 0.142730
0.028027 0.023289 0.064522
-0.005576 -0.064585 -0.079677
0.047361 0.055618 0.105452
-0.034867 -0.007064 -0.064938
-0.036565 0.013305 -0.059694
-0.043948 -0.058909 -0.097908
0.020812 0.083455 0.077615
0.041971 0.005950 -0.108009
-0.046133 0.060047 0.109425
-0.015054 0.047879 -0.091847
-0.035340 0.018436 -0.055296
-0.051207 -0.019395 -0.123089
-0.006147 0.086524 0.131982
-0.047243 -0.006903 -0.116273
0.047899 0.049575 0.103880
0.020587 0.052940 -0.060333
-0.015450 0.067361 0.005136
0.029159 0.085146 0.113682
0.048796 -0.011784 -0.144567
0.036698 0.079369 0.101380
0.027609 0.051622 -0.031086
-0.047308 0.054179 0.098316
-0.016971 0.038829 0.042639
0.002721 0.031420 0.054032
-0.017703 0.038025 -0.102088
0.018357 0.015430 -0.142738
0.011042 0.018320 -0.138260
0.051246 -0.057398 -0.140466
-0.024268 0.054476 -0.040987
-0.010002 0.067550 0.001492
0.032108 0.014972 -0.119692
-0.045260 -0.061624 -0.108299
-0.017154 0.060975 -0.026907
0.025626 0.017397 -0.042800
0.039225 0.061017 0.076526
0.040393 0.052399 0.133971
0.030181 0.046654 -0.022316
-0.010288 0.089486 0.088723
-0.028614 0.072756 0.055719
0.030636 -0.041840 -0.074191
0.032312 0.020928 -0.106732
0.044999 -0.053979 -0.094682
-0.027386 0.044277 0.042082
0.022847 0.018220 -0.040392
0.048816 -0.060249 -0.123149
-0.037882 0.064806 0.136059
-0.031486 0.067520 0.062983
-0.031078 0.040459 -0.055289
0.047734 0.049449 0.107442
-0.022626 -0.050835 -0.074825
-0.039623 0.075047 0.118712
0.020547 0.071189 0.038747
0.008355 -0.089007 -0.114954
-0.026919 0.036216 0.059863
0.044221 -0.002375 -0.129807
0.034787 0.024606 -0.051905
-0.028206 0.082032 0.125179
0.047076 0.056996 0.100194
0.049906 -0.059362 -0.129134
0.037783 0.034148 0.134821
-0.016466 -0.033495 -0.065423
-0.002989 0.069513 0.006216
-0.048363 -0.059906 -0.119615
0.021669 -0.087636 -0.130731
0.025719 0.029712 0.061995
0.000005 0.038017 0.044266
-0.008488 0.064610 -0.018709
-0.019532 0.025740 -0.027521
-0.033832 0.046306 0.060819
0.049401 0.043693 0.104641
-0.025524 0.078352 0.070548
0.013638 0.089499 0.122216
0.052087 -0.024122 -0.122306
0.016698 0.058618 -0.040305
-0.045577 -0.063021 -0.112759
-0.027200 0.066000 0.044067
0.010503 0.087989 0.128029
-0.043545 0.049942 0.083404
-0.024978 -0.086231 -0.131043
-0.042055 -0.073094 -0.142378
0.045906 0.060344 0.096195
0.029928 0.034442 -0.027303
0.034188 -0.057559 -0.085712
-0.046834 0.050105 0.113364
0.041853 -0.073246 -0.148219
-0.031168 0.009569 -0.138832
-0.015449 0.063864 -0.017159
0.032607 0.023972 -0.046234
0.026239 0.054235 0.143102
-0.019626 0.087812 0.090167
-0.042155 -0.072457 -0.127241
-0.031761 0.063700 0.049005
-0.016971 0.038829 0.042639
-0.005307 -0.090795 -0.126462
0.015513 0.083680 0.132148
-0.010934 0.034194 -0.107505
0.035322 0.043232 0.138836
-0.045421 -0.034604 -0.155599
-0.028301 0.038120 0.059596
-0.028227 0.036789 -0.092404
-0.014103 0.062787 -0.021880
-0.046816 -0.008590 -0.155599
0.043039 0.069399 0.106933
-0.034372 0.081996 0.103984
0.045477 -0.059450 -0.104819
-0.026141 0.011024 -0.150791
0.024658 0.069400 0.043505
0.047223 -0.021670 0.111625
0.049950 0.059629 0.101920
0.019730 0.087152 0.087759
0.036991 0.075158 0.123790
-0.039260 -0.043126 -0.081398
-0.029549 -0.080049 -0.109937
-0.018960 -0.066572 -0.084123
0.046196 0.049214 0.122580
-0.030337 0.046105 -0.021278
-0.024666 0.019342 -0.121670
0.035631 0.044815 0.065543
0.033000 -0.081662 -0.138764
0.037823 -0.021670 0.073961
-0.018435 0.075310 0.047882
-0.020546 0.080117 0.133100
0.009590 0.017175 -0.146500
0.050778 -0.055079 -0.124104
0.052415 -0.029601 -0.119033
-0.035064 0.026026 -0.054791
0.041643 -0.000202 -0.138490
0.042889 -0.001494 -0.136481
0.011554 0.075757 0.047191
0.033067 0.034686 -0.071573
0.030666 0.059215 0.049159
-0.029670 0.038775 0.060354
-0.007157 -0.057947 -0.075607
-0.011443 0.054120 -0.071291
0.032574 0.069869 0.053385
-0.034451 0.077630 0.086635
-0.013825 0.065839 -0.004994
-0.023674 0.026341 -0.109794
-0.033345 0.025379 -0.047264
-0.054054 -0.040278 -0.132238
0.033866 0.080745 0.092585
0.004263 0.023277 -0.125613
0.039301 -0.008944 -0.070784
-0.047092 -0.062176 -0.118102
0.022717 -0.072319 -0.091347
-0.021922 0.040333 -0.093000
0.002879 0.089505 0.086237
-0.025291 0.036303 -0.094770
0.027680 0.026998 -0.034030
-0.003619 -0.086584 -0.104569
0.023432 0.053650 -0.049084
-0.001376 0.085797 0.133583
-0.030983 0.031448 -0.092318
-0.047092 -0.062176 -0.118102
-0.024245 -0.081928 -0.106247
0.012645 0.088079 0.126790
-0.028506 0.051409 -0.022244
0.037801 0.053902 0.071085
-0.021670 -0.001906 -0.053905
0.028480 0.013847 -0.129874
-0.014383 0.051912 0.148977
-0.045250 0.070341 0.088533
-0.007994 0.060951 0.149010
0.013696 0.055238 -0.065148
0.020796 0.045618 -0.085356
-0.002990 0.069763 0.007652
0.007824 -0.087416 -0.107350
-0.034035 0.005751 -0.155599
-0.020336 0.016197 -0.041433
-0.022092 0.087140 0.090788
0.048980 0.046141 0.097025
-0.003982 0.088314 0.082185
0.033878 0.079611 0.120892
-0.007280 0.044182 -0.102471
-0.037688 -0.023491 -0.073486
-0.014525 0.052157 -0.078405
-0.042520 -0.067420 -0.110803
-0.001357 -0.067962 -0.081895
-0.012321 -0.090879 -0.140104
-0.012112 0.071234 0.021554
-0.030600 0.047734 0.050745
0.032210 -0.082218 -0.136388
0.009860 0.044692 -0.094373
0.026500 -0.030535 -0.067899
0.029976 0.058595 0.040796
-0.032345 0.024365 -0.045370
0.021277 0.023118 0.060472
-0.015691 0.086283 0.128478
-0.002990 0.069639 0.006954
-0.049149 -0.045878 -0.103060
0.005749 0.076212 0.144339
0.026122 0.072410 0.058462
0.049118 -0.060192 -0.125100
0.010124 0.047403 -0.094892
-0.041440 -0.014266 -0.075230
0.005078 -0.077102 -0.090489
0.047311 0.049906 0.110910
0.027363 0.012702 -0.136120
-0.014632 0.090028 0.094637
-0.029045 -0.083924 -0.128757
-0.028889 -0.081390 -0.113056
-0.003954 0.053579 -0.076252
-0.040201 0.007549 -0.072307
0.020134 0.087437 0.125396
0.029082 0.068400 0.057361
-0.004580 -0.019815 -0.059493
-0.054757 -0.042383 -0.149367
0.052896 -0.052265 -0.141392
-0.046834 0.050105 0.113364
-0.002841 -0.044163 -0.068730
0.006399 0.025519 -0.024463
-0.031916 -0.082115 -0.128932
-0.007459 0.082294 0.065563
-0.015865 0.085220 0.129939
0.033009 0.083956 0.099081
0.024902 0.036567 0.058235
-0.054415 -0.045186 -0.147204
-0.011614 0.045289 -0.092941
-0.008527 0.034073 -0.108171
0.026753 0.052059 -0.066016
-0.016931 -0.069331 -0.085746
0.042046 -0.001980 -0.155599
-0.021656 0.073213 0.050358
0.042954 -0.071841 -0.153449
0.012949 0.034122 -0.105450
0.027047 -0.084326 -0.122209
-0.024494 0.069053 0.041265
-0.029760 0.042524 -0.059597
0.045763 -0.051379 -0.093982
-0.046922 0.039394 0.118308
0.028754 -0.084375 -0.155599
0.036821 0.007212 -0.061958
-0.044317 0.000216 -0.113662
0.016198 -0.088927 -0.125595
0.042101 0.069416 0.112985
-0.049681 -0.033996 -0.155599
0.036241 0.028059 0.071632
0.042674 0.036373 0.127830
-0.036038 0.060324 0.068490
0.004957 0.009007 -0.045476
0.012083 0.086930 0.129369
-0.003103 0.024453 -0.123098
0.010825 0.091270 0.098766
0.045159 0.050418 0.083655
0.041473 0.063724 0.122070
-0.045946 0.048447 0.089857
-0.005783 -0.086590 -0.104987
0.045151 -0.038142 -0.086467
-0.039310 0.064383 0.079357
-0.030229 0.074628 0.071913
0.047372 -0.051327 -0.100116
-0.031071 0.050015 0.047536
-0.048951 0.051668 0.095517
-0.035850 0.054451 0.134637
0.053453 -0.024483 -0.149392
-0.047721 0.050089 0.107261
-0.013921 -0.089667 -0.127488
0.029907 0.082346 0.122237
0.022847 0.018220 -0.040392
-0.047994 -0.053478 -0.105993
-0.049299 0.054590 0.097114
0.045601 0.067068 0.121221
-0.026075 -0.071387 -0.092416
0.027349 0.070967 0.058079
-0.008693 0.086613 0.131176
0.024019 0.054918 -0.040201
0.010538 -0.091485 -0.155599
-0.036871 -0.073677 -0.108973
-0.006678 0.064422 -0.020829
-0.015848 0.090653 0.113577
0.033254 0.022402 -0.101954
-0.026582 0.054416 -0.055360
0.028775 0.047092 -0.043359
0.023426 0.049235 -0.068179
-0.001983 0.036033 0.050618
0.030651 -0.065896 -0.090055
0.027004 0.042927 0.052138
0.042657 0.059810 0.084326
0.049812 -0.014874 -0.117475
0.035995 0.026935 -0.067935
0.026480 0.039883 -0.087051
0.028982 0.050357 -0.060392
-0.024611 0.068642 0.040047
0.023084 0.016405 -0.042271
-0.026667 0.076133 0.134721
0.025765 0.049306 -0.056377
0.033989 0.080156 0.091282
-0.009827 -0.091586 -0.151944
0.032952 0.061852 0.135590
-0.006537 0.085422 0.073973
-0.040044 0.054557 0.129005
-0.011613 0.065337 -0.009778
0.045120 -0.045639 -0.089492
-0.009309 0.091946 0.110195
0.000449 -0.088541 -0.109059
-0.023532 0.054850 -0.042653
0.021271 0.039077 0.053077
-0.029240 0.082339 0.120856
-0.030661 0.044643 -0.019820
0.045197 -0.002533 -0.120410
0.030159 0.075089 0.072553
-0.014618 0.025865 -0.116974
-0.030839 0.040661 0.060117
-0.025354 0.082820 0.125380
-0.014143 0.067354 0.001203
-0.020045 0.039448 0.051439
-0.038236 0.048715 0.071631
0.032468 -0.079635 -0.115738
0.009635 0.073963 0.037879
0.034942 0.060288 0.134055
-0.022212 0.049632 -0.070461
-0.029739 0.047165 -0.028793
0.052796 -0.029710 -0.122453
-0.003796 0.047049 -0.096813
-0.047572 0.048306 0.090271
0.022028 0.087741 0.119103
-0.050564 -0.051142 -0.116314
0.028240 0.045474 0.046173
0.018398 0.075252 0.047573
0.053877 -0.039003 -0.129747
-0.044431 0.066196 0.099922
-0.054561 -0.038659 -0.138450
0.027718 0.036599 -0.093528
0.011836 0.088754 0.125595
0.040066 -0.048561 -0.085018
-0.050976 -0.057735 -0.136439
0.002763 0.038065 0.044653
-0.028162 0.072948 0.064399
-0.008486 0.063607 -0.021635
0.044049 0.071930 0.089460
-0.051002 -0.028325 -0.109531
0.028911 0.086120 0.107921
0.016905 0.078374 0.138743
0.032629 0.035326 -0.044567
-0.032090 0.053278 0.052570
-0.031072 0.044269 -0.050373
0.031284 0.037985 0.062469
0.018577 -0.088783 -0.131601
-0.025230 0.086808 0.120646
-0.017998 0.026930 0.058766
0.012867 0.072005 0.143196
-0.038652 -0.076599 -0.129790
-0.017272 -0.087534 -0.117433
-0.050036 -0.055260 -0.119726
0.009860 0.044692 -0.094373
-0.029164 0.035723 -0.089142
0.030353 0.069442 0.063014
-0.037237 0.034237 0.133521
-0.019901 0.028693 -0.018543
0.017830 -0.088285 -0.123846
0.044028 -0.041835 -0.086206
0.003793 0.022564 -0.127448
-0.023872 0.069219 0.039170
-0.035569 0.028447 -0.074235
0.044999 -0.053979 -0.094682
-0.028500 0.040266 -0.079693
-0.045423 -0.040342 -0.155599
-0.005718 0.075939 0.044963
0.024286 0.041407 0.051133
0.032162 -0.055306 -0.082595
0.012230 0.055775 -0.058514
-0.039703 0.071322 0.117690
0.038327 0.073341 0.118106
0.006613 0.088639 0.127974
-0.006582 0.029121 -0.114078
-0.030837 0.060238 0.051693
-0.031909 -0.082266 -0.155599
-0.019258 0.047270 -0.083578
-0.037045 0.057827 0.070080
-0.046019 -0.067025 -0.128089
0.029629 0.081570 0.085085
0.032312 0.043830 0.059505
-0.050591 -0.018931 -0.115790
0.046633 -0.063301 -0.118446
0.004597 0.035148 -0.105816
0.032850 -0.081393 -0.127946
0.021169 0.076884 0.060497
0.022280 0.004700 -0.050506
-0.004485 -0.050723 -0.071711
-0.031383 -0.048237 -0.077798
-0.016653 -0.089094 -0.128537
0.018495 0.084202 0.077391
0.027638 -0.065995 -0.088022
0.026360 0.084562 0.088206
-0.052216 -0.053956 -0.136476
-0.002618 0.034274 0.052428
-0.004654 0.069370 0.008852
-0.042248 0.072232 0.118689
-0.007559 -0.086601 -0.105482
0.048756 -0.014709 -0.106209
0.009621 0.074227 0.145217
-0.038258 0.069668 0.082679
0.038022 0.012986 -0.063516
-0.031510 0.084246 0.100593
0.028937 0.031564 0.141593
-0.037049 0.045068 0.068780
-0.042636 0.036973 0.125218
0.023002 0.072435 0.138041
0.049437 -0.036158 -0.100241
-0.034739 0.080991 0.097007
-0.002242 0.069970 0.149665
0.047860 0.043422 0.105465
-0.024750 0.011587 -0.047018
-0.029264 -0.084149 -0.136418
-0.048589 -0.063236 -0.155599
-0.047088 -0.006899 -0.122849
-0.040878 0.010581 -0.085322
-0.043709 0.037708 0.122979
0.041762 0.070899 0.110886
0.037264 -0.060430 -0.090780
0.005788 0.028510 0.055271
0.029232 0.060877 -0.012449
-0.021717 -0.087600 -0.130635
-0.009711 0.091934 0.106735
-0.049536 -0.021836 -0.104225
-0.021585 0.018428 -0.127536
0.041809 -0.002737 -0.074420
-0.045422 -0.066924 -0.122870
0.016724 0.067495 0.148241
0.041066 0.005947 -0.115138
0.017746 0.039633 0.048194
-0.020844 -0.031176 -0.065677
-0.024298 0.015660 -0.131732
0.002465 0.018451 -0.142521
0.017644 0.073479 0.043836
0.014313 0.068330 0.148470
0.046027 -0.051793 -0.094985
-0.035064 0.026026 -0.054791
0.037398 0.078093 0.116759
-0.012543 0.067226 0.001645
-0.029549 -0.080049 -0.109937
-0.047585 0.054044 0.104258
0.041066 0.005947 -0.115138
0.021131 0.089140 0.099644
-0.045714 -0.052420 -0.094828
0.030758 0.060629 0.051720
-0.049628 0.064899 0.114262
0.043689 0.064898 0.092287
0.037398 0.078093 0.116759
-0.013982 0.026864 -0.021882
0.034728 0.029605 -0.080922
0.006408 0.027946 -0.116018
-0.019233 0.026636 -0.025043
-0.038969 0.000034 -0.067807
-0.014484 0.038854 0.049523
-0.029240 0.082339 0.120856
-0.000413 0.020574 -0.133480
0.054862 -0.034943 -0.146096
-0.017272 0.063452 0.145563
-0.019866 0.056437 -0.054602
-0.030706 0.050049 0.140149
-0.044087 -0.021670 0.122171
0.020303 0.037547 0.054625
-0.040903 -0.003765 -0.072161
0.023953 0.061115 -0.022417
-0.021271 -0.064776 -0.083601
0.038331 -0.076230 -0.123787
-0.037384 0.004057 -0.140661
-0.038258 0.069668 0.082679
-0.037026 0.023842 -0.080194
-0.006141 0.063514 0.148524
-0.026609 0.051910 0.143098
-0.020045 0.039448 0.051439
-0.023466 0.041597 0.046753
-0.008630 0.049901 0.150510
-0.046322 -0.056118 -0.102520
-0.004700 0.050648 -0.081316
0.017277 -0.065563 -0.082687
0.010909 0.026647 0.056560
-0.014569 -0.075626 -0.091152
-0.020977 0.071052 0.039224
-0.041371 0.069982 0.114680
-0.020546 0.080117 0.133100
0.046479 0.049033 0.091762
-0.039696 0.014564 -0.089109
0.032901 0.046485 0.058458
-0.021473 -0.087081 -0.124199
-0.029399 0.045392 -0.045611
0.005368 -0.092219 -0.155599
0.042046 -0.001980 -0.155599
0.014441 0.042173 -0.095743
-0.051947 -0.031007 -0.114808
0.049428 -0.047240 -0.105567
0.031419 0.039380 -0.058943
0.031688 0.027266 -0.041606
0.049870 -0.014743 -0.119575
0.036634 -0.073283 -0.107197
-0.019195 0.052641 0.147113
-0.019233 0.026636 -0.025043
0.005770 0.048723 -0.086594
-0.051538 -0.050957 -0.122164
0.021093 0.086091 0.124498
-0.012508 0.067343 0.002272
0.046915 -0.005995 -0.115583
0.044946 0.059237 0.090612
0.030587 0.031489 -0.034274
-0.037547 0.065134 0.128150
-0.029988 0.072312 0.067314
-0.023253 -0.084832 -0.114782
-0.030189 -0.001423 -0.058137
0.040593 -0.043657 -0.082965
-0.047000 0.069514 0.110423
0.024594 0.007148 -0.049913
-0.032927 0.083114 0.100088
-0.024158 0.088462 0.108529
-0.028504 0.045530 0.048419
-0.045350 0.055933 0.089805
0.025898 0.053871 -0.033413
-0.035279 0.044039 0.065061
-0.033313 0.032657 0.139482
-0.021275 0.072626 0.047273
0.021093 0.086091 0.124498
0.046838 0.055075 0.095613
-0.029650 0.044068 -0.050913
0.047290 0.056369 0.103200
-0.035078 0.005309 -0.146743
0.046978 -0.045846 -0.092871
-0.026789 -0.021670 0.143133
-0.013379 0.049182 -0.089011
0.014222 0.038792 0.043964
0.014928 -0.088320 -0.118426
0.018057 0.074438 0.048374
0.006328 0.036899 -0.103494
-0.038578 0.016713 -0.093104
0.034950 -0.080114 -0.142678
-0.012400 -0.033763 -0.065117
0.051170 -0.017331 -0.136023
0.032385 0.034451 -0.039591
0.029291 0.066227 0.142451
0.042101 0.071161 0.107431
-0.047503 -0.057317 -0.109943
0.013827 0.038132 0.050952
0.041722 0.063175 0.084464
0.017901 0.074668 0.044487
-0.044585 0.053537 0.120202
-0.008400 -0.091706 -0.144199
0.010962 -0.078228 -0.093001
0.030419 0.029723 -0.035942
0.017198 0.070136 0.019916
0.038890 0.063485 0.077461
-0.036379 0.016601 -0.104694
-0.028392 0.028046 -0.033782
-0.022456 0.050280 -0.067291
0.028387 0.078094 0.074722
-0.004555 0.000127 -0.050899
-0.010903 0.078750 0.056862
0.032799 0.048340 0.056755
-0.038126 0.012267 -0.063814
0.013317 0.047739 -0.086931
0.021961 0.016684 -0.132006
0.030602 0.043515 0.057089
0.011678 -0.021670 0.056939
0.018237 0.049515 -0.085261
-0.010069 0.066621 -0.003733
-0.007528 0.052022 -0.076033
-0.044927 0.062661 0.112346
-0.046388 -0.045477 -0.091389
0.010434 0.091837 0.105965
0.010788 -0.060147 -0.077326
-0.026957 0.028396 -0.030729
0.043292 -0.001195 -0.131217
-0.022540 0.088602 0.113970
-0.003718 0.048151 -0.094186
-0.021350 0.024265 -0.115326
0.031796 0.023037 -0.045206
-0.044651 -0.022214 -0.082045
-0.015054 0.047879 -0.091847
-0.024111 -0.086904 -0.137128
-0.028053 0.055994 -0.043911
0.001693 0.049372 -0.085427
0.027843 0.057291 -0.037197
-0.049364 -0.061824 -0.144550
-0.049785 -0.032656 -0.101893
0.015640 -0.085342 -0.106436
-0.034881 -0.054878 -0.084357
0.031166 0.039548 -0.076577
0.002362 0.038000 0.045682
-0.037026 0.023842 -0.080194
0.037890 0.014154 -0.063384
0.036784 0.079027 0.099018
-0.036113 0.026630 -0.069320
-0.033462 0.054632 0.059052
-0.027256 0.019835 -0.041822
-0.015994 0.088640 0.123035
-0.042510 -0.044406 -0.085496
-0.006770 0.068217 0.000618
-0.006067 -0.091185 -0.131077
-0.027974 0.033429 0.062140
-0.037489 -0.077714 -0.152456
0.030158 0.027574 -0.037775
0.019268 0.077889 0.136097
0.035780 -0.070990 -0.100444
-0.008485 0.067706 -0.001272
0.052775 -0.035304 -0.119941
-0.015446 0.062330 -0.023123
0.026855 0.043962 0.044199
-0.044143 -0.023374 -0.081358
-0.011613 0.065337 -0.009778
-0.053151 -0.041235 -0.124217
0.010548 -0.040338 -0.067520
-0.013376 0.067157 -0.000611
-0.039516 -0.022242 -0.074974
-0.036324 0.069479 0.063295
0.018392 0.087318 0.124496
-0.006769 0.069609 0.008665
-0.010121 0.063592 -0.020661
-0.044087 -0.021670 0.122171
-0.026850 0.087138 0.102299
-0.005168 0.024033 -0.027978
-0.027163 0.046665 -0.059637
-0.029124 -0.055671 -0.080910
0.024747 0.042693 -0.084585
0.030772 0.037675 -0.077638
0.024053 0.041834 0.048644
0.045763 -0.051379 -0.093982
-0.046553 0.070856 0.096966
-0.030882 0.081692 0.119145
-0.012038 0.068276 0.007135
-0.012888 0.091294 0.102135
0.015295 0.083067 0.071696
-0.053702 -0.032332 -0.129822
-0.029951 0.049331 -0.049960
-0.037197 0.066636 0.076389
0.018035 -0.088006 -0.122162
0.031227 0.041880 0.059570
-0.027593 -0.020521 -0.064901
-0.028823 0.033857 -0.024237
0.051824 -0.045652 -0.117745
0.031257 0.034707 -0.032633
-0.038496 0.062297 0.137834
-0.025523 0.071081 0.053246
0.044854 -0.021435 -0.082373
0.043353 0.067946 0.096746
-0.031110 0.034054 -0.087030
-0.045421 -0.034604 -0.155599
0.029630 0.077073 0.071229
-0.031045 0.070803 0.067160
0.021085 0.088807 0.097082
0.017859 0.049812 0.147846
-0.031304 0.016357 -0.118053
-0.016727 0.087733 0.127637
0.050585 -0.050508 -0.115459
0.023670 0.028229 -0.025799
0.033466 0.061172 0.062096
0.048278 -0.009700 -0.120081
0.011691 0.088047 0.130002
-0.032269 0.034704 -0.038856
-0.051483 -0.056844 -0.155599
0.004386 -0.070956 -0.084448
0.003543 0.052240 -0.076361
-0.002931 0.027192 -0.117784
-0.031164 -0.060767 -0.085944
-0.053508 -0.037720 -0.126227
0.047235 -0.021670 0.095249
0.048774 -0.025615 -0.098223
0.008312 0.034968 -0.105537
-0.037309 0.003084 -0.149706
-0.001252 0.050862 0.151251
0.050914 -0.016589 -0.150118
0.031745 0.049701 0.051767
0.042130 -0.066918 -0.108056
-0.041992 -0.061588 -0.097266
0.018069 0.014586 -0.150966
0.006874 0.028524 0.152234
-0.030320 0.048549 0.046584
0.043689 0.064898 0.092287
0.039323 0.062048 0.127271
-0.033368 0.057668 0.059999
0.001381 0.080864 0.138832
0.038471 0.074318 0.081180
0.044266 -0.016843 -0.080743
0.015640 -0.085342 -0.106436
-0.017532 -0.089496 -0.139166
-0.007860 -0.091341 -0.135441
-0.052111 -0.021666 -0.129564
-0.030855 0.033290 -0.032839
-0.002988 0.068085 -0.002041
-0.006769 0.069248 0.006578
-0.030600 0.047734 0.050745
-0.015450 0.066137 -0.004309
0.010408 0.034185 -0.106098
-0.030190 0.041619 0.058500
-0.022540 0.088602 0.113970
0.053332 -0.040502 -0.125249
0.003405 -0.090763 -0.125028
-0.011463 0.044405 -0.094288
-0.016476 -0.015107 -0.058564
-0.034516 0.065006 0.068033
0.029225 0.017022 -0.046164
-0.036599 0.058934 0.132544
0.052120 -0.036071 -0.115163
0.021700 0.028774 -0.021058
-0.000705 0.087894 0.130397
0.017062 -0.008537 -0.055966
0.022234 0.040998 0.047812
-0.011241 0.066060 -0.006004
0.004597 0.035148 -0.105816
-0.037045 0.057827 0.070080
-0.030472 0.047877 -0.044621
-0.009827 -0.091586 -0.151944
-0.032606 0.084758 0.105149
0.002375 0.088317 0.132047
0.028465 -0.084666 -0.139241
-0.033084 0.061072 0.060960
-0.001671 0.080971 0.140376
0.037464 0.066590 0.076955
-0.039440 0.075807 0.104527
-0.031505 0.053760 0.049035
0.007962 0.026652 0.055944
0.045197 -0.002533 -0.120410
0.038334 0.049884 0.132127
-0.017372 0.056659 0.147338
0.016496 -0.089954 -0.149385
0.036625 0.025401 -0.074815
0.014425 -0.067412 -0.083305
-0.017576 0.084022 0.131970
0.012867 0.072005 0.143196
0.017521 -0.049651 -0.072586
0.014733 0.053255 -0.067461
-0.042845 -0.068546 -0.115129
-0.006768 0.067330 -0.004508
0.031881 0.053207 0.051202
-0.036683 0.077759 0.113432
0.025955 0.043031 0.048883
-0.037178 0.055935 0.066234
-0.011614 0.045289 -0.092941
-0.048890 0.057230 0.094180
-0.001157 0.091059 0.121655
0.036199 0.057275 0.067856
-0.008485 0.067549 0.000462
-0.032897 0.042560 0.141105
-0.006768 0.067330 -0.004508
-0.037529 0.078861 0.114047
0.030300 0.040573 0.059544
0.004231 0.046227 -0.092525
0.040060 0.076938 0.093465
0.014646 0.034913 -0.103856
0.002063 0.059060 0.150117
-0.053515 -0.050170 -0.150720
-0.010343 -0.072616 -0.086823
-0.010109 -0.090945 -0.134202
0.046250 0.057561 0.112218
-0.027005 0.013521 -0.133868
0.017910 0.060444 -0.028444
0.002918 0.092323 0.112004
-0.015449 0.064432 -0.013904
0.025857 0.071615 0.055711
0.004964 0.053964 0.150756
0.040082 0.035100 0.131836
0.054462 -0.038462 -0.136560
0.052109 -0.019816 -0.155599
0.029508 0.046982 0.047566
0.029191 0.032964 -0.093691
-0.035382 0.004641 -0.152799
0.022913 0.038156 0.055457
-0.008850 0.077973 0.140224
-0.042712 0.068684 0.095146
-0.033894 0.028446 -0.048120
-0.023411 0.022984 -0.115720
0.010108 0.052279 -0.079843
-0.052907 -0.042932 -0.123285
-0.026219 0.085796 0.118251
0.027776 0.078598 0.130696
-0.042081 0.071527 0.102868
-0.028143 0.046262 -0.053994
-0.030996 0.051482 0.041060
0.027528 -0.046892 -0.074880
-0.016834 0.071240 0.025641
0.012572 0.091243 0.114050
-0.027388 0.036942 -0.090765
0.025955 0.043031 0.048883
-0.010002 0.067550 0.001492
-0.052041 -0.053949 -0.133407
0.026580 0.078515 0.069984
0.026489 0.044983 -0.071183
0.054862 -0.034943 -0.146096
-0.027632 0.062449 0.140010
