0.003271 -0.040549 -0.022900
0.068381 0.053834 -0.030599
0.009440 0.027883 0.029799
0.005552 -0.053992 0.020426
0.081706 0.045551 -0.006132
0.062439 0.059466 -0.018308
0.001130 0.050614 0.013281
0.054145 0.061352 0.012516
0.065600 0.008533 0.032364
0.072180 0.000624 -0.041129
0.063400 -0.042119 0.029887
-0.000557 -0.033344 0.049034
0.084788 -0.011608 0.014420
0.004525 0.053165 -0.020276
0.000027 -0.044636 -0.023180
-0.045423 -0.004322 0.046629
-0.041296 0.014294 0.041147
0.062544 -0.050229 0.030924
-0.007520 -0.033359 0.048191
-0.079411 -0.038306 0.023349
0.060823 -0.015462 -0.047538
0.023939 -0.010232 -0.044086
0.016592 0.049794 -0.032383
0.011318 0.063590 -0.003878
0.012163 0.064447 -0.002430
0.050521 -0.039650 -0.046052
-0.055521 -0.040392 0.041168
-0.053147 0.010975 0.041368
-0.010695 0.022623 -0.020587
0.025666 -0.066432 -0.041768
0.070250 0.054658 -0.025576
0.043815 -0.065105 0.037803
-0.069399 0.021570 0.024470
0.058241 0.060210 0.010554
-0.051851 0.031934 -0.002332
0.074590 0.053342 0.007218
-0.011434 -0.053959 -0.020932
0.013561 0.063704 -0.019449
0.062618 0.053397 0.025045
0.022750 -0.062767 -0.043312
0.003496 0.057072 0.000524
0.019100 -0.025859 0.038341
0.020252 0.004227 0.034705
0.080147 0.011521 -0.032749
0.006118 -0.052406 0.023695
-0.001647 -0.054261 0.010668
-0.004249 -0.054465 -0.016752
0.013985 -0.049667 0.027934
-0.076486 -0.046175 0.023673
0.034123 0.060437 -0.038025
-0.041227 -0.059043 0.027667
0.013984 -0.056875 0.023644
0.023031 -0.005553 0.034090
-0.014186 0.025045 0.028630
0.059698 0.059845 0.013259
0.017240 -0.060513 -0.038704
0.001130 -0.058137 0.000183
0.010774 0.019233 -0.030754
0.085899 0.036335 -0.004149
-0.056025 -0.047866 0.037767
0.088959 -0.059188 -0.008453
0.089711 -0.021477 -0.001572
0.038860 0.059206 -0.040096
0.002296 0.055707 0.003224
0.068168 0.055293 -0.027702
-0.044610 -0.063088 -0.002432
-0.000741 0.018364 -0.021917
0.080646 -0.033101 -0.028583
0.022719 0.066414 -0.005882
-0.080212 0.011536 0.023196
0.012298 0.063091 0.007338
0.070050 0.052296 -0.030937
0.019404 0.057548 -0.032702
0.061949 0.043988 -0.041329
0.002745 0.018523 -0.023529
-0.007463 0.034123 0.025123
-0.034887 -0.011812 0.047338
-0.080651 0.010827 0.023195
0.076558 0.051069 0.006377
-0.007677 0.029003 0.027456
0.006154 -0.006432 -0.020932
0.016472 0.065395 -0.010546
0.023191 0.055802 -0.036326
0.006865 0.018091 0.033083
0.029002 0.063202 -0.030745
0.089246 -0.004606 -0.006732
-0.004932 -0.054437 0.003305
0.023239 0.064508 -0.023146
0.053765 -0.016392 -0.049430
0.062681 0.059019 0.010969
0.001857 -0.060580 -0.009517
0.049639 0.061800 0.017798
-0.041932 0.034989 0.006194
0.086043 -0.048335 -0.010238
-0.061735 -0.037291 0.042402
0.004695 -0.058545 -0.024138
0.015028 -0.055657 -0.030577
0.025492 -0.050070 -0.041164
-0.054305 -0.060003 0.020019
0.020830 -0.061509 0.028690
0.017372 -0.064576 -0.039567
0.016464 0.063944 0.010372
0.053805 -0.050035 -0.045923
-0.056509 -0.057782 0.025941
0.044404 0.061185 -0.035590
0.024760 -0.033213 0.032630
0.086606 0.023453 0.003932
0.067716 -0.066432 -0.040872
0.067255 0.036104 0.027965
0.060262 -0.021818 0.035462
-0.084578 -0.034992 0.022670
0.073654 0.052798 0.009350
-0.069004 -0.041187 0.035313
0.052036 -0.055106 0.035192
0.031643 0.064074 -0.025973
0.015819 -0.059748 -0.033415
0.008034 -0.034257 -0.022065
-0.043544 -0.059241 0.027362
0.018227 0.065114 0.004877
0.019442 -0.030497 0.035239
-0.032490 0.037323 -0.013879
-0.055650 -0.024227 0.044925
0.081128 -0.046341 0.013128
-0.054808 0.027010 0.027182
0.081524 -0.022933 0.019612
0.049735 -0.061895 0.037388
-0.008119 -0.053426 -0.006132
0.021221 0.061055 -0.032382
0.069661 0.021421 -0.041132
0.022302 0.062737 -0.030514
0.011994 0.064502 -0.004797
0.062917 0.059503 0.001233
0.061953 0.059217 -0.007620
0.065253 -0.049923 0.029522
0.017012 -0.039504 -0.030241
-0.023078 0.029964 -0.019787
-0.047447 -0.005329 0.046393
-0.063103 0.015960 0.035404
0.016850 0.062883 -0.026041
0.037188 -0.066432 -0.049278
-0.069521 -0.051149 0.024476
0.022795 -0.009030 0.034508
0.049652 -0.015263 -0.049972
0.052350 0.041704 0.032623
0.041216 0.053198 0.031237
0.000313 -0.040867 -0.023074
0.050766 0.062076 -0.026394
0.023601 0.062408 0.019548
0.004425 0.021257 0.030561
0.060267 0.059394 0.001019
0.020327 -0.036980 0.034693
0.019462 -0.037424 0.034615
-0.004217 0.051938 -0.006132
0.059784 0.059600 0.002142
0.018227 0.064793 0.006196
0.002372 -0.057915 -0.018919
0.011268 0.063690 -0.006731
-0.002641 0.046941 0.015418
0.019133 0.002273 0.035764
0.063623 0.052845 -0.036987
0.042023 -0.037113 -0.046419
0.041105 0.057983 -0.041475
0.005231 -0.028120 -0.020932
-0.066284 -0.011050 0.044366
0.069573 0.053569 -0.029410
-0.049487 -0.042222 0.041923
-0.042446 0.033781 -0.002332
0.019142 0.009792 0.033732
0.050873 0.061636 -0.023802
0.001099 -0.058604 -0.002672
0.027266 0.061769 -0.034550
0.003509 0.017264 0.033208
-0.001349 0.020793 0.032129
0.058639 -0.008082 -0.048144
0.001348 0.050899 -0.019764
0.032428 -0.062744 -0.047813
0.057270 -0.066432 -0.045536
-0.003219 -0.053172 0.016205
0.034581 0.031053 -0.045686
-0.000569 0.031276 -0.022870
0.046321 0.061469 -0.003601
-0.007961 -0.053427 0.010668
0.057529 0.042361 -0.043461
-0.033581 0.038274 -0.002332
0.071343 0.056384 -0.007335
-0.017750 0.031845 0.024926
0.079153 0.049285 -0.011175
0.006152 -0.006431 -0.006132
0.000529 0.002263 0.048909
0.053915 0.061037 0.007192
-0.084160 -0.031988 0.025364
0.041593 -0.032538 0.035144
0.023986 0.001637 0.033698
0.086404 -0.065731 0.001425
0.002126 0.055913 -0.006132
-0.047324 -0.045320 0.039646
-0.060034 -0.001716 0.044556
0.004777 -0.052454 0.023427
0.082031 0.007765 0.018097
0.007668 0.057684 0.010216
0.003857 0.019175 0.032759
-0.000151 0.055119 -0.006732
0.065308 0.042845 -0.039810
0.009715 -0.061431 -0.026052
0.016992 0.065966 -0.009986
0.062331 0.059548 0.004256
0.085853 -0.037162 -0.006732
0.069792 0.036027 0.026308
0.048956 -0.046343 0.033867
-0.036821 0.034200 0.017542
-0.033464 0.027909 0.026876
0.059006 0.057263 -0.033419
0.083602 -0.052820 -0.022717
0.046014 0.062478 0.006664
-0.039116 0.000862 0.047472
0.040014 -0.028480 0.036208
0.073864 -0.059799 -0.039139
0.011795 -0.010006 -0.033669
0.015834 -0.003113 0.038982
-0.042921 0.006817 0.047105
0.024068 0.027111 0.032338
0.010467 -0.047102 0.032709
0.066163 0.057475 0.011746
-0.048960 -0.062324 0.011763
0.010761 -0.056860 0.021161
-0.055378 -0.044772 0.037642
-0.076699 -0.000814 0.031408
-0.042164 0.034007 -0.010371
-0.052956 0.006615 0.047318
0.089083 -0.024686 -0.006732
-0.042512 0.008911 0.048796
0.014059 -0.045045 0.033261
0.054658 0.055728 0.027776
0.006214 -0.002390 0.045230
0.063064 -0.044737 -0.042317
0.026252 0.066060 -0.006008
0.017200 -0.054281 0.026411
-0.040069 -0.004522 0.047183
0.061351 0.055059 -0.035943
0.033400 -0.005085 0.036241
-0.014242 0.033751 0.024252
0.008232 -0.024723 -0.023041
0.015523 0.027281 -0.035191
0.069595 0.046420 0.023187
-0.003859 -0.042990 0.042180
-0.046711 0.032892 0.012850
0.040511 -0.022818 -0.049733
-0.065627 -0.022121 0.044548
0.070300 0.056640 0.004563
0.025857 -0.021714 0.034268
-0.064828 -0.053895 0.025715
0.042812 0.060428 0.024324
0.045223 0.016844 -0.048591
-0.074665 -0.048002 0.023861
0.048091 -0.024128 0.037600
0.017140 0.008746 0.034864
0.019518 -0.037167 0.035552
-0.066892 0.021161 0.027398
0.043019 0.060349 -0.036539
0.028455 0.065578 0.002793
-0.000924 0.018659 0.032715
-0.040963 -0.019968 0.047098
-0.043503 0.018415 0.040059
0.013978 0.060029 0.016108
0.016784 0.065976 -0.008297
0.071680 0.056172 -0.006532
0.024701 -0.065832 -0.041381
-0.006771 0.029812 -0.021184
0.070477 0.054838 0.012189
0.015106 0.023476 0.031352
0.047890 0.062382 0.008889
0.056627 0.057810 0.022394
-0.013993 0.025026 -0.020363
0.005481 -0.038850 0.039936
0.058121 -0.058045 0.034826
-0.033332 0.018375 0.037294
-0.086275 -0.001625 0.023711
-0.070789 0.020619 0.024312
0.004692 -0.020071 0.046957
-0.082066 -0.039384 0.022956
-0.088732 -0.008675 0.022189
0.058045 0.060863 -0.005790
0.013978 0.060029 0.016108
0.041669 0.061643 -0.035423
0.006968 -0.036537 -0.021172
0.025343 0.057273 -0.037231
0.017755 -0.053259 0.027010
-0.040801 0.033968 -0.013868
-0.062169 0.025476 0.025248
0.068602 0.040265 0.026089
0.013714 -0.031012 0.039333
0.034100 0.060081 0.026517
0.038295 -0.037838 -0.045780
0.081877 0.046517 -0.006132
0.004692 -0.020071 0.046957
0.017098 0.065078 0.003913
0.073851 0.020217 -0.038259
0.005750 -0.062231 0.011783
0.003856 -0.055119 -0.021084
0.056326 0.060626 -0.027869
0.077954 -0.038423 -0.030608
-0.001992 0.051825 -0.015790
0.018152 0.038466 0.028977
0.012402 0.063566 0.002831
-0.009788 -0.053360 0.031226
0.083068 -0.025512 -0.028900
0.020878 0.065078 0.009600
-0.005850 0.022188 -0.021063
0.033161 0.059549 0.026228
0.081198 -0.054735 -0.028330
0.007285 -0.026632 -0.022154
0.058346 0.060604 0.012155
0.082208 -0.032895 -0.026085
0.074707 -0.066432 -0.035348
0.076760 0.050772 0.005973
0.017933 -0.044429 0.031088
0.062081 -0.021360 0.034800
0.011795 -0.010006 -0.033669
-0.021121 -0.057938 0.013084
-0.040997 -0.062816 0.011705
0.077771 -0.022057 -0.036492
0.088359 -0.064601 -0.017751
-0.048523 0.023044 0.034333
-0.057901 -0.057386 0.025787
0.013851 0.065083 -0.004925
-0.064099 0.024533 0.025079
-0.071710 -0.050440 0.024191
-0.053610 -0.034363 0.045763
-0.050121 0.030825 0.017901
0.070663 -0.031398 -0.039848
0.016448 0.063685 0.010853
-0.073197 -0.028851 0.035063
0.079623 0.040438 0.013631
-0.002577 -0.051979 -0.021047
-0.017807 -0.056117 0.015872
-0.036827 0.028651 0.025794
-0.025077 0.033715 -0.019184
0.014754 0.063541 -0.021936
0.011296 -0.020382 -0.030140
0.015481 -0.023360 -0.037642
0.023563 -0.050153 -0.039986
-0.019876 0.038759 0.017598
-0.036827 0.028651 0.025794
0.012458 0.062456 0.009458
-0.075677 -0.009374 0.034641
0.086825 -0.031824 0.002036
0.013551 0.005384 0.041141
-0.061558 0.008259 0.039070
0.031497 0.064944 0.008074
0.050901 -0.028074 -0.048712
0.033018 0.064320 0.011346
0.029687 -0.031320 -0.044667
0.018791 -0.038851 0.035245
-0.075953 -0.011991 0.034661
0.031452 0.062845 -0.032435
0.001619 -0.058136 0.002988
0.062514 0.054965 -0.035164
-0.030157 -0.057468 0.028898
0.054326 -0.055136 0.034798
0.005122 -0.029184 -0.023891
0.062798 -0.054242 -0.044072
0.087030 -0.008435 -0.021364
0.023198 0.064342 0.012911
0.085848 -0.064608 -0.024608
0.019010 -0.039797 0.034550
0.020295 0.000339 -0.041346
0.039443 0.063752 -0.019846
0.078292 0.049594 0.002567
-0.062710 0.022101 0.025252
0.062974 0.059281 -0.017818
0.002455 -0.061990 -0.012943
-0.089098 -0.013406 0.022231
0.031983 0.062437 -0.033452
0.029670 0.063683 -0.028503
-0.060424 -0.055815 0.026554
0.087091 -0.065732 -0.006132
0.003832 -0.032483 -0.022713
0.028474 0.064554 0.013001
-0.000860 -0.050318 0.033238
0.036400 0.059808 0.026617
0.013835 0.060998 0.014505
-0.040637 0.035713 -0.002332
-0.038860 0.033978 -0.016207
0.089274 0.008620 -0.006132
0.088190 -0.062767 -0.017761
0.020205 -0.026679 0.035237
0.004558 -0.004199 -0.002432
0.025492 -0.050070 -0.041164
0.033655 -0.054742 -0.045952
0.062113 0.052857 0.025831
0.082040 0.042539 0.006588
0.088125 -0.062269 0.005474
0.005890 -0.025351 -0.020927
-0.053096 -0.021004 0.045346
-0.086673 -0.000398 0.022422
0.050430 0.061693 -0.024937
-0.041750 0.033887 -0.011398
0.046472 0.062127 -0.014812
0.040844 0.062945 -0.021469
-0.058209 0.028774 0.018012
-0.026911 -0.060357 0.011684
0.074939 0.049316 0.014864
-0.000204 0.000356 0.047599
0.000581 -0.054217 0.007950
-0.023929 0.033273 -0.019416
0.054603 -0.023096 -0.049194
-0.007158 -0.052737 0.031527
0.021157 0.060031 0.022285
-0.001903 -0.034361 0.045824
0.059764 0.059737 -0.024150
0.044094 0.052707 -0.043584
-0.004825 -0.046415 0.038907
-0.051673 -0.020300 0.045847
0.006385 -0.051571 -0.021329
0.013776 -0.059939 0.022955
-0.079790 -0.017626 0.034077
0.002458 -0.057224 -0.020932
0.003711 0.017041 0.033526
0.003847 -0.029967 0.048468
0.035180 -0.059053 -0.047810
-0.014547 0.025587 -0.020532
-0.082561 0.010239 -0.002332
0.028879 0.050493 -0.040769
0.028332 0.059125 0.026511
0.023700 0.054656 0.027122
0.077353 0.050533 0.005641
0.016449 -0.049805 0.028248
0.049592 0.059137 0.024206
0.004254 -0.023748 0.047029
0.072249 0.052653 0.014442
0.052369 0.059597 -0.035024
0.048581 0.059338 -0.036604
-0.043248 0.006784 0.047070
-0.077560 0.005544 0.031052
0.014564 -0.061953 -0.032765
0.007220 0.017885 0.033183
0.061592 0.056786 0.019557
0.086151 -0.037836 -0.009834
-0.016369 0.044698 -0.012711
0.009942 -0.059975 -0.025970
0.085179 0.033660 -0.015787
0.009128 -0.014442 -0.026781
-0.036182 -0.007436 0.047515
0.050750 0.060799 -0.004838
0.062844 0.059031 0.005742
0.063376 0.058203 -0.026021
0.041314 -0.066432 0.034770
0.057651 0.054867 0.027045
-0.083924 -0.028118 0.027573
0.062125 0.039675 -0.042209
0.048947 0.061514 0.009824
-0.004672 0.041001 -0.021082
-0.084801 -0.008544 0.024131
0.009031 -0.065015 -0.030098
0.051482 -0.065832 -0.046912
0.042153 -0.066432 0.034693
0.031236 -0.050686 -0.044067
-0.010173 0.022197 -0.020611
0.055343 0.058055 -0.035217
0.023902 0.065231 -0.022141
0.012554 0.064636 -0.000887
0.006173 -0.066432 -0.021248
0.080942 0.046261 -0.014331
-0.011873 0.044142 0.013265
0.079924 -0.024398 0.021429
-0.089963 -0.015285 -0.011432
-0.023047 0.028835 0.025962
-0.045265 -0.043324 0.045015
-0.051545 0.031591 0.012302
-0.005596 -0.053444 0.010668
0.019555 -0.043629 -0.036194
0.055216 0.060916 -0.005576
-0.011627 0.046932 -0.013341
-0.065646 -0.054313 0.024845
-0.016020 -0.037650 0.050069
0.065761 0.058724 -0.008389
0.088492 -0.027159 -0.006132
-0.034319 0.033177 -0.002332
0.008935 0.004541 0.041452
0.045973 0.056078 0.030142
0.007173 0.008814 0.039676
-0.079366 -0.006076 0.030267
0.046492 0.059731 0.024458
0.085286 -0.037839 -0.015241
0.086764 -0.035129 -0.006732
-0.025322 0.041054 -0.011135
0.047791 -0.066432 -0.050118
-0.053993 -0.058393 0.026215
0.018433 0.010387 0.034417
-0.044621 -0.061849 0.018311
-0.083378 0.005176 0.024024
0.056931 0.060346 -0.002862
-0.029822 0.009861 0.045485
0.037880 0.058817 -0.040686
0.036804 -0.054752 -0.046789
0.047651 0.061626 0.009900
0.077262 0.050609 -0.018029
0.037013 0.064269 -0.006312
-0.001520 -0.031474 0.047733
0.021703 0.064558 0.011095
0.075811 -0.065731 0.022207
-0.084633 0.006772 -0.020932
-0.066540 0.025520 0.013075
0.082513 0.014990 -0.028621
0.044238 0.062339 -0.021719
0.046791 0.050455 0.031704
0.012982 0.051223 0.022295
0.016344 0.065719 -0.007113
0.053314 0.053445 0.029801
0.033941 0.064871 0.012110
0.084509 -0.064591 0.015002
0.064683 0.053027 0.023681
-0.034888 0.031891 0.021976
-0.000557 -0.033344 0.049034
-0.042059 -0.005527 0.046689
0.022754 -0.061148 0.029869
0.062346 0.059336 0.004981
0.087916 -0.014280 0.006868
0.051031 -0.066432 0.034738
-0.051452 0.029456 0.021758
0.013853 -0.065731 -0.006132
-0.042452 -0.054364 0.030154
0.059015 -0.031882 0.033439
0.082326 -0.054757 -0.026435
0.035716 0.062682 0.021681
0.020419 -0.025126 0.034723
0.039129 0.062060 0.022730
0.038406 -0.066431 0.037229
0.000027 -0.044636 -0.023180
0.057852 0.060914 -0.006324
-0.041505 0.028587 0.027607
-0.074211 0.001005 0.033106
0.052614 -0.036890 0.033829
-0.028757 0.032308 -0.019642
-0.055685 -0.038744 0.042235
0.084910 -0.032260 0.008302
0.079288 0.049259 -0.011214
0.060226 -0.066432 0.032469
0.077355 0.050228 0.005157
-0.010077 0.027231 0.027821
0.081887 0.046523 -0.006732
-0.072893 -0.051456 0.012632
-0.029058 -0.060985 0.012485
0.044529 0.059376 0.026128
0.012834 -0.020391 -0.032235
0.075411 0.051547 0.009732
0.069705 -0.059799 -0.042249
-0.002577 -0.051979 -0.021047
0.087137 -0.031680 -0.012842
-0.040285 -0.049079 0.036602
-0.036807 -0.041864 0.043880
-0.025279 0.026036 0.029496
0.085560 0.035482 0.000283
0.030798 0.064799 -0.008290
0.085953 -0.042554 -0.006732
-0.050564 -0.029181 0.046200
-0.088610 -0.022542 0.022207
-0.041706 -0.039589 0.048933
0.085796 -0.050505 0.001837
-0.034001 0.035314 -0.017029
-0.081843 -0.006642 0.027540
-0.000554 0.052842 -0.015672
0.039443 0.063752 -0.019846
0.085536 -0.039830 0.000544
-0.002909 -0.054890 0.000762
0.044094 0.052707 -0.043584
0.006332 -0.046742 -0.023549
-0.009385 -0.052113 -0.023788
0.020462 -0.023484 0.035709
0.071768 0.056116 -0.005578
0.042273 0.045095 -0.044949
0.055433 0.060794 0.010722
0.003953 0.051371 -0.021217
0.041174 0.057910 0.029115
0.058506 0.060208 0.010485
0.062807 0.059002 0.004087
-0.000881 0.021473 0.030619
0.020707 -0.041582 0.031705
0.066922 -0.054923 -0.042194
0.002310 -0.061439 0.000061
0.020608 -0.055442 0.027919
0.024262 0.061222 -0.034351
0.073193 -0.012975 -0.040695
0.060109 0.057032 -0.032806
-0.005650 0.048316 0.010550
0.089310 -0.010824 -0.006132
0.076357 -0.047517 0.020177
0.017231 -0.013748 0.038864
-0.089621 -0.017187 0.012168
0.089086 0.010459 -0.008637
0.020677 -0.054710 0.028017
-0.063868 -0.002963 0.042540
0.018750 -0.040244 0.034515
-0.019114 0.040861 -0.016133
0.016489 -0.041901 -0.029590
0.076205 -0.033988 0.021688
-0.052490 -0.053578 0.033202
0.001344 -0.056191 -0.020932
0.079515 -0.038425 -0.028413
0.067843 -0.047105 0.027539
0.039827 -0.027598 -0.048701
0.013541 0.063438 -0.018294
0.025337 -0.046513 0.030819
-0.024533 -0.012596 0.048323
0.022712 0.066416 -0.006381
-0.072569 -0.023734 0.036950
0.014911 -0.055967 0.024553
0.001943 -0.062152 -0.005171
-0.031029 0.032865 -0.019259
0.022659 -0.024086 0.034481
0.080734 -0.033983 0.015763
0.017024 -0.023401 -0.039056
-0.000887 0.018468 0.033047
0.015521 0.034200 0.029346
-0.001064 -0.055629 -0.014763
0.067614 -0.052913 -0.041118
0.085947 -0.066432 0.003579
0.019252 -0.043208 0.031390
-0.050719 -0.046693 0.037504
0.085812 -0.002384 -0.023965
0.078688 0.049615 0.001914
0.001763 -0.037455 -0.022666
0.069311 0.049979 0.021575
0.061233 -0.055129 0.032747
0.029498 0.065196 0.006615
0.085980 0.027852 0.004076
-0.042684 0.034527 -0.008680
0.031936 0.065028 -0.011399
0.023711 -0.039626 -0.039584
0.082268 -0.066432 0.012878
0.006508 -0.054572 0.020048
0.055218 -0.047196 -0.045236
-0.066073 -0.010814 0.044374
0.081608 0.018260 -0.029631
0.033635 0.064657 -0.023938
0.023688 -0.007237 0.034048
0.042815 0.063050 0.012863
0.007870 -0.056539 0.018713
0.003563 0.057483 -0.002765
0.069793 0.043528 -0.036427
-0.000569 0.031276 -0.022870
-0.065933 -0.009700 0.042290
0.047084 0.061347 -0.003394
0.013853 -0.065731 -0.006132
0.057725 -0.037950 -0.044743
0.044432 0.062193 -0.022164
0.011919 -0.031355 -0.031222
0.078538 0.049580 0.001889
-0.066306 0.025757 0.010624
0.022310 -0.029406 0.034046
0.022271 -0.034159 -0.039688
0.081404 0.047016 -0.005491
0.041046 0.063593 -0.025623
0.014650 -0.022381 -0.006132
-0.065429 0.023908 0.024916
-0.003501 -0.045638 -0.023107
0.047937 0.056621 -0.041693
0.056368 -0.053078 0.033734
0.003860 -0.054287 0.018532
0.002151 -0.058606 -0.016402
0.055825 0.008474 -0.048101
0.012229 0.056521 -0.025510
0.086818 -0.066432 -0.002947
0.075345 0.053616 -0.006423
0.030157 0.061215 -0.036252
0.043131 0.047819 0.032293
0.052852 0.058516 0.023804
0.044200 0.062997 -0.021182
-0.070207 0.000285 0.036921
-0.020729 0.042720 0.006158
-0.001055 -0.045127 0.035560
0.076529 0.029647 0.021948
0.018889 0.004651 0.035177
0.019089 -0.041539 -0.035839
0.002148 -0.059589 -0.014178
0.043532 0.060312 -0.036733
0.049764 -0.061271 -0.049532
-0.020513 0.020360 0.033950
0.000907 0.008362 -0.021787
-0.072095 0.016073 0.024183
0.059627 0.059990 -0.026065
0.000019 -0.051175 0.030553
0.072292 0.018159 0.027449
-0.083476 -0.015326 0.030439
0.085406 -0.044451 -0.006732
0.053453 0.060564 -0.002882
0.035743 0.059244 0.027786
0.000262 -0.033035 0.048917
0.020447 -0.040600 0.032186
0.030389 0.064781 -0.009179
0.059639 0.060105 -0.018581
-0.000287 -0.042057 -0.023153
0.035572 -0.020371 0.036799
-0.001900 0.019999 -0.021677
0.038961 0.058194 -0.041282
0.020512 -0.007293 0.035854
0.080221 -0.052820 -0.028884
0.081235 -0.058035 -0.030212
-0.004064 0.029036 -0.021707
0.009196 0.062203 -0.001035
0.089640 -0.009901 -0.001533
-0.080630 -0.041338 0.023193
-0.050307 -0.049899 0.034261
0.060803 0.055229 0.023947
0.030323 0.005471 -0.046527
0.089749 -0.066430 -0.001749
0.071570 -0.039831 0.024788
0.020989 0.006498 0.033685
0.062857 0.057400 0.017188
-0.023041 -0.038870 0.050078
-0.030953 0.039285 -0.008141
0.063203 0.059448 -0.016340
0.019607 -0.037880 -0.033316
0.024132 -0.020198 0.034211
0.021214 -0.033763 0.034705
-0.051834 -0.017248 0.045824
0.032264 0.062340 0.021188
0.079123 0.049302 -0.000896
-0.067289 -0.043310 0.031604
0.016992 0.065966 -0.009986
-0.014146 0.045474 0.007057
0.013985 -0.049667 0.027934
-0.013402 0.024636 -0.020417
0.065730 0.045628 0.026471
0.062999 0.026079 0.031791
-0.077290 -0.045454 0.023532
0.073289 -0.031775 0.025370
0.042416 0.062911 -0.017047
0.031826 0.060022 0.026398
0.029982 0.023864 -0.044983
-0.041932 0.034989 0.006194
0.046851 0.062288 0.003126
0.069370 0.031071 0.027606
-0.041945 0.034125 -0.011483
0.059523 0.055483 -0.036847
0.017467 0.059595 -0.029795
0.052736 0.061394 -0.019939
0.051117 0.017753 0.035910
0.010522 0.061337 -0.017374
0.015106 0.023476 0.031352
0.069005 -0.055105 0.028688
0.075546 0.049811 0.013304
0.065422 0.014928 0.031931
0.062336 0.059440 -0.017453
0.087134 -0.058034 -0.017474
0.049640 0.061848 -0.025056
0.014473 -0.025658 -0.032357
0.006636 0.028682 -0.026498
-0.089421 -0.022093 -0.002332
0.002582 -0.055962 -0.023700
-0.041833 0.001112 0.047213
-0.033884 0.006801 0.047895
0.004500 -0.061914 -0.020960
0.033698 0.056655 0.029512
-0.062369 -0.042000 0.039187
0.056927 0.060105 -0.018010
0.028263 -0.047545 0.031227
0.088261 -0.060000 0.002959
0.000669 0.048547 0.015653
0.024041 -0.014759 0.034256
0.058392 0.058426 -0.032946
-0.009353 0.023565 0.029628
0.021068 0.062077 0.019227
0.050582 0.054262 -0.042461
0.021439 -0.045570 0.030557
0.038632 0.059558 0.027066
0.021038 -0.064631 -0.042378
-0.050121 0.030825 0.017901
0.010404 -0.066432 0.014315
0.020298 0.006929 0.034583
0.063034 0.059149 0.006872
0.014115 -0.048333 0.028975
0.012687 -0.045678 0.033830
0.053928 0.058988 -0.034885
-0.086952 -0.032003 -0.020932
-0.001561 -0.053578 -0.000144
0.028999 -0.066432 -0.043468
0.016731 0.056969 0.021708
0.014059 -0.045045 0.033261
0.077887 -0.047528 0.018298
0.057022 0.000357 -0.048290
0.028984 0.063771 -0.028851
0.056368 -0.053078 0.033734
-0.087989 -0.021605 0.023514
-0.024866 -0.036808 0.048319
-0.029665 0.026848 0.028980
0.066268 0.055236 -0.030530
0.001376 -0.054603 -0.001469
-0.080474 -0.030597 0.030651
0.029962 0.065330 0.002264
-0.018227 0.027912 -0.020445
0.013509 0.008258 0.039733
0.064395 0.053715 0.023205
-0.087737 -0.003837 0.022294
0.068467 -0.066432 -0.043968
0.024448 -0.062768 -0.044313
0.019214 0.062660 -0.028825
-0.015261 0.025892 -0.020338
0.034957 0.064658 0.011218
-0.019342 0.023006 0.030508
0.011889 0.025277 -0.031460
0.015606 0.010639 0.036676
0.071438 -0.044657 0.024724
0.051916 -0.021346 0.037460
-0.057873 -0.011188 0.044511
0.075477 -0.055103 0.023404
0.013340 -0.042483 0.033917
0.055937 0.053517 0.028833
0.019386 -0.036217 -0.006132
0.079393 0.049194 -0.002004
-0.024444 0.030556 -0.019788
0.011620 -0.007574 0.042317
0.063310 -0.033983 0.031126
0.078639 0.034184 -0.030268
0.058340 0.060222 -0.022799
0.021038 -0.064631 -0.042378
0.039123 0.061100 -0.035960
0.081503 0.045839 -0.001738
-0.057949 -0.057455 0.025711
0.022083 -0.003124 0.034872
-0.049545 -0.061770 0.016149
-0.037602 0.034155 -0.017174
-0.078958 0.010417 0.026011
-0.006790 0.050865 -0.009104
-0.089600 -0.009345 -0.002432
0.013030 0.064453 -0.014222
0.027378 0.065716 -0.003061
0.058342 0.057464 0.021598
0.060391 -0.064611 -0.047671
-0.005823 0.016132 -0.020932
0.008322 -0.058858 -0.023755
0.072344 -0.050505 0.024767
-0.024866 -0.036808 0.048319
0.075252 0.051185 -0.023655
0.005235 0.047038 -0.023884
0.053878 -0.012153 0.037117
0.063655 0.045215 0.027858
-0.071736 -0.004436 0.037155
0.046004 -0.065731 0.035022
0.008118 -0.060172 0.016626
-0.079641 -0.041505 0.024433
0.013517 0.058336 0.017568
0.081714 0.032054 -0.025811
-0.022151 0.034621 0.021986
-0.004300 0.043349 -0.020632
0.037686 0.061356 0.023318
0.000019 -0.051175 0.030553
0.047750 -0.049198 0.034254
-0.043168 -0.031523 0.046575
-0.070990 0.005768 0.036644
-0.013815 0.037357 -0.019410
0.025779 -0.044912 -0.040716
-0.037458 0.034555 0.016221
0.061269 -0.064267 0.035079
-0.002408 -0.044365 -0.023131
-0.059647 -0.034433 0.042640
0.086254 -0.008829 -0.023393
-0.068617 0.024660 -0.002432
-0.055113 -0.052054 0.034037
0.016358 0.065089 -0.012542
0.086874 -0.054235 -0.006732
-0.042280 -0.062626 0.014224
0.008639 -0.047727 0.033365
-0.063817 -0.043169 0.034298
-0.024070 -0.059296 0.011765
0.080283 -0.060512 -0.032699
0.081159 -0.065731 0.015199
-0.055583 0.030039 0.015088
-0.074318 -0.017725 0.036188
0.002750 0.005112 -0.022942
0.068912 -0.058036 0.029897
0.019128 -0.039813 0.034475
-0.067549 -0.054949 0.016609
-0.021290 -0.040397 0.044496
0.058344 0.060538 -0.024060
0.000922 -0.056221 0.007210
0.043988 0.060085 -0.036541
0.059035 -0.063014 0.035721
-0.017224 0.040361 0.016419
0.023432 -0.018948 0.034340
0.031471 0.064538 -0.027175
0.081932 -0.052810 -0.026083
-0.024437 0.031373 -0.020172
0.000396 -0.052264 0.024527
-0.039797 -0.058158 0.028860
0.005570 0.058765 -0.000284
0.038668 0.062202 -0.034789
0.079736 0.035714 -0.027985
0.009499 -0.059597 -0.029623
0.081714 0.032054 -0.025811
0.080535 0.048071 -0.004809
0.018739 -0.040199 -0.035624
0.086679 -0.062261 -0.022092
0.003567 -0.059858 -0.019491
0.070451 0.007006 0.029694
0.069370 0.031071 0.027606
-0.011369 -0.053471 -0.020932
0.029721 0.065205 0.006172
0.015819 -0.059748 -0.033415
-0.001561 -0.053578 -0.000144
0.087012 0.016440 -0.017265
0.002067 -0.062164 -0.002697
0.061015 0.058442 -0.026998
-0.043773 0.008846 0.048645
0.019538 -0.038889 0.034600
-0.086173 -0.010721 0.022579
0.084376 0.041664 -0.004194
-0.073798 -0.028840 0.037273
0.047263 -0.062154 -0.049852
0.035572 -0.020371 0.036799
-0.032323 0.009170 0.049687
0.020200 0.063003 0.016158
0.007536 -0.047200 -0.024281
0.079510 0.048326 -0.017925
0.039827 -0.027598 -0.048701
-0.050719 -0.046693 0.037504
-0.007643 0.048544 0.007477
0.015463 0.013486 0.034004
0.077969 -0.048337 -0.030620
0.087916 -0.014280 0.006868
-0.054394 0.030721 0.012650
0.010588 -0.014107 0.043291
0.020175 0.006994 0.034672
-0.042541 0.035097 -0.002932
0.053453 0.060564 -0.002882
0.006764 0.046828 -0.024803
0.085254 -0.059826 0.011890
-0.001973 0.015864 -0.021424
0.004955 0.004578 0.043244
0.003130 0.051937 -0.020216
-0.036827 0.028651 0.025794
0.079086 0.048983 -0.016897
0.074707 -0.066432 -0.035348
0.071836 -0.059800 -0.040753
0.009072 -0.066432 0.012195
-0.034698 -0.010211 0.047328
0.016199 -0.040038 0.034244
-0.002028 -0.054449 -0.023180
0.006933 -0.018243 -0.026748
-0.073582 0.006929 0.033946
0.013517 0.058336 0.017568
0.048713 0.059325 0.024380
0.064997 0.058974 -0.008440
-0.088630 -0.006432 0.017783
0.016241 0.063553 0.011669
0.035821 0.064548 -0.005663
0.041306 0.063008 -0.031292
-0.038986 -0.062606 0.013525
0.079530 0.049110 -0.003966
0.047861 0.041536 0.033225
0.077934 0.050113 -0.016961
0.079934 0.042766 0.011528
0.066430 0.057664 -0.022054
0.002134 -0.058847 0.003531
-0.023078 0.029964 -0.019787
0.021137 -0.038586 0.032628
0.063879 -0.062001 0.033718
0.049697 -0.032739 -0.047396
-0.073846 -0.049941 0.018272
0.042546 0.060498 -0.036645
-0.051795 0.028854 0.023956
0.006006 0.016168 0.033823
0.019561 0.064578 0.008929
0.037572 0.063827 -0.006021
-0.001510 -0.055629 -0.011791
-0.016255 0.045860 -0.008444
-0.050307 -0.049899 0.034261
-0.061634 -0.004151 0.044172
0.056652 -0.031829 0.034161
-0.084420 -0.022160 0.028681
0.050264 0.061891 -0.020797
0.089539 -0.061392 -0.006733
0.006875 -0.011704 -0.025757
0.079551 -0.066432 0.022304
-0.006250 0.050312 -0.012824
-0.054088 -0.043259 0.039498
0.016389 0.065163 -0.013052
0.006191 -0.047261 -0.020944
0.006286 -0.007183 -0.024964
0.021196 0.064575 -0.022410
0.039985 0.045488 -0.044676
0.047750 -0.009031 -0.049994
0.079736 0.035714 -0.027985
-0.031665 -0.046065 0.039609
-0.017003 0.022611 0.030460
-0.043391 -0.003310 0.046851
0.029939 -0.066432 0.031616
0.006990 -0.028509 -0.026327
0.039554 -0.064392 0.037279
0.024068 0.027111 0.032338
-0.005944 0.021939 0.031696
0.020878 0.065078 0.009600
0.064338 0.059100 -0.011704
0.017200 -0.054281 0.026411
0.028340 -0.061443 -0.046025
0.075424 -0.012267 -0.038844
0.056562 0.055765 0.026531
-0.047299 -0.048398 0.039920
0.059468 0.059756 0.001652
-0.071220 -0.010797 0.038622
-0.064433 -0.012793 0.043401
0.008083 -0.024402 -0.023212
0.071616 -0.063024 0.029420
0.004155 -0.001193 0.048381
-0.042294 0.034720 -0.010359
-0.036405 0.017321 0.038456
0.020005 -0.003996 0.037371
0.006788 -0.051531 0.025379
-0.040801 0.033968 -0.013868
-0.000069 0.010265 -0.021637
0.011623 -0.056066 0.022284
0.004121 0.019005 0.032842
-0.017752 -0.055871 0.019785
0.012298 0.063091 0.007338
0.046321 0.061469 -0.003601
0.014073 0.065077 -0.009339
0.043834 0.029552 -0.047225
-0.029778 0.039922 -0.006132
0.043834 0.029552 -0.047225
0.079674 -0.012669 -0.034452
0.069363 0.056235 -0.023200
-0.050441 -0.044175 0.039959
-0.066410 -0.011971 0.044329
0.022433 -0.024337 0.034869
0.045973 0.056078 0.030142
-0.071642 0.020084 0.024135
0.072733 0.052529 -0.026162
-0.039907 -0.061310 0.020418
0.073368 0.052815 -0.023879
-0.088955 -0.022491 0.016748
-0.087078 -0.000543 0.017888
0.072261 -0.036890 0.024669
0.088811 -0.062768 -0.015210
0.017359 0.065262 0.002333
0.051803 0.033971 -0.046188
-0.055685 -0.038744 0.042235
-0.052112 0.017395 0.039228
0.020327 -0.036980 0.034693
0.086725 -0.053917 -0.006132
-0.041232 -0.060232 0.024195
0.016897 0.008764 0.035171
0.051375 0.028452 -0.046987
-0.042680 0.032688 -0.002432
0.059897 0.055501 0.024325
0.074659 0.040320 -0.033020
-0.084649 -0.007752 0.028280
0.085517 -0.040120 -0.006732
-0.036656 0.033181 0.019663
0.016778 -0.030926 -0.032554
0.080939 0.046258 0.002057
-0.088285 -0.011461 0.023510
0.074085 -0.049147 0.022881
0.084953 -0.045001 -0.015170
0.007764 0.040005 -0.026534
0.086434 -0.050045 -0.008467
0.075795 -0.059800 -0.037404
0.074613 0.041024 0.020512
0.037079 0.049479 -0.043530
-0.040473 -0.014580 0.046846
-0.021362 0.027993 -0.002432
-0.076696 0.009495 0.025317
0.026254 0.064102 0.014980
-0.023161 0.006138 0.048365
0.081732 -0.039831 0.012071
-0.054377 0.027832 0.026172
0.084323 -0.023303 -0.027419
0.022795 -0.009030 0.034508
-0.057077 -0.060659 -0.002332
0.085848 -0.064608 -0.024608
-0.000204 0.000356 0.047599
0.084450 0.012658 0.012907
0.073750 0.052995 -0.021957
0.005416 -0.051508 0.025524
0.020994 -0.034473 0.034764
0.084241 0.032910 -0.019188
-0.043610 0.014285 0.043996
-0.008833 -0.053935 -0.002332
0.029939 -0.066432 0.031616
0.008721 0.051604 0.018878
-0.025791 0.041450 -0.007994
-0.039515 0.017154 0.041643
-0.057522 -0.035337 0.043343
0.023166 0.002357 0.033609
0.006618 -0.009007 -0.025367
-0.032758 -0.028679 0.047448
-0.000411 0.010832 -0.021543
0.003197 -0.058160 -0.020932
-0.029829 0.033251 -0.019480
0.027395 0.065970 0.000942
0.022179 -0.029043 0.034259
0.034916 0.064620 -0.023435
0.086689 -0.066432 -0.011955
0.039049 0.063133 -0.020595
0.047976 0.059322 -0.036495
-0.043610 0.014285 0.043996
0.080178 -0.036964 0.015508
0.001219 0.008265 -0.022219
0.061923 0.055970 -0.033907
0.034198 0.061863 0.021995
0.018883 0.064755 0.007845
0.003707 -0.060333 -0.019453
-0.067808 0.021786 0.024671
0.008828 -0.015856 0.044069
0.075856 0.051639 -0.019709
-0.034887 -0.011812 0.047338
-0.029076 0.032700 -0.019666
0.006154 -0.006432 -0.020932
0.005898 -0.028961 0.045069
-0.064911 -0.051422 0.025002
0.018270 0.005388 0.035645
-0.062487 0.026954 0.018325
-0.050416 0.011076 0.042223
0.011914 -0.040845 -0.028811
0.010487 -0.024328 -0.028922
0.009826 -0.051508 0.025648
0.008287 0.052564 -0.023739
-0.026937 0.031949 -0.019933
-0.012897 -0.054339 0.017375
0.010666 -0.024754 -0.032233
0.032585 0.055072 -0.041170
-0.018930 0.025016 0.029530
0.082651 -0.058144 0.015802
0.005668 -0.055606 0.017565
0.059698 0.059845 0.013259
0.025764 -0.002928 0.034227
0.068423 -0.066432 0.031735
-0.086594 -0.030077 0.022512
-0.078879 -0.014763 0.031910
0.085363 0.034941 0.001806
0.042070 0.056401 0.030118
0.045381 0.062788 0.005953
-0.000632 -0.053784 -0.001718
-0.075776 -0.048396 0.016510
-0.042722 0.028681 0.027463
0.046861 0.062282 0.006345
0.009743 -0.013964 0.043477
-0.088440 -0.014076 0.023461
0.047279 -0.054770 -0.047784
0.057590 0.048489 -0.042081
0.029210 0.061196 -0.035877
0.061747 0.059723 -0.015699
0.026720 0.049954 -0.039863
0.047416 -0.031945 0.035506
-0.020122 0.043827 -0.009335
-0.008228 -0.047417 0.034268
0.003738 0.002565 -0.023466
-0.057635 0.000925 0.045064
-0.049477 -0.061436 0.017980
-0.056327 0.013973 0.040588
-0.083940 0.005567 0.022820
-0.036951 0.033819 -0.017420
0.023372 0.062483 -0.031575
0.040884 -0.040198 -0.045934
-0.037575 0.034390 -0.017170
0.007036 -0.065731 0.011052
-0.030007 0.032401 -0.019260
0.010343 -0.026973 -0.027160
0.062004 0.056906 0.019411
0.057488 0.060403 0.004184
0.070868 0.053285 0.015654
0.019214 0.062660 -0.028825
-0.087279 -0.027967 0.022433
0.034270 0.064440 -0.007118
-0.042262 0.026315 0.027582
-0.077097 -0.024647 0.032585
0.050456 0.061746 -0.029460
0.086228 -0.036888 -0.001833
0.065092 0.058847 -0.004037
-0.038267 0.034904 -0.016363
0.067157 -0.039828 0.027959
0.075119 -0.021470 0.026793
0.087433 -0.000405 0.007110
-0.024805 -0.058570 0.019814
0.087052 -0.032135 0.000150
0.044661 0.053315 0.031180
0.001734 -0.060579 -0.005161
-0.021685 -0.036399 0.048410
0.082032 0.045907 -0.012035
-0.058264 0.004685 0.043053
0.050618 0.058937 -0.036301
0.003736 -0.061788 0.006380
0.042088 0.062681 0.019928
0.077400 0.049596 0.009091
0.034647 0.064883 -0.005598
0.000554 -0.057334 0.000288
0.083543 0.043606 -0.008878
-0.055624 0.021346 0.030190
-0.014297 -0.037103 0.049978
0.086311 0.034699 -0.006132
0.003691 -0.052004 -0.020936
-0.050789 -0.038112 0.047695
0.019745 0.008224 0.034540
0.038451 -0.040080 -0.045560
0.015902 -0.039425 -0.033016
0.013762 -0.065829 -0.031827
-0.056654 -0.022500 0.044746
0.033385 -0.038452 -0.044424
0.085758 -0.044170 -0.009972
0.049261 -0.021335 0.037742
0.013378 0.012513 0.034461
-0.021783 0.030171 -0.020380
0.001810 -0.053929 0.017414
-0.036896 -0.061238 0.019730
0.051861 0.058581 -0.035926
0.059549 0.056474 -0.035114
-0.030677 0.034541 -0.018423
0.011652 -0.024366 -0.030603
0.063663 0.059370 -0.001345
0.060642 0.054595 -0.037576
0.007299 -0.045102 -0.021170
0.072154 0.053838 0.011377
0.015892 -0.061784 -0.034213
0.002582 -0.055962 -0.023700
0.009639 -0.001032 0.042838
0.043389 0.062951 -0.025196
-0.055376 -0.058940 0.023119
-0.050538 0.005374 0.046204
0.045658 0.062523 0.006548
-0.015839 0.041895 0.014563
-0.003055 -0.054773 -0.014474
0.003684 -0.000337 0.048499
-0.077825 -0.039572 0.028444
-0.037894 0.027419 0.029135
0.040349 0.060169 0.025714
0.068222 0.056400 0.011215
0.032094 -0.053493 0.032622
-0.084412 -0.028024 0.022780
-0.052529 0.028209 0.026365
0.079481 0.049112 -0.004237
0.022170 -0.027942 0.034534
0.009565 -0.055979 -0.028246
-0.008558 -0.051018 -0.020932
0.014134 -0.044774 0.033992
0.046507 0.060452 0.023743
0.010364 0.062210 -0.014639
-0.022458 0.008927 0.045900
-0.047715 -0.030572 0.046562
-0.076077 -0.048496 0.012532
-0.047297 -0.038885 0.048179
-0.086785 -0.032445 -0.002432
0.036093 -0.044770 -0.044927
-0.037174 0.031883 0.021455
0.035335 0.064389 0.008706
-0.088285 -0.011461 0.023510
0.002537 -0.057297 -0.020932
0.051734 0.056452 -0.040562
0.014789 -0.032663 -0.033656
-0.085590 -0.032813 0.022548
0.006889 -0.061876 0.014149
0.001219 0.008265 -0.022219
0.089100 0.002152 -0.000001
-0.021564 0.029765 -0.020354
-0.004070 -0.052753 0.021318
0.015045 0.011028 -0.036239
0.049733 -0.028394 0.036502
0.076405 0.049438 -0.023044
0.065063 0.054453 -0.033457
0.045056 -0.064563 -0.050097
0.006620 -0.024405 -0.022090
-0.018228 0.027765 -0.020327
0.002172 -0.037559 -0.022935
0.078321 0.049219 -0.019845
0.019187 0.010375 0.033302
0.076540 -0.023413 -0.037580
0.017635 0.063454 0.012794
0.079836 -0.050672 -0.028627
0.077239 -0.004460 0.024764
-0.043032 -0.063081 -0.002332
0.085737 -0.049147 -0.006132
-0.008647 0.021904 0.031412
0.008034 -0.034257 -0.022065
0.080926 -0.005503 0.020490
0.030537 0.062683 -0.032586
-0.073364 0.017702 0.025148
0.006015 -0.024725 -0.021249
0.075707 0.050625 0.011816
0.018462 0.005965 0.035167
0.079552 0.049102 -0.008299
0.000922 -0.056221 0.007210
0.001130 -0.058137 0.000183
-0.083428 -0.035604 0.023596
0.086364 -0.037388 -0.006132
0.020134 -0.004484 0.036018
0.014705 -0.059646 -0.032078
0.064912 0.058485 -0.020925
0.028474 0.064554 0.013001
0.082650 -0.060395 -0.029266
-0.079457 0.013479 0.018411
0.052528 -0.043104 0.033310
0.012617 -0.052835 0.025172
-0.062811 0.027891 -0.002332
0.008998 -0.002857 -0.029296
0.089100 0.002152 -0.000001
0.045344 -0.024442 0.037600
0.013559 0.001768 0.039716
0.047355 -0.031544 -0.047864
0.069276 -0.007021 0.031072
0.035377 0.063903 0.005913
0.062309 0.059517 0.005617
0.065422 0.014928 0.031931
0.061110 -0.054206 -0.044762
0.082600 -0.036757 0.011170
-0.006180 0.018174 -0.020483
0.045651 0.062408 0.002687
0.030142 0.046077 0.031048
0.070034 -0.025700 0.030094
-0.066540 0.025520 0.013075
0.037663 0.063399 -0.006337
0.070178 0.052606 0.018069
0.055194 0.060403 -0.005132
0.054658 0.055728 0.027776
0.012889 0.015456 0.033039
-0.029885 0.032667 -0.019495
0.052369 0.059597 -0.035024
-0.003315 -0.046252 -0.023458
-0.061962 0.026507 0.021555
0.019662 -0.058803 0.027423
0.020452 0.063871 -0.025882
-0.077454 -0.045176 0.023559
0.067716 -0.066432 0.028608
0.075119 -0.021470 0.026793
0.042645 -0.035518 0.034489
0.074845 -0.007139 0.027015
0.017534 -0.052603 -0.032149
0.001973 0.006872 -0.022564
0.063703 -0.064083 0.034074
0.060405 0.050618 -0.040195
0.039298 0.001087 -0.049156
0.054264 0.060957 -0.019267
-0.061056 -0.030710 0.045688
0.086649 -0.033024 -0.006132
-0.078468 0.000450 0.028970
-0.039515 -0.063088 -0.020932
0.013762 -0.065829 -0.031827
-0.065360 0.011182 0.034446
0.010087 0.001931 0.041826
0.065308 0.042845 -0.039810
0.027855 -0.027602 0.034048
-0.009232 0.049104 -0.010972
-0.021008 0.029052 -0.019962
0.023491 -0.053904 0.029350
-0.037161 0.027977 0.028158
0.012889 0.015456 0.033039
0.043125 0.062047 -0.005452
0.057839 0.053841 0.027764
0.044190 -0.037214 -0.046556
0.085953 0.017711 0.007844
0.020221 0.063213 0.015861
-0.088796 -0.004984 -0.002332
-0.032521 0.033683 -0.019013
0.013853 -0.065731 -0.006132
-0.082929 0.007551 0.022840
0.073260 0.055123 -0.004802
0.018363 0.047416 -0.034662
-0.078624 -0.033262 0.027610
0.007608 0.022574 -0.027344
0.029367 0.064989 -0.017598
0.027094 0.065471 -0.001393
0.007388 -0.020340 -0.023673
0.019552 0.010571 0.033098
0.017826 0.062799 0.015311
0.035021 0.064343 0.004508
0.010616 -0.041618 0.035759
-0.083428 -0.035604 0.023596
0.020398 -0.048830 0.029420
0.072940 0.050849 0.016254
0.085494 0.031412 0.003841
0.022808 0.044492 0.029179
-0.086399 -0.013873 0.022553
0.016472 0.065395 -0.010546
0.058472 -0.064626 0.036019
0.016464 0.063944 0.010372
-0.028290 0.039726 -0.011468
0.017206 0.064960 -0.015733
-0.000383 -0.056555 -0.010960
-0.061763 -0.058544 0.012118
0.006418 -0.022806 0.048100
0.010427 -0.029943 -0.026191
-0.029822 0.009861 0.045485
0.017922 -0.039765 -0.031286
0.027218 -0.034860 -0.042495
-0.000057 -0.037302 0.042930
-0.006320 -0.052944 0.024932
0.000135 0.053825 -0.014476
-0.060359 0.028494 0.014637
-0.073251 -0.020979 0.036821
-0.078624 -0.046211 -0.020932
0.009533 0.055744 -0.022982
0.084886 0.022267 -0.021769
0.017450 0.011968 0.033501
-0.057522 -0.035337 0.043343
0.013538 -0.030250 0.042522
0.041593 -0.032538 0.035144
0.019394 -0.044796 0.030672
0.069142 0.055681 0.011837
0.012320 0.064431 -0.001224
0.068854 0.054581 0.016101
0.007812 -0.014302 -0.023443
-0.047001 0.011700 0.045660
0.055391 0.058031 0.022822
0.085560 -0.032599 0.006063
-0.045956 0.008713 0.048409
0.047473 0.059532 -0.036649
-0.018824 0.007636 0.050105
0.011718 0.061805 0.009677
0.021781 0.003752 0.033757
0.051308 -0.066432 0.037561
0.070387 -0.023302 -0.042583
-0.079920 -0.023035 0.029974
0.017621 0.008112 0.034405
0.007860 -0.027093 -0.023393
-0.031917 -0.061342 0.015548
0.037824 0.022161 0.035301
0.019610 0.008310 0.034611
-0.075298 -0.034291 0.030645
0.073005 0.052384 0.013635
0.085947 -0.066432 0.003579
-0.075981 0.012569 0.027677
0.044677 -0.066432 0.034848
-0.007486 0.022485 -0.020922
0.020743 -0.017934 0.036138
-0.019710 -0.046144 0.041803
0.029792 0.059993 0.026019
-0.004367 0.050280 -0.015610
0.056424 -0.066432 0.033684
0.075329 0.051998 0.007900
0.043912 0.062001 -0.001600
0.029448 0.063522 0.016778
0.054145 0.061352 0.012516
0.012260 0.030968 0.029507
-0.076235 -0.047348 0.019879
0.011492 0.015103 0.034699
-0.063752 -0.021399 0.043603
0.025595 -0.020169 0.034320
0.081882 0.026861 0.014957
0.073314 0.051484 0.014892
0.038711 0.061171 0.023592
0.069974 0.035209 -0.038626
0.006926 -0.024904 -0.026992
0.001977 -0.066432 -0.008175
-0.012128 0.025922 -0.020704
0.010182 -0.048221 0.030221
0.008329 -0.019987 -0.026223
-0.016726 0.027253 -0.020596
0.005865 -0.059546 -0.025192
-0.002091 -0.054828 -0.018160
-0.065163 0.024990 0.021225
0.020749 -0.036622 -0.037927
0.040425 0.021695 0.035632
0.072699 -0.066432 -0.041077
-0.000431 0.000473 0.047624
0.011257 0.063703 -0.013314
-0.054866 -0.051598 0.030756
0.046631 -0.025564 -0.049675
-0.050682 -0.058209 0.027327
-0.029775 0.038060 0.011743
0.066373 -0.060512 -0.044443
0.007454 -0.019632 -0.027807
-0.088893 -0.006747 0.012691
0.010830 -0.040168 0.040139
0.035761 0.064555 -0.006629
0.050492 0.061714 0.011770
0.006149 -0.056948 0.016197
0.010774 0.019233 -0.030754
0.020154 -0.024089 0.036026
-0.037328 -0.061731 0.017929
0.084910 -0.032260 0.008302
-0.048303 0.021210 0.032852
0.036963 -0.066430 0.036955
0.069038 -0.040197 -0.038941
0.037813 0.057816 -0.041439
0.005499 -0.002867 -0.024607
0.002294 -0.036234 -0.022539
-0.084431 -0.035052 0.022769
0.022903 -0.023360 0.034351
-0.015208 0.024413 0.029533
0.030549 0.064130 -0.026706
-0.067700 0.022717 0.024601
0.045079 0.062171 0.003223
0.065329 0.048077 0.025891
0.063142 0.044314 -0.040639
0.082405 0.043851 -0.015903
-0.012421 0.006304 0.049946
0.045056 -0.064563 -0.050097
0.083015 -0.039831 0.009309
0.048334 0.062371 0.008479
0.059224 0.047974 0.029297
0.037137 0.063555 -0.005230
-0.009239 -0.053855 -0.023933
0.086151 -0.037836 -0.009834
0.062066 -0.036977 0.031019
0.020571 -0.015765 0.036534
0.018345 0.062082 0.017303
-0.008685 0.020773 0.031409
0.044788 0.060027 0.024396
0.069967 -0.044765 -0.038145
-0.062479 0.027448 0.015347
-0.041891 0.034922 -0.011354
0.013277 0.064276 -0.015520
0.075128 0.052135 -0.020403
0.085537 -0.028531 0.010009
0.079781 -0.054744 -0.030440
-0.000124 -0.055632 0.006590
0.064913 0.058248 -0.020208
0.086540 -0.066432 -0.000412
0.018433 0.010387 0.034417
0.048490 -0.066432 -0.047053
0.006889 -0.061876 0.014149
0.010466 0.063783 -0.006132
-0.001064 -0.055629 -0.014763
-0.055585 -0.024339 0.045436
-0.033827 0.034270 -0.018486
0.081517 -0.045915 -0.024595
-0.080651 0.010827 0.023195
-0.023886 0.030808 -0.020208
0.057163 0.049936 0.029604
0.045192 0.061966 0.001342
0.011464 0.064458 -0.008162
0.009060 -0.059017 -0.024573
-0.045842 0.023077 0.034746
0.067365 -0.036915 0.028251
-0.030037 0.039165 -0.011001
0.089279 -0.062768 -0.012620
-0.013620 0.047274 -0.003137
-0.036889 -0.030740 0.047160
0.005745 0.058196 -0.012824
0.012922 -0.037156 0.037717
0.051803 0.033971 -0.046188
0.052705 0.061374 -0.025017
-0.057875 0.020665 0.029920
0.062100 0.051799 -0.038713
0.082251 -0.030662 -0.027346
0.012016 0.018244 0.031599
-0.025695 -0.015576 0.048285
0.019026 -0.033513 0.034842
0.011053 -0.059459 -0.031671
-0.020170 0.033677 0.023254
-0.061784 0.017493 0.031174
0.076109 -0.063081 0.025700
-0.067219 -0.055599 0.012590
-0.085026 -0.019294 0.024256
0.030970 0.057250 0.028634
0.068048 0.056591 -0.023448
0.005091 -0.061946 -0.022529
0.079214 0.045379 0.010887
-0.039192 0.033698 -0.002332
-0.071820 -0.049429 0.025317
0.003544 0.002757 -0.023177
0.016054 0.062503 0.014297
0.022988 -0.013653 0.034573
0.070193 -0.012806 0.030580
-0.012130 0.009479 0.046901
0.006928 -0.060923 -0.021088
0.079497 0.047250 0.008167
0.043125 0.062047 -0.005452
0.045941 -0.066432 0.034868
-0.051545 0.031591 0.012302
0.087860 -0.022080 0.007149
0.082633 0.045271 -0.002827
0.022579 0.051904 0.027486
0.014403 -0.011104 0.040688
-0.055650 -0.024227 0.044925
0.033969 -0.044198 -0.044301
0.017162 -0.033095 -0.032082
0.045021 0.061680 -0.007734
0.001662 -0.054766 0.007416
0.027773 0.065184 0.008148
0.019342 0.047130 0.027289
0.083235 -0.063510 0.017031
0.023322 -0.000094 0.033723
-0.034122 0.025007 0.032186
0.043679 -0.044152 -0.046076
0.072269 -0.055282 0.026368
0.070801 -0.004506 -0.042278
0.000987 -0.050590 0.032390
-0.017457 0.022412 0.033365
0.020658 -0.066432 -0.038644
-0.085044 0.003381 0.022690
-0.002568 -0.055187 -0.009182
0.017231 0.063856 -0.023712
-0.047461 -0.005330 0.046092
0.061173 0.057951 -0.031365
0.036132 0.060110 -0.038615
-0.054507 -0.047517 0.035364
0.057848 0.057449 0.021685
0.007306 -0.024984 -0.021854
0.005322 0.012771 -0.025180
0.075707 0.050625 0.011816
-0.014059 0.035438 0.023065
0.058700 0.055333 0.025684
0.011686 -0.046710 0.032104
0.008508 -0.029834 -0.023642
0.060112 -0.013165 0.035506
0.000084 -0.052007 -0.020931
0.007729 -0.063178 -0.027938
0.000037 -0.056066 0.004674
-0.081431 -0.042437 -0.002332
0.008511 0.058832 -0.017983
0.049928 0.062095 -0.020388
0.017892 -0.066431 0.027768
0.006075 -0.055073 -0.024414
0.006946 -0.041674 -0.023741
-0.005429 0.017569 0.037205
0.010703 0.015534 0.034535
-0.075677 -0.009374 0.034641
0.003837 -0.046430 -0.023067
-0.067006 -0.050209 0.024763
0.023232 -0.011386 0.034282
0.003214 0.003936 -0.023175
0.061949 0.043988 -0.041329
-0.072496 -0.017620 0.037738
0.022921 -0.024552 0.034242
0.022072 0.064526 -0.023265
0.017675 -0.066432 -0.035830
0.081649 0.039632 0.009923
0.009196 0.062203 -0.001035
-0.001973 0.015864 -0.021424
0.086970 -0.052822 -0.009310
0.015746 0.065302 -0.009473
-0.001772 -0.055673 -0.006521
0.067798 -0.064618 -0.044297
0.052038 -0.035385 -0.046473
0.050254 -0.008361 0.037546
0.060013 0.020046 0.033642
-0.084266 0.007288 -0.002332
0.020701 0.064279 0.010314
-0.042541 0.035097 -0.002932
0.028340 -0.061443 -0.046025
-0.044620 -0.052100 0.036542
0.028635 0.065310 -0.018896
0.026065 0.065757 0.007756
0.011138 0.063158 0.004134
0.066430 0.057664 -0.022054
-0.002012 -0.043677 -0.022981
0.038963 -0.032281 0.034938
-0.061116 -0.027220 0.044301
0.083331 0.043006 0.000753
0.017383 0.061626 0.017280
0.085758 -0.044170 -0.009972
0.018531 -0.066432 0.024604
-0.082290 -0.038921 0.022997
0.087091 -0.066432 -0.006132
0.010404 -0.066432 0.014315
0.007967 -0.020386 -0.024449
-0.043468 0.028673 0.027420
0.012035 0.064469 -0.008337
0.003410 -0.033904 -0.022756
0.085980 0.027852 0.004076
0.073642 0.048374 -0.029805
-0.062369 -0.042000 0.039187
-0.031029 0.032865 -0.019259
0.074697 -0.060109 0.026257
-0.023907 0.042287 -0.002574
-0.060337 -0.056655 0.025452
-0.035727 0.036762 -0.012475
0.029617 0.065194 -0.018667
0.075669 0.052929 0.003437
0.056146 -0.060399 -0.048306
0.035821 0.064239 -0.005285
-0.052956 -0.003067 0.045861
0.074707 -0.066432 0.023084
0.039459 -0.031244 -0.047474
0.058044 0.052545 0.028337
0.043174 0.062533 -0.022089
-0.058264 0.004685 0.043053
-0.037894 0.027419 0.029135
0.049790 0.059116 0.024282
-0.086876 0.000764 0.013036
-0.038088 0.036441 0.002871
0.002089 -0.061767 -0.010015
-0.024321 0.030677 -0.020018
0.060803 0.055229 0.023947
0.028783 0.060528 -0.036360
0.027805 -0.047130 -0.041986
0.003643 -0.057397 -0.023634
-0.039496 0.029016 0.025283
0.013754 -0.065832 -0.006132
-0.040629 0.034768 -0.014291
-0.012264 0.039393 0.019881
0.061792 0.058424 -0.028712
-0.003357 -0.054562 -0.017339
-0.085057 -0.035593 0.013024
-0.086946 -0.029142 0.022453
0.072733 0.052529 -0.026162
0.062476 0.059591 -0.014185
0.017140 0.008746 0.034864
0.020571 -0.015765 0.036534
0.013953 -0.066430 0.024081
0.041233 0.063627 0.007760
-0.070474 0.023360 -0.020932
0.010157 -0.063288 -0.031570
-0.085434 -0.031169 0.023810
-0.013853 0.046540 -0.011187
0.044007 -0.025109 -0.049711
-0.079015 -0.043426 0.023371
0.025694 -0.025447 0.033873
0.005427 -0.057781 -0.020942
0.018591 -0.066432 -0.036676
0.037507 0.059550 0.026921
