0.049323 0.028567 -0.019286
-0.000991 0.075514 -0.032277
-0.036473 -0.070557 0.096669
-0.050789 0.006540 0.027200
0.016953 -0.072453 0.027365
-0.014414 -0.089748 0.059394
-0.054734 0.031281 -0.047780
-0.051470 0.006213 -0.023596
0.020161 -0.023841 -0.029360
0.000143 0.054220 -0.020366
-0.024801 -0.086343 0.075941
-0.034396 -0.080381 0.058728
-0.054215 -0.008052 0.039905
0.018988 -0.017360 -0.057402
-0.029356 -0.050506 0.109860
0.031863 0.031339 0.022928
-0.036351 -0.004046 -0.114758
-0.053620 0.028702 -0.029301
0.029349 -0.074869 0.038200
-0.019805 -0.078376 0.035702
-0.009022 0.071487 -0.030358
-0.024781 0.086291 -0.090021
-0.054623 -0.011396 0.046764
0.035509 0.079204 -0.113933
-0.054082 0.030320 0.058363
-0.019261 0.039221 -0.014947
-0.029639 0.083520 -0.073917
0.051653 0.003764 0.025553
0.002246 -0.073100 0.024662
0.000128 -0.054893 0.009919
0.001939 0.041114 -0.014205
-0.022602 -0.082074 0.093040
-0.038615 -0.069652 0.094456
0.015359 -0.054971 0.013216
0.049682 0.006667 -0.034287
0.019343 0.084854 -0.047886
0.000706 0.030342 0.011370
0.033188 0.068285 -0.036309
0.055004 -0.020560 0.062807
-0.034462 -0.055121 0.027604
-0.050489 0.013217 -0.050743
-0.010756 -0.070767 0.113161
0.019343 0.084854 -0.047886
0.000273 -0.021604 -0.052827
-0.005602 -0.059308 0.117136
-0.038248 0.032290 -0.013434
0.016778 -0.063136 0.020422
0.050098 -0.032014 0.088591
0.048536 0.063084 -0.102844
-0.027562 0.035579 -0.013663
0.052394 -0.040065 0.069885
-0.031910 -0.083004 0.069884
-0.036291 -0.070388 0.039903
-0.008573 -0.058397 0.014123
-0.023603 0.028610 0.015928
-0.016091 0.068585 -0.029903
0.049500 0.010994 0.015912
-0.054999 0.037406 -0.058083
0.023017 0.076719 -0.038764
-0.012226 0.030434 0.013247
-0.048985 -0.026135 0.026759
0.053729 0.040627 -0.039065
0.042586 0.065557 -0.042299
-0.054217 0.027950 -0.111934
-0.002386 -0.057894 0.012797
0.037562 -0.021084 -0.010193
-0.053597 -0.015343 0.029213
0.014042 -0.085281 0.044270
0.054788 -0.009942 0.056103
0.052500 0.030302 -0.027692
-0.013694 0.090477 -0.123501
-0.002761 0.084296 -0.040338
-0.053183 0.026053 -0.024894
0.033282 0.030457 -0.008479
-0.047146 0.014636 0.021737
0.011573 0.037780 -0.012619
-0.046516 -0.069514 0.066477
-0.042782 -0.004706 -0.033879
0.040249 -0.073769 0.052626
-0.009274 -0.072816 0.025322
0.042911 -0.014775 -0.010537
0.039273 -0.076932 0.060885
0.029658 0.027550 0.018781
0.002349 -0.061574 0.015873
-0.025139 -0.027676 0.117326
-0.034154 -0.045884 0.019136
-0.046428 0.036689 0.097996
-0.012216 -0.067615 0.022029
-0.044961 0.068766 -0.054511
0.005234 -0.078162 0.030282
-0.012647 -0.019952 -0.052817
0.050176 0.012932 -0.053920
0.029462 -0.025078 -0.015601
-0.011400 -0.070214 0.113368
-0.023218 -0.033669 0.117165
0.038428 -0.003563 -0.070216
0.005234 -0.078162 0.030282
-0.010520 -0.042052 -0.002657
-0.017345 0.030453 0.014783
0.035611 0.068566 -0.038161
-0.054129 -0.005591 0.025314
-0.002033 0.082707 -0.038432
0.046943 0.003599 -0.040862
0.035740 -0.056370 0.030089
0.038126 -0.016660 -0.017759
-0.015302 0.079311 -0.037956
0.053344 0.001349 0.043596
-0.051657 -0.040728 0.077297
-0.028216 -0.037575 0.002816
-0.054784 0.029844 -0.041325
-0.038121 -0.078064 0.061879
-0.051406 0.056735 -0.088560
-0.017677 -0.082250 0.040499
-0.034884 -0.019393 -0.018422
-0.041475 -0.034220 0.017664
0.001036 0.087398 -0.044741
-0.032857 -0.013109 -0.038650
0.029179 0.029934 -0.006091
0.000323 0.028419 0.008624
0.048434 0.007846 -0.046627
-0.013530 0.090510 -0.090086
-0.039532 0.045273 -0.026403
-0.052990 -0.001359 0.032262
0.048114 0.010581 -0.115427
0.046551 0.066501 -0.059004
-0.043290 0.020322 0.011044
0.053779 -0.020037 0.041493
0.007608 -0.041825 -0.003780
-0.048652 -0.005154 -0.012377
0.012625 -0.088785 0.084021
0.039321 0.073522 -0.049265
-0.002240 -0.086435 0.042902
0.024048 -0.086544 0.076891
-0.054168 0.027154 -0.056082
0.031008 -0.063411 0.029825
-0.027936 0.030587 0.020032
0.045667 0.006312 -0.098982
-0.053220 -0.018152 0.032979
0.035361 0.052175 -0.028242
0.052394 0.051769 -0.045957
-0.050404 0.013808 0.037326
0.026465 -0.061764 0.108947
0.005960 0.033498 0.013480
-0.048237 0.062905 -0.051262
-0.025013 -0.070573 0.029769
-0.039819 -0.042871 0.024506
-0.003512 -0.074952 0.026555
0.042089 0.029199 0.031716
0.013043 0.083513 -0.041930
0.036974 -0.079189 0.073667
0.012647 -0.022235 -0.041903
0.047280 0.017146 0.007880
0.022887 0.058517 -0.026432
-0.002024 0.036689 0.123475
-0.013966 -0.070770 0.112261
-0.024511 -0.014188 -0.064449
-0.054997 0.036689 0.068905
-0.001969 0.036018 -0.010546
-0.011763 0.034441 -0.009607
-0.026666 0.069731 -0.034140
0.029048 -0.049596 0.017147
-0.052273 0.002559 0.034319
0.054828 0.032496 -0.057555
0.008666 0.027722 0.006831
-0.019272 -0.036678 -0.005886
-0.003731 -0.091993 0.064836
-0.033177 0.036689 0.112391
-0.007735 0.027754 0.006939
-0.029338 -0.082319 0.083619
-0.047651 -0.063362 0.073974
0.023747 0.039961 -0.016558
-0.000862 0.029626 0.010616
0.036070 -0.006572 -0.058858
-0.032615 -0.070199 0.101356
-0.006176 -0.091609 0.062542
-0.053685 0.011950 0.051967
0.012830 0.027780 0.009116
0.002349 -0.061574 0.015873
0.025616 -0.013468 -0.066078
-0.014548 -0.016824 -0.081114
0.014869 -0.048688 0.006819
0.031393 -0.021494 -0.019983
0.043897 0.060570 -0.039089
0.018162 -0.070246 0.025834
-0.039160 -0.030429 0.008022
-0.034306 0.080177 -0.083756
0.016056 0.089794 -0.107608
0.009292 -0.032647 -0.017644
0.011142 -0.021390 -0.047007
0.027373 -0.074325 0.035680
0.011142 -0.021390 -0.047007
0.036299 -0.070229 0.039736
-0.044049 -0.070204 0.054234
-0.048237 0.062905 -0.051262
0.005238 -0.072414 0.024284
0.001262 0.036689 0.013507
0.000044 0.033056 -0.007424
-0.043885 0.070336 -0.114375
0.042454 0.000305 -0.058468
0.022615 -0.083878 0.048020
-0.027110 0.026957 0.015268
-0.034673 0.030046 -0.008370
0.048620 0.010878 -0.082611
-0.003470 -0.019745 -0.067727
0.017899 -0.024006 -0.031296
-0.018389 -0.084945 0.090429
-0.014177 -0.021818 -0.041885
0.002978 -0.021972 -0.050065
0.009335 -0.087473 0.047049
-0.041636 0.062777 -0.038578
0.015031 -0.088677 0.054789
0.038673 -0.004696 -0.053055
-0.024117 0.065594 -0.030485
-0.054338 0.034757 -0.037502
-0.005621 -0.030918 -0.022194
0.052047 -0.031096 0.049483
-0.017983 -0.034350 -0.010337
-0.045099 -0.070146 0.079166
-0.002603 0.028429 0.001651
0.019009 -0.053136 0.115005
0.032432 0.081639 -0.123501
-0.017156 0.080963 -0.040653
0.033693 0.025896 0.003390
0.012384 -0.025650 -0.031488
-0.054162 0.017801 -0.017753
-0.044032 0.018954 0.016016
-0.010072 0.032938 0.013949
0.040644 0.072738 -0.050535
-0.005303 -0.048554 0.003928
0.022542 0.033625 0.018052
0.023994 -0.078466 0.098237
0.005148 -0.033685 0.122214
-0.039644 -0.073266 0.049977
0.006724 -0.091796 0.070886
0.035757 -0.044537 0.019876
0.037468 -0.042667 0.104879
0.031621 -0.018954 -0.025214
-0.004278 0.035074 0.013600
0.039892 -0.052643 0.099066
0.009891 0.041148 -0.014789
-0.011818 0.032237 0.014084
0.035272 0.032340 0.025804
-0.001714 0.087358 -0.044712
-0.024236 0.029773 0.017350
0.044178 0.000049 -0.043517
0.045436 -0.069780 0.078490
0.005891 -0.037648 -0.010211
0.013838 0.036689 0.015260
-0.008197 -0.077911 0.030493
0.054341 -0.008961 0.037316
-0.007855 0.067974 -0.028101
0.049457 -0.033370 0.039063
-0.006269 -0.040355 -0.006100
-0.044140 -0.021840 0.005244
0.044247 -0.028158 0.015503
-0.043385 -0.014285 -0.010241
-0.042029 -0.023982 0.003863
-0.045341 -0.069591 0.079075
-0.046658 -0.052834 0.087041
-0.019596 -0.014294 -0.102949
-0.000747 0.031193 0.012056
0.039292 -0.069454 0.093532
0.022954 -0.014789 -0.066488
0.021223 -0.086013 0.052514
-0.018481 -0.035620 0.118808
0.049861 0.013077 -0.070251
0.053941 0.009374 0.052951
-0.043834 -0.069667 0.084113
0.054828 0.032496 -0.057555
-0.043079 -0.061471 0.090534
-0.036489 0.078340 -0.092405
-0.053354 -0.033270 0.066359
-0.005408 -0.066678 0.020006
0.039599 0.023477 0.006024
-0.047913 0.029558 0.040625
0.040649 0.067531 -0.042037
0.053456 0.050189 -0.049342
-0.039115 -0.074632 0.084885
-0.003463 0.035239 -0.009862
-0.003149 0.028233 0.008357
0.054159 -0.025080 0.058501
-0.037581 -0.035733 0.012544
0.022013 -0.086451 0.055252
0.054172 0.036689 0.058928
-0.027711 -0.063418 0.027033
0.046039 0.026997 0.036370
-0.047069 -0.052644 0.049641
-0.028485 0.027021 0.016740
-0.054947 0.034787 -0.055903
-0.033069 -0.065009 0.032867
0.017824 0.071511 -0.032253
-0.041636 0.062777 -0.038578
-0.037631 -0.070854 0.094738
0.035190 -0.079587 0.057635
-0.047474 -0.054312 0.052461
0.043566 -0.048398 0.036906
-0.047530 0.009439 -0.105946
0.036786 -0.069479 0.097074
0.013404 -0.070150 0.112847
0.032057 -0.035249 0.004012
0.049120 -0.041458 0.047046
-0.026690 -0.084584 0.056482
-0.043409 -0.053112 0.093626
-0.045972 -0.055187 0.048217
0.024861 -0.086828 0.067972
0.054654 0.023671 -0.027936
0.039346 0.023154 0.019645
-0.016700 0.089597 -0.063389
-0.053772 0.007523 -0.014307
0.037058 0.063596 -0.035450
0.049298 0.018371 0.037138
-0.038158 0.023860 0.019404
-0.053355 0.047633 -0.044083
0.005250 -0.072785 0.112372
0.037153 -0.019759 -0.013495
0.027874 0.053395 -0.025722
-0.055007 0.036720 -0.074715
0.033743 -0.046755 0.019482
-0.028278 -0.017776 -0.034188
-0.039749 -0.002561 -0.063633
-0.048913 0.012064 0.015957
0.050479 -0.034046 0.086608
-0.051678 0.018341 -0.108757
-0.036063 -0.010793 -0.037364
0.007069 -0.017450 -0.102056
0.034531 -0.007977 -0.058359
0.025297 0.030633 0.018461
0.047218 0.008921 -0.108054
0.042577 0.025830 0.030220
0.027346 -0.070174 0.105880
0.005825 -0.090340 0.082259
0.054146 -0.006089 0.027109
0.044784 0.041128 -0.026911
-0.017659 -0.067339 0.023750
0.006724 -0.090889 0.079122
0.046039 0.052131 -0.035162
-0.030350 -0.010037 -0.073560
-0.044298 -0.026538 0.101053
0.019167 0.080139 -0.040711
-0.040328 -0.014681 -0.016928
-0.029414 -0.027684 -0.010914
-0.042799 0.055218 -0.034340
-0.045504 -0.070608 0.075689
0.020397 -0.036323 0.117935
0.002679 0.081195 -0.036911
-0.045902 0.016817 0.022602
-0.009128 -0.050252 0.006554
0.037784 -0.053580 0.101346
0.054237 0.024691 -0.041457
0.039321 0.073522 -0.049265
-0.045722 -0.034664 0.096491
0.034728 -0.005432 -0.114779
-0.039114 -0.076541 0.058338
-0.014601 0.031258 0.014378
0.039208 -0.018336 -0.012120
-0.048568 0.030150 -0.020055
0.037087 -0.003398 -0.123501
0.006724 -0.090889 0.079122
-0.002926 -0.028718 -0.027651
0.016129 -0.015656 -0.096438
-0.030571 0.025863 0.009917
0.034978 0.047647 -0.025606
-0.003933 -0.022108 -0.048929
0.036387 -0.070188 0.097157
0.049123 0.003294 -0.028713
0.023599 0.078404 -0.041093
0.053683 0.030003 0.056248
0.046620 0.015717 0.023016
0.047570 0.021166 -0.003628
0.052005 0.017178 -0.007829
0.012070 0.030113 0.012956
-0.054864 -0.015422 0.039961
0.032729 -0.077332 0.090715
0.018710 0.082208 -0.043159
0.016256 -0.087689 0.052389
0.043838 0.003664 -0.095314
0.004768 -0.020618 -0.058270
-0.037119 -0.069946 0.040575
-0.036291 -0.070388 0.039903
0.045304 -0.026748 0.099567
0.052625 0.003998 0.040201
-0.031346 -0.040436 0.009787
0.016752 0.037538 -0.013160
0.032653 0.026899 0.000124
0.053038 0.051778 -0.112429
-0.034951 -0.072209 0.040608
-0.050983 0.005971 0.022806
-0.053913 0.010696 -0.005155
-0.049784 0.015820 0.036722
0.016255 -0.078842 0.102582
0.046396 0.024590 -0.008500
-0.041317 -0.072776 0.084189
-0.041390 0.028583 0.030586
-0.045973 0.062518 -0.044062
0.048620 0.004435 -0.034163
0.026203 -0.035358 -0.002251
-0.025713 -0.046371 0.010970
0.036037 0.026140 -0.000105
-0.016851 0.035598 0.016104
-0.016691 0.029401 0.013686
0.046555 -0.042762 0.039449
-0.054907 0.021492 -0.028263
0.028279 0.028497 0.018833
0.008536 0.028074 0.008955
0.022954 -0.014789 -0.066488
0.043923 -0.044678 0.034441
-0.011716 -0.026029 -0.030908
-0.034839 0.073186 -0.042399
-0.047651 -0.063362 0.073974
-0.049277 0.035618 -0.027040
0.023993 -0.074493 0.033347
0.008403 -0.072316 0.112307
0.032586 0.081505 -0.058012
0.041945 -0.070161 0.088208
-0.022096 -0.084792 0.049854
-0.011879 0.031751 -0.006203
-0.043028 0.027778 -0.010053
-0.041331 -0.075519 0.064734
0.051427 -0.044636 0.065284
-0.013526 0.090511 -0.081870
0.033606 0.038881 -0.018717
-0.054673 0.019552 0.061153
-0.031382 0.080486 -0.051355
0.054998 0.031691 0.069496
0.019554 0.036721 -0.012969
-0.041140 -0.043542 0.027587
0.023764 0.035653 0.018862
-0.047697 0.064573 -0.097762
-0.025147 -0.013186 -0.073104
-0.044427 -0.070183 0.081630
-0.054319 0.022495 -0.035558
-0.039317 -0.069384 0.043377
-0.034516 -0.070664 0.038067
0.032556 -0.081682 0.058790
0.004768 -0.020618 -0.058270
-0.017676 -0.083818 0.093501
0.014083 -0.074602 0.028453
0.017896 -0.031714 -0.014827
0.017326 0.028758 0.013134
-0.018742 -0.020342 -0.041616
-0.053753 0.008958 -0.001279
-0.014414 -0.089748 0.059394
-0.042409 0.022077 0.024497
0.054784 0.013957 0.061863
-0.027563 0.034318 -0.012254
-0.053572 0.024637 -0.099987
0.044959 0.020124 0.005870
-0.046450 0.016015 0.016167
0.001262 0.036689 0.013507
-0.028148 -0.012775 -0.057062
-0.034338 0.080152 -0.093904
-0.033484 0.049011 -0.025720
-0.031935 0.072821 -0.039645
0.040281 -0.012958 -0.020763
0.039367 -0.036178 0.016120
0.031316 -0.009203 -0.076236
-0.023382 -0.079518 0.039936
0.026702 -0.075874 0.099800
-0.047527 0.057514 -0.041075
0.048037 -0.025988 0.095272
0.050457 0.012227 -0.046463
-0.008434 0.036689 0.014146
-0.043196 -0.069568 0.085874
0.054609 -0.011430 0.041436
0.048094 0.009026 -0.058431
0.034728 -0.005432 -0.114779
0.009300 0.035749 -0.010676
-0.038000 0.076952 -0.098506
-0.049108 0.014274 0.008673
0.051159 0.036689 0.048274
0.052507 0.012526 -0.001267
0.039920 0.075048 -0.123501
-0.052781 0.033082 -0.031189
-0.022912 0.072412 -0.034666
0.030962 -0.070990 0.034794
0.041394 -0.001084 -0.057610
-0.039808 0.074200 -0.052282
-0.015676 -0.048213 0.006673
0.002472 -0.069619 0.114987
0.020439 -0.027654 -0.020526
0.050919 0.015688 -0.074558
-0.034232 -0.009520 -0.048850
-0.029709 0.068734 -0.034798
-0.018390 -0.087664 0.082212
-0.033096 -0.022857 -0.014541
-0.008660 0.087352 -0.046163
0.023840 -0.070180 0.108206
-0.049840 0.058600 -0.047970
0.003743 -0.092022 0.071651
-0.051938 0.017568 -0.053028
0.026740 0.029307 -0.004054
-0.039115 -0.074632 0.084885
-0.035469 -0.069798 0.038373
0.002843 -0.091748 0.061473
-0.044250 0.019327 0.011751
-0.028525 -0.044119 0.011036
-0.023697 -0.066125 0.026056
0.037506 0.035309 0.028211
0.053997 0.026354 -0.078091
-0.024499 -0.042860 0.114637
0.038040 -0.070529 0.042405
0.031745 0.025861 0.006460
-0.052670 0.024960 -0.021991
-0.054518 0.029846 -0.101299
-0.044334 0.030293 -0.015040
-0.048639 0.061400 -0.049217
-0.050321 -0.041223 0.083028
0.052569 0.035293 -0.032586
-0.028832 -0.077233 0.095733
0.054925 0.040253 -0.058951
0.031466 -0.074227 0.039435
0.027736 -0.013365 -0.054157
-0.003642 -0.069489 0.114941
-0.035519 0.026094 0.021690
-0.043651 -0.000630 -0.043639
0.046129 -0.031520 0.025273
0.031968 0.066980 -0.034684
0.037987 -0.075602 0.051944
-0.044676 0.043677 -0.028704
0.032202 -0.025933 -0.010300
0.053657 0.006047 -0.012463
-0.029552 0.083576 -0.067043
-0.017340 0.034881 -0.010796
-0.008543 0.031122 0.012918
0.045611 0.006485 -0.115774
0.042859 -0.052094 0.038333
-0.005076 -0.020609 -0.058071
-0.049465 0.017683 -0.000662
-0.038346 0.076615 -0.065221
-0.020814 0.030049 -0.004312
-0.023346 -0.028141 -0.016836
-0.004333 0.081122 -0.036987
-0.039325 -0.001230 -0.113439
-0.031603 0.058345 -0.029605
0.039356 -0.002394 -0.074235
0.049453 0.010040 0.024873
-0.051146 -0.028361 0.039837
-0.046668 0.066097 -0.053471
-0.034108 0.080337 -0.115027
0.048616 -0.047679 0.050955
-0.022912 0.072412 -0.034666
-0.008089 0.088692 -0.048687
-0.042682 0.035606 -0.020149
0.043794 0.003080 -0.079177
0.035169 0.058529 -0.031386
0.055003 0.037897 -0.100341
0.034355 0.075550 -0.045367
0.053208 -0.003022 0.001673
0.042062 0.035665 -0.019749
-0.020409 0.063180 -0.027999
-0.039438 -0.009365 -0.031743
-0.012804 0.027703 0.008700
0.036790 -0.064870 0.037067
0.038068 -0.006020 -0.048891
-0.044848 -0.072041 0.067323
-0.045472 0.067223 -0.051447
-0.054908 -0.010576 0.029039
-0.017509 -0.073229 0.108634
0.054607 0.031698 0.069487
-0.054485 0.029354 -0.063694
0.042393 -0.072597 0.055394
0.020548 -0.069582 0.110278
0.047201 0.016963 0.029076
-0.009022 0.071487 -0.030358
-0.045620 0.005904 -0.085515
-0.031398 -0.069745 0.034078
0.047159 -0.012993 -0.002188
-0.029709 0.068734 -0.034798
-0.047989 0.063987 -0.053442
-0.054103 -0.006490 0.029197
0.042851 -0.033933 0.020222
-0.026294 -0.070188 0.106615
-0.052180 0.019378 -0.082539
-0.019529 0.088606 -0.058731
0.042161 0.069972 -0.048010
0.042393 -0.072597 0.055394
0.039829 0.022661 0.011199
0.031653 0.052090 -0.026543
-0.039749 -0.002561 -0.063633
0.016778 -0.063136 0.020422
0.034205 -0.070675 0.099283
-0.000639 0.057818 -0.022143
-0.044343 -0.070540 0.081152
0.018362 0.035057 -0.011134
0.016541 0.027658 0.010258
-0.053115 0.021253 0.051676
-0.016897 0.089533 -0.111701
0.021852 0.029966 -0.004341
0.051614 -0.040932 0.060390
0.029389 0.042408 -0.020076
0.051006 0.009404 0.011582
-0.030488 0.031330 0.021992
-0.033966 0.058332 -0.030691
0.045442 0.040068 -0.123501
-0.049143 0.013034 0.011709
-0.023346 -0.057769 0.019769
0.042030 0.025024 0.028607
0.053729 0.040627 -0.039065
0.047539 0.054275 -0.038229
0.008762 -0.055121 0.011255
-0.050204 0.008526 0.019359
-0.013242 -0.085395 0.092946
-0.025431 0.027089 0.014165
-0.047846 -0.043559 0.088869
0.031410 0.034298 0.023206
0.031393 -0.021494 -0.019983
-0.051108 -0.045942 0.074437
-0.002223 -0.089608 0.085865
0.001380 0.036689 0.123487
0.040257 -0.020709 -0.005529
0.015531 -0.086866 0.049202
-0.028442 0.026324 0.007701
-0.007947 0.028023 0.008646
-0.046067 -0.070608 0.069195
-0.050840 0.041852 -0.034147
0.009470 -0.084157 0.096992
-0.008935 -0.089203 0.051952
0.036700 0.032877 -0.013434
0.011607 -0.016621 -0.105494
0.045960 -0.070571 0.072185
-0.007745 0.081110 -0.037503
0.039128 -0.076264 0.057202
0.020213 -0.041486 0.001276
-0.050552 0.032500 -0.025973
-0.002079 -0.024500 -0.039741
-0.051235 0.024934 0.046647
-0.035406 -0.032795 0.005211
-0.038196 0.024777 0.002423
0.044055 -0.001491 -0.038653
-0.024865 -0.012799 -0.081397
0.018402 -0.086748 0.051533
-0.035134 0.026708 0.022256
-0.012612 -0.077152 0.106185
0.018756 -0.068121 0.024728
-0.031400 -0.070409 0.034603
0.038817 -0.008309 -0.036780
-0.023979 -0.082716 0.090264
-0.044733 -0.053009 0.091231
0.043331 -0.004040 -0.033796
-0.016020 0.036131 -0.011823
0.027807 -0.028578 -0.011300
0.054917 0.010570 -0.011726
-0.019659 0.087852 -0.055570
-0.034347 -0.074039 0.042625
0.034626 0.025003 0.015917
0.053673 0.020502 -0.039002
0.035509 0.079204 -0.113933
0.046692 0.021948 -0.003534
-0.046765 0.015958 0.014212
-0.005253 0.052797 -0.019942
-0.050233 0.009388 0.015976
0.035780 0.031071 0.025877
-0.038220 0.034277 -0.015873
0.050032 -0.038352 0.047688
-0.038070 0.061933 -0.035066
-0.037269 -0.011758 -0.031195
0.044786 -0.069952 0.056224
0.048950 -0.047307 0.083786
0.037843 0.023774 0.017801
-0.052728 0.052824 -0.101004
0.038566 -0.072502 0.090622
-0.032330 0.078878 -0.049024
0.006726 -0.088438 0.048645
0.048942 0.011466 0.018562
-0.049987 0.059307 -0.050153
-0.007998 0.073806 -0.031718
-0.034516 -0.070664 0.038067
-0.053038 -0.002293 -0.000377
-0.039137 -0.011403 -0.027267
-0.030165 0.026189 0.015422
-0.045947 -0.069777 0.061453
-0.003455 0.030737 0.011910
0.029927 0.026245 0.015475
-0.043179 0.041566 -0.026025
-0.020904 0.088065 -0.112057
-0.041189 0.034257 0.031924
0.046086 0.016400 0.017130
0.006724 -0.074858 0.110163
-0.013159 0.062993 -0.026146
-0.034815 0.028862 -0.006212
-0.018621 -0.018084 -0.052632
0.021223 -0.086013 0.052514
-0.051155 0.016788 -0.097294
0.054990 0.035719 -0.114080
-0.018181 -0.069962 0.025657
0.050083 0.047471 -0.036536
-0.028363 -0.009914 -0.117039
0.030342 -0.014132 -0.041722
-0.047259 0.017250 0.007593
0.042741 0.020752 0.011163
-0.049411 -0.044954 0.051866
0.000759 -0.077244 0.108131
-0.043551 0.034709 0.034823
0.006724 -0.090889 0.079122
0.034070 0.036687 0.025314
0.020761 -0.021341 -0.035534
0.043792 0.049771 -0.031868
0.048353 0.036689 0.094778
0.054579 0.018183 -0.020414
0.009686 -0.089121 0.084882
-0.051209 -0.044422 0.062447
0.040288 0.034011 -0.016675
-0.038139 0.076820 -0.057162
-0.039362 -0.026258 0.106937
-0.043488 -0.070604 0.053317
0.048660 -0.054447 0.079410
-0.051422 0.010524 0.038993
0.013438 -0.070721 0.112468
-0.037372 -0.054355 0.030798
0.054930 0.040208 -0.103558
-0.046032 -0.044788 0.039908
-0.047092 -0.043668 0.042002
0.019915 0.074362 -0.035120
-0.037471 0.068244 -0.039434
-0.054952 0.029042 -0.037136
0.052349 0.022123 -0.017068
0.044966 0.068900 -0.123501
-0.033090 0.026930 -0.000297
-0.004377 -0.054282 0.009689
-0.038086 0.053367 -0.030259
0.039832 -0.009626 -0.029928
0.010258 -0.020908 -0.050410
-0.015695 -0.023118 -0.035944
0.013045 0.034171 -0.009441
0.007564 -0.058650 0.014129
0.047651 0.037554 -0.026705
-0.017156 0.080963 -0.040653
0.034420 -0.075252 0.044761
-0.018047 -0.042307 0.001010
-0.029476 -0.033530 -0.001474
-0.041330 0.071782 -0.049984
-0.028173 0.033229 -0.011040
0.002774 -0.091244 0.058043
0.035740 -0.056370 0.030089
-0.043651 -0.000630 -0.043639
0.041272 -0.026146 0.104893
0.045304 -0.026748 0.099567
-0.003415 0.038139 -0.012280
0.052550 0.000577 0.031234
0.044290 -0.007730 -0.021352
0.042471 0.071713 -0.053558
0.025657 -0.011875 -0.092608
-0.022054 0.028469 0.014891
-0.042120 -0.069829 0.048853
0.039829 0.022661 0.011199
0.045039 -0.070325 0.057975
0.027337 -0.016478 -0.040250
-0.041972 0.001051 -0.085988
0.044300 0.002434 -0.055040
-0.028442 0.026324 0.007701
0.002960 0.037028 -0.011417
0.050842 -0.047114 0.063483
-0.050642 -0.049398 0.072155
-0.054880 -0.016948 0.044845
-0.053908 0.035362 -0.036344
0.017629 -0.016503 -0.072195
-0.034235 -0.040171 0.013052
-0.053717 0.032236 -0.033134
-0.031979 0.070472 -0.037403
-0.001487 -0.085798 0.095474
-0.053922 0.000759 0.049085
-0.023138 0.036689 0.018601
0.012624 -0.080025 0.034526
-0.047076 0.017197 0.029020
0.026495 -0.078047 0.096747
0.036243 0.077537 -0.052688
0.003523 -0.046112 0.000875
-0.007954 -0.048013 0.003847
0.050579 0.019403 0.041708
-0.029338 -0.081026 0.087376
0.042103 -0.038934 0.024647
0.054979 0.039145 -0.123501
-0.010219 0.037528 -0.012291
0.005049 -0.018789 -0.077802
0.026377 -0.014035 -0.055231
0.014736 -0.015798 -0.113218
-0.044342 -0.072506 0.071395
0.013359 -0.053134 0.116962
-0.048730 0.017585 0.034800
0.002045 0.066595 -0.026894
0.004278 0.091923 -0.057767
0.006725 -0.080376 0.033347
-0.045593 -0.070351 0.060869
0.022666 -0.013036 -0.102349
0.022740 -0.031837 -0.010841
0.001939 0.041114 -0.014205
-0.016199 -0.027250 0.121048
-0.041694 0.060534 -0.036917
0.017789 -0.088174 0.080909
-0.052419 0.020529 -0.108530
-0.042816 0.071712 -0.111729
0.007559 0.090295 -0.052646
-0.024666 -0.079040 0.096751
0.028565 -0.042777 0.112242
0.025830 0.028361 -0.001329
-0.044911 0.059084 -0.039009
-0.043297 0.030536 0.033751
0.023498 0.032052 0.018109
-0.046674 0.007932 -0.100475
0.050693 0.050007 -0.039356
0.043370 0.019989 0.021437
-0.045341 -0.069591 0.079075
0.038974 -0.070533 0.093164
0.053514 -0.002471 0.023488
-0.033354 0.045739 -0.023763
-0.046178 0.060024 -0.041537
0.050475 -0.050801 0.069889
0.005945 -0.045673 0.000733
-0.052009 0.024167 0.048723
0.050850 0.015698 -0.082081
0.032714 0.074540 -0.042267
0.030884 -0.010404 -0.063449
-0.054511 0.029484 -0.058567
0.053426 0.001668 0.013627
0.028276 0.038591 -0.016737
0.028096 -0.070588 0.031961
0.043114 -0.053678 0.093916
-0.043066 0.062397 -0.039752
-0.012612 -0.077152 0.106185
-0.053783 -0.001265 0.017284
0.034084 -0.073226 0.041003
-0.034232 -0.009520 -0.048850
-0.034232 -0.009520 -0.048850
-0.045244 -0.069468 0.057441
-0.023826 0.075945 -0.038343
0.001939 0.041114 -0.014205
0.053041 0.049087 -0.044662
-0.048572 0.062984 -0.112083
0.003959 -0.048736 0.003926
-0.035519 0.026094 0.021690
-0.043711 -0.032252 0.019993
0.031621 -0.018954 -0.025214
-0.019804 -0.080355 0.038678
0.053738 0.027534 -0.028366
0.052634 0.024202 0.050876
-0.037101 0.028702 0.025987
0.017597 -0.084378 0.044609
-0.034257 -0.006751 -0.080429
-0.014629 0.082648 -0.041517
-0.051100 0.016827 -0.123501
-0.038975 0.023106 0.011155
-0.012627 -0.016423 -0.102839
0.046799 0.030981 -0.018640
-0.044580 0.026215 -0.009024
-0.030840 0.076796 -0.043852
-0.006109 -0.022267 -0.047052
-0.008248 0.091128 -0.056221
0.051651 -0.030875 0.084600
-0.007329 -0.042761 -0.002633
-0.027144 0.063616 -0.030476
0.008103 -0.029919 -0.023518
-0.030977 -0.065550 0.031182
0.023592 0.086883 -0.111959
0.049760 0.030625 0.044547
0.048939 0.048608 -0.035861
-0.051941 0.047870 -0.040013
-0.036614 -0.077612 0.082572
0.051990 0.003261 0.021688
0.045943 0.004925 -0.055155
-0.017431 0.027352 0.008397
-0.002371 -0.027356 -0.031188
-0.023243 0.047469 -0.021181
0.013995 -0.023620 -0.036001
0.036846 0.029372 -0.008260
-0.049840 0.058600 -0.047970
-0.054584 0.038536 -0.040953
-0.011965 0.028274 0.001695
-0.001187 0.091403 -0.054512
0.020833 0.087583 -0.056214
-0.051023 0.039378 -0.032749
-0.029034 0.077086 -0.042868
0.039518 0.075455 -0.101298
0.000758 -0.081038 0.103356
0.000756 -0.088241 0.089964
0.032837 0.028852 0.022433
0.025437 -0.065318 0.026638
-0.052895 0.052288 -0.123501
0.016248 -0.015358 -0.123501
0.017050 -0.025903 -0.027318
0.038582 0.025392 0.024234
-0.015302 0.079311 -0.037956
0.052528 0.001602 0.035059
-0.001271 -0.092180 0.066491
-0.054946 0.030845 0.066092
-0.004871 0.027986 0.003565
-0.047521 -0.027793 0.024222
0.039971 -0.000953 -0.094030
0.040902 0.021900 0.019049
-0.006813 0.085866 -0.043109
0.004671 -0.017908 -0.094950
0.053867 0.048354 -0.058688
-0.031603 0.058345 -0.029605
-0.042579 0.067812 -0.045207
0.006650 0.028565 0.009789
-0.033133 0.079750 -0.052417
-0.033233 -0.036888 0.007681
-0.043134 0.044942 -0.028426
0.027775 0.059771 -0.028735
-0.010550 -0.016843 -0.104927
-0.032422 -0.062511 0.030609
-0.020256 0.075960 -0.036699
0.054487 0.016245 -0.024171
0.019621 -0.046842 0.007213
-0.052398 0.019473 0.048046
0.043923 -0.044678 0.034441
0.017246 -0.033813 0.119580
-0.053163 0.051292 -0.086847
-0.006030 0.091333 -0.055682
-0.042757 0.002642 -0.114899
0.019621 -0.046842 0.007213
0.024376 -0.042705 0.005765
0.023547 0.086902 -0.103086
0.008756 0.091414 -0.057988
-0.051002 0.006562 0.019391
-0.040926 -0.008583 -0.029412
-0.023193 -0.063547 0.023989
-0.054866 0.033204 -0.068733
-0.034607 -0.069645 0.099587
-0.002309 -0.067428 0.020261
0.054995 0.038303 -0.066288
0.040251 -0.074695 0.055285
0.031141 -0.049839 0.019453
0.025581 -0.086328 0.064153
-0.001134 -0.018957 -0.078561
0.007268 0.030401 0.012198
0.035922 0.071533 -0.041404
0.050141 0.014543 -0.123501
0.055000 0.035690 -0.042253
0.006354 0.036844 -0.011421
-0.009672 -0.084423 0.040561
0.039808 0.071382 -0.046105
0.045013 0.005159 -0.090884
0.036271 -0.033933 0.008075
-0.021300 0.029145 0.015330
-0.051017 -0.031704 0.086153
0.007069 -0.017450 -0.102056
-0.048410 0.010338 -0.076717
0.016710 0.033186 -0.008744
-0.052296 0.019812 -0.086901
0.049206 0.011713 0.028722
-0.050176 0.028474 -0.020707
-0.017509 -0.073229 0.108634
-0.035802 -0.004536 -0.123501
-0.049898 0.053476 -0.041130
-0.047758 0.006362 -0.045766
0.045825 0.043135 -0.029270
0.034417 -0.054415 0.027004
0.054687 0.043181 -0.100450
0.035920 0.025321 0.020404
0.000015 -0.027838 -0.030239
-0.054373 0.008244 -0.004026
0.001992 -0.029088 -0.026962
0.052861 0.015767 -0.008598
0.038061 -0.024127 -0.003878
-0.028872 -0.081588 0.050364
0.037874 -0.070679 0.094635
0.031366 0.036689 0.113697
-0.027110 0.026957 0.015268
0.029462 -0.025078 -0.015601
-0.054732 0.031608 -0.053193
0.016765 0.040474 -0.015355
-0.002321 -0.089912 0.052139
-0.044104 -0.051044 0.040291
0.044935 0.049683 -0.032711
-0.049274 0.011459 -0.058882
0.054394 0.028956 -0.112086
-0.001677 -0.070632 0.114507
0.054376 0.027528 -0.046908
-0.052171 0.026319 -0.022343
-0.021211 -0.088187 0.064364
-0.039841 0.061288 -0.035926
0.042030 0.025024 0.028607
0.027776 -0.026003 -0.016004
0.035954 0.039574 -0.020263
-0.054251 0.024781 -0.041303
0.030962 -0.070990 0.034794
0.027549 -0.074357 0.101125
0.047415 0.028143 0.039265
-0.034607 -0.069645 0.099587
-0.042753 0.071792 -0.105099
0.036298 0.078517 -0.056913
-0.009144 0.028376 0.009966
0.017444 0.088929 -0.056548
0.021180 0.086937 -0.054575
-0.048730 0.017585 0.034800
0.054930 0.040208 -0.103558
-0.037001 0.071539 -0.042553
-0.040971 0.073882 -0.110915
-0.048698 0.062749 -0.104575
0.050757 0.038218 -0.031445
0.042062 0.035665 -0.019749
-0.049475 -0.041456 0.085625
0.050488 0.014176 -0.058914
-0.019804 -0.080355 0.038678
0.040588 -0.000090 -0.101840
-0.042496 0.024801 0.029030
-0.043028 0.027778 -0.010053
-0.039841 0.061288 -0.035926
-0.032115 0.081839 -0.074059
-0.019490 0.088621 -0.074073
-0.033136 -0.016586 -0.028083
0.052499 0.019255 -0.052159
-0.006855 -0.032404 -0.018952
-0.048035 0.010399 -0.123501
0.045593 0.057522 -0.038509
-0.035438 0.041034 -0.021271
-0.049541 0.034383 0.044539
0.029561 0.083580 -0.112417
0.029550 0.036689 0.022100
-0.046519 0.026910 -0.012642
-0.038881 -0.005597 -0.046719
0.024296 -0.039641 0.001909
0.049864 0.058546 -0.047897
0.036271 -0.033933 0.008075
0.030643 -0.082014 0.055053
0.050457 0.012227 -0.046463
0.054400 0.045346 -0.123500
-0.033784 -0.009024 -0.054366
-0.032798 0.037792 -0.017449
0.002977 0.042705 -0.015136
0.036243 0.077537 -0.052688
0.048235 0.031902 -0.021673
0.020960 -0.070025 0.026988
0.040902 0.021900 0.019049
0.028218 -0.027195 0.115690
0.047244 -0.022810 0.015424
-0.033151 -0.031208 -0.000328
-0.054338 -0.027238 0.069035
0.030662 -0.008750 -0.096889
0.013516 -0.040305 -0.003860
0.025005 0.034262 0.019349
-0.037027 0.057343 -0.031764
-0.042587 -0.026540 0.103283
-0.032514 -0.070760 0.100955
0.035922 0.071533 -0.041404
0.017789 -0.088174 0.080909
-0.033218 0.025297 0.013963
0.050371 0.059305 -0.058608
0.054298 -0.021575 0.050989
-0.028144 -0.060004 0.024997
-0.035650 -0.065446 0.036017
-0.009681 -0.072921 0.111482
-0.048745 0.023619 0.039591
0.006113 0.084937 -0.041623
0.048533 0.020710 -0.004803
-0.017066 0.066051 -0.028667
-0.035503 -0.036124 0.108430
-0.021856 -0.039032 -0.000782
-0.021894 0.027980 0.014001
-0.007329 -0.042761 -0.002633
-0.009046 -0.090891 0.059710
-0.029196 -0.030457 -0.006516
0.054058 0.034004 -0.035773
0.001366 0.029638 0.010638
-0.040896 -0.027209 0.105144
0.018710 0.082208 -0.043159
0.035290 0.026369 0.021890
-0.038988 -0.077734 0.065998
0.026203 -0.035358 -0.002251
-0.015582 -0.061825 0.114283
-0.003648 0.087648 -0.045402
0.039892 -0.052643 0.099066
0.054424 0.029417 0.060306
-0.047725 -0.061147 0.076828
-0.015330 0.074889 -0.034036
0.044026 0.019102 0.014638
-0.011146 -0.090139 0.057500
-0.053572 0.024637 -0.099987
0.049650 0.008314 -0.039292
-0.028072 0.032091 0.020659
0.028845 0.076462 -0.041890
-0.046456 0.017148 0.011055
-0.020612 -0.054188 0.015080
-0.039862 -0.076592 0.062093
-0.042757 0.002642 -0.114899
0.027819 0.084656 -0.123501
-0.054185 0.004391 0.053537
0.003163 -0.034499 -0.015910
0.052377 0.009565 0.004748
-0.030711 -0.014987 -0.037777
0.036837 -0.006389 -0.053913
-0.038903 -0.033960 0.105645
-0.032769 0.077490 -0.046886
-0.023382 -0.079518 0.039936
0.048932 -0.054089 0.058914
-0.048767 0.055659 -0.041268
-0.047355 0.019857 0.033146
-0.031206 -0.008079 -0.113371
-0.042436 -0.007140 -0.028484
0.019549 -0.014873 -0.087068
0.022182 0.081010 -0.043700
0.045429 0.022419 -0.002168
-0.042409 0.022077 0.024497
0.047854 0.014514 0.027255
-0.027185 -0.041655 0.006953
0.036530 0.031441 -0.011409
-0.014069 -0.079319 0.034116
0.035509 0.079204 -0.113933
-0.044885 -0.007579 -0.019794
-0.045099 -0.070146 0.079166
-0.023603 0.028610 0.015928
-0.045628 0.018545 0.009231
-0.051800 0.018074 -0.073785
-0.051239 0.030996 -0.025675
-0.029913 -0.022268 -0.020601
0.021709 0.029124 0.015502
-0.046339 -0.069740 0.072504
-0.051674 0.036689 0.087356
0.043997 -0.021609 0.004485
0.035360 -0.023891 -0.009015
0.010647 -0.090100 0.056749
-0.050009 -0.049766 0.060571
0.042464 -0.046642 0.033068
-0.006103 -0.069471 0.114688
-0.044698 -0.070635 0.079569
-0.049626 0.016269 0.002010
-0.028664 0.031196 -0.008202
0.025065 0.079091 -0.042902
-0.050602 -0.016156 0.015677
0.053773 -0.030611 0.072853
0.037766 -0.060484 0.035625
-0.046499 -0.069752 0.068978
0.054450 0.029096 -0.077260
0.050797 0.015087 0.039767
-0.004759 0.028516 0.009320
0.030643 -0.082014 0.055053
0.009688 -0.090879 0.060407
-0.033639 0.032728 -0.012029
-0.009227 0.085669 -0.043527
0.003745 -0.075570 0.109802
0.034845 0.041580 -0.021457
-0.002238 -0.092179 0.068645
-0.036509 0.078323 -0.075353
0.043445 0.070916 -0.055416
-0.007273 0.028349 0.009453
-0.009529 -0.024702 -0.035971
0.025360 -0.085323 0.080218
-0.036651 -0.025541 -0.003961
-0.043404 -0.072674 0.059726
-0.043619 0.022225 0.001987
0.018457 -0.026943 -0.023753
-0.049714 0.060555 -0.052129
-0.022164 0.087527 -0.089950
-0.040645 -0.027620 0.006725
-0.041456 0.044512 -0.027011
0.031030 -0.056489 0.024950
-0.027363 -0.070666 0.031494
0.045647 -0.016125 -0.000804
0.007037 0.091739 -0.106516
-0.025342 -0.081096 0.044680
-0.043605 -0.010478 -0.017339
0.011732 0.032660 -0.007461
-0.005030 -0.023723 -0.041562
-0.052302 0.030867 -0.027828
-0.017228 -0.070169 0.111499
-0.047501 0.015514 0.027707
-0.048476 0.012097 0.022381
-0.038654 -0.078009 0.071392
-0.037115 -0.043293 0.020568
0.010945 -0.076346 0.029369
-0.024781 0.086291 -0.090021
-0.051690 0.011892 0.041346
0.010361 0.085282 -0.043334
0.047390 -0.058181 0.055503
0.000273 -0.021604 -0.052827
-0.005860 -0.037496 -0.010425
-0.043711 -0.032252 0.019993
-0.017536 -0.027702 0.120547
-0.052396 0.040262 -0.035813
0.049453 0.010040 0.024873
-0.022884 -0.070627 0.028522
-0.052994 0.022219 -0.090447
0.054607 0.038177 -0.118510
-0.054791 0.032288 -0.123501
0.054908 -0.019760 0.054818
0.049830 0.036992 -0.123501
-0.009022 0.071487 -0.030358
-0.024818 0.028040 0.015898
-0.024899 -0.016401 -0.046153
0.016755 -0.084687 0.092297
-0.040909 -0.057415 0.038505
0.017899 -0.024006 -0.031296
0.012623 -0.082722 0.098321
-0.015638 0.032310 0.015111
0.014810 -0.076681 0.031037
-0.046649 0.034145 0.039261
0.039367 -0.036178 0.016120
-0.009438 0.089605 -0.051625
-0.030887 0.082698 -0.104305
0.053216 0.043347 -0.039459
-0.000007 0.027787 0.005417
0.053759 -0.005160 0.033698
-0.047989 0.063987 -0.053442
-0.052753 -0.016291 0.026136
0.001067 -0.041419 0.121090
-0.050215 -0.042350 0.053105
-0.002043 0.092155 -0.112117
0.000176 -0.075007 0.110548
0.044247 -0.028158 0.015503
-0.037502 -0.004287 -0.073240
-0.039245 0.023673 0.021348
0.042030 0.025024 0.028607
-0.054548 0.041105 -0.042578
0.054633 0.036689 0.075097
-0.054558 -0.010965 0.043340
-0.017865 0.082062 -0.042474
0.024911 0.027217 0.014163
-0.029356 -0.050506 0.109860
-0.041420 -0.069682 0.089688
-0.020044 -0.066425 0.024243
0.022666 -0.013036 -0.102349
0.044238 -0.069949 0.054386
-0.053637 0.023602 -0.049705
-0.016440 -0.018239 -0.057710
0.053802 0.016481 -0.029478
0.054354 0.041147 -0.041613
0.008279 0.032924 0.013638
0.044764 -0.046614 0.038188
-0.041214 -0.069432 0.046698
0.039599 0.023477 0.006024
0.037844 -0.070237 0.095168
-0.003613 0.092074 -0.102046
-0.035969 -0.037045 0.011702
-0.036579 0.027823 -0.005040
-0.050501 0.024117 0.044238
-0.047933 -0.034708 0.092416
0.015536 -0.081746 0.098596
0.036375 -0.005444 -0.071625
-0.002124 0.041183 -0.014248
0.039079 0.024274 0.003133
-0.022335 -0.013166 -0.102972
-0.034154 -0.045884 0.019136
0.053147 0.051114 -0.048726
-0.043619 0.022225 0.001987
0.043904 0.058464 -0.037446
-0.020589 0.036689 0.017495
0.029601 0.067679 -0.033993
-0.048830 0.010063 -0.054290
-0.024803 -0.084898 0.054024
-0.051246 0.036689 0.048524
-0.053661 0.031881 0.056347
-0.002882 -0.090764 0.081371
-0.020500 0.068013 -0.030755
-0.030508 -0.048597 0.017646
-0.012627 -0.016423 -0.102839
0.033803 0.035950 -0.015933
0.003944 0.035016 -0.009659
-0.053018 0.038942 -0.036329
0.053663 -0.031960 0.068495
-0.037372 -0.072592 0.044587
0.052162 0.036689 0.051025
0.055002 -0.021947 0.069741
0.051243 0.053228 -0.044011
-0.014109 -0.018871 -0.058489
-0.025345 -0.086086 0.061075
-0.030740 -0.070348 0.103017
-0.053617 -0.001978 0.042711
-0.026527 -0.024387 -0.020782
-0.010248 -0.033730 0.121456
0.016414 -0.027313 0.120977
0.020213 -0.041486 0.001276
-0.014072 -0.083284 0.040332
-0.037115 -0.043293 0.020568
-0.008193 -0.075409 0.027686
0.051026 0.019494 -0.008859
0.038721 -0.034679 0.013074
-0.018481 -0.035620 0.118808
-0.054262 -0.004436 0.020515
-0.019971 0.035193 0.017188
-0.049095 0.003265 -0.028713
0.002238 -0.091939 0.073875
0.035627 -0.077527 0.051845
0.021852 0.029966 -0.004341
0.050859 -0.033480 0.045762
-0.020535 -0.015728 -0.067956
-0.031206 -0.008079 -0.113371
-0.045882 0.024284 0.034245
-0.006475 -0.081343 0.102325
-0.053008 0.017210 -0.011700
0.038564 -0.077303 0.077468
-0.043935 -0.064664 0.049544
-0.002193 0.030261 -0.003098
-0.048836 0.021206 -0.006560
-0.019807 -0.087945 0.078589
0.050634 0.007513 0.019459
0.019913 -0.014071 -0.113749
-0.042663 -0.000921 -0.048065
0.044798 -0.032295 0.022698
0.028501 -0.069631 0.105285
0.020293 -0.038043 -0.003254
0.047585 0.040181 -0.028819
0.005072 -0.022371 -0.047153
0.034716 -0.053460 0.104620
0.025159 -0.070331 0.107294
-0.023218 -0.033669 0.117165
-0.037372 -0.054355 0.030798
-0.016700 0.089597 -0.063389
-0.046749 0.005152 -0.048254
-0.009853 -0.044814 0.000636
-0.039738 0.059020 -0.034408
-0.003304 0.029098 0.010133
0.007934 -0.025019 -0.035899
-0.048673 0.036689 0.094129
-0.039818 0.075126 -0.071054
-0.054217 0.027950 -0.111934
-0.039308 0.071328 -0.045256
0.019453 -0.054728 0.014911
0.054693 0.025057 0.062273
0.005236 -0.083294 0.099535
0.047651 0.037554 -0.026705
0.048374 0.017771 0.002452
-0.016958 -0.078693 0.034573
0.002257 -0.084365 0.038916
0.034070 0.036687 0.025314
-0.046812 0.022340 0.034264
-0.049201 0.019056 -0.002944
0.025657 -0.011875 -0.092608
-0.054866 0.033204 -0.068733
0.044247 -0.028158 0.015503
0.039946 0.059915 -0.035089
0.033693 0.025896 0.003390
-0.014075 0.085034 -0.044690
-0.011520 0.068897 -0.029162
0.037706 0.026764 -0.003362
-0.046332 -0.051006 0.045988
0.006302 0.027755 0.005597
0.043774 -0.016888 -0.004367
-0.054828 0.002500 -0.000354
0.054933 -0.022958 0.069512
-0.044505 -0.061404 0.087559
-0.049277 0.035618 -0.027040
-0.042419 0.000244 -0.058137
0.029971 -0.053527 0.108650
0.054156 -0.003660 0.019777
-0.053753 0.008958 -0.001279
-0.053210 0.022577 -0.020509
0.015631 0.041878 -0.016077
0.038427 0.075024 -0.050876
-0.047766 0.021944 -0.005746
0.009300 0.035749 -0.010676
0.036481 -0.010809 -0.036174
-0.046237 0.016073 0.020656
0.053355 -0.019893 0.037691
-0.022884 -0.070627 0.028522
-0.001052 0.088150 -0.046092
-0.046327 0.028907 0.037673
0.050859 -0.033480 0.045762
-0.040827 0.030902 -0.013059
0.018972 -0.085150 0.089446
-0.006876 0.047385 -0.017674
-0.026442 0.026534 0.009280
0.030476 -0.081970 0.082486
-0.053653 0.013214 -0.024645
0.001665 -0.032752 -0.019301
-0.013240 0.087486 -0.048751
0.035223 -0.042045 0.016498
0.000015 -0.027838 -0.030239
-0.047712 0.001232 -0.030051
0.031489 -0.010454 -0.057518
-0.026785 -0.050996 0.016465
-0.002079 -0.024500 -0.039741
-0.032881 -0.069559 0.101446
-0.051108 -0.045942 0.074437
0.019251 -0.082731 0.094539
-0.018390 -0.087664 0.082212
-0.001487 -0.091712 0.060769
-0.024342 -0.039674 0.001992
0.009335 -0.087473 0.047049
0.031531 -0.047184 0.017313
-0.033318 0.033987 -0.013531
-0.048527 0.052881 -0.038417
0.044440 0.018760 0.021758
0.022697 -0.070052 0.027945
0.042457 -0.070214 0.050019
0.044959 0.020124 0.005870
-0.042189 -0.026860 0.008778
0.005647 -0.048629 0.119402
-0.000738 -0.079400 0.105545
0.017495 -0.074302 0.107510
-0.014557 0.028068 0.010800
-0.043482 0.070845 -0.055374
0.029283 -0.035269 0.000780
-0.052146 0.017266 -0.047678
0.048226 0.005527 -0.039607
-0.034812 -0.079520 0.056242
-0.044799 0.069087 -0.074191
-0.024207 0.086573 -0.099411
0.019908 -0.034867 -0.008198
-0.045200 0.068521 -0.114084
-0.048878 -0.041251 0.045874
-0.009674 -0.090615 0.078311
0.053191 0.035649 -0.034389
-0.005749 -0.059071 0.014179
0.054253 -0.007990 0.041838
0.046449 0.029241 -0.015923
-0.006111 0.036934 -0.011484
0.008589 0.091528 -0.123501
-0.015263 -0.017588 -0.068073
0.011049 0.030584 0.013075
0.049294 0.029098 0.043207
0.037383 -0.049180 0.026555
0.001664 0.035791 -0.010335
0.039404 -0.025621 0.001132
0.053741 0.031518 -0.032501
-0.011479 0.031165 0.013529
-0.041610 -0.000067 -0.070099
0.025891 -0.032238 -0.007265
0.027482 0.031373 0.020063
0.048543 -0.032272 0.092093
-0.035965 0.067095 -0.037218
0.046391 0.016590 0.024821
-0.008413 -0.030239 -0.022707
-0.050670 0.033528 0.047006
-0.037275 0.032291 0.027585
-0.049584 0.009647 0.021881
0.024376 -0.042705 0.005765
-0.050802 0.015502 -0.077446
0.045628 0.023057 0.032494
0.053612 0.018625 -0.035371
0.045426 0.017714 0.013939
0.004768 -0.020618 -0.058270
-0.015921 0.072986 -0.032764
0.014952 -0.085858 0.046143
0.003516 -0.070179 0.114674
-0.003732 -0.084289 0.038918
0.050325 -0.030393 0.038791
-0.035949 0.077235 -0.051211
0.036204 -0.070682 0.096914
0.008208 -0.079625 0.104334
0.025005 0.034262 0.019349
0.017971 0.069529 -0.030973
-0.031601 0.082200 -0.081693
0.013498 -0.084130 0.095395
0.043343 -0.034449 0.100166
-0.054284 0.002182 0.006819
0.053208 -0.003022 0.001673
-0.030625 -0.058246 0.025899
-0.043276 0.001705 -0.063951
-0.034300 0.036689 0.025498
-0.012609 -0.088585 0.084734
-0.042682 0.035606 -0.020149
0.042829 -0.065683 0.088966
-0.053147 0.014141 -0.029764
-0.011836 0.050049 -0.019658
-0.031923 0.035273 0.023665
0.053926 0.045777 -0.044331
0.020548 -0.069582 0.110278
0.003818 -0.070759 0.114291
-0.018389 -0.082104 0.096285
0.013055 -0.042885 0.119145
0.039917 0.027310 -0.006395
0.023698 -0.070746 0.107878
0.008762 -0.055121 0.011255
-0.044240 0.019872 0.024595
-0.037969 0.073423 -0.046632
-0.034907 0.030599 0.024954
-0.047688 0.064589 -0.063953
0.028845 0.076462 -0.041890
0.016380 -0.060994 0.018652
0.015672 0.031292 0.014714
0.021228 -0.076254 0.033718
0.002571 0.028981 0.009853
-0.027563 0.034318 -0.012254
-0.041330 0.071782 -0.049984
0.044055 -0.001491 -0.038653
-0.036817 0.027628 0.024920
-0.052375 0.005506 0.012367
-0.025681 -0.027058 -0.016438
0.039078 -0.072360 0.047045
-0.045705 -0.034300 0.027771
-0.023498 -0.087328 0.065118
-0.011711 0.027749 0.004733
-0.032885 -0.082329 0.065804
0.028997 -0.013082 -0.050710
-0.000807 0.091871 -0.056591
-0.031935 0.072821 -0.039645
0.043898 0.036288 -0.021833
0.031921 -0.079364 0.087422
0.049371 -0.025788 0.092708
0.027945 -0.031163 -0.006826
0.046086 0.016400 0.017130
-0.023547 -0.033368 -0.007659
-0.032203 -0.044486 0.015326
-0.054989 0.036242 -0.123501
-0.017598 -0.069535 0.111623
-0.034347 -0.074039 0.042625
-0.032633 -0.007550 -0.090838
0.006458 -0.055663 0.011290
-0.042899 0.001872 -0.077708
0.049728 0.053122 -0.040434
-0.023243 0.047469 -0.021181
0.023496 -0.069583 0.108691
-0.023241 0.038378 -0.015180
-0.046124 -0.015705 -0.000190
0.014082 -0.082559 0.039055
0.031767 -0.069647 0.102497
-0.000073 -0.038535 -0.009613
-0.026395 -0.075012 0.101211
0.040680 0.026048 0.027851
-0.041972 0.001051 -0.085988
0.043481 0.034415 -0.019442
-0.026870 -0.077629 0.039975
0.040463 -0.000035 -0.114581
-0.002024 0.036689 0.123475
-0.047209 -0.061147 0.079431
-0.026199 -0.076567 0.037752
0.020966 -0.059287 0.112695
-0.009672 -0.089323 0.084163
0.037168 0.036689 0.027929
-0.053646 0.025097 -0.113445
-0.054889 -0.019361 0.053281
0.021226 -0.083563 0.045856
-0.049987 0.059307 -0.050153
0.011396 0.091001 -0.058906
-0.026007 0.085652 -0.058444
-0.053732 0.048926 -0.123501
0.025159 -0.070331 0.107294
0.053741 0.031518 -0.032501
0.043053 0.055783 -0.034884
0.008815 0.027912 0.003832
-0.035042 -0.017116 -0.023026
0.026704 -0.076393 0.037934
-0.039555 0.052408 -0.030576
0.025093 -0.011734 -0.116996
0.008147 -0.018290 -0.079625
-0.005925 -0.027000 -0.031185
0.029205 -0.010891 -0.072182
0.047244 -0.022810 0.015424
0.042948 -0.073913 0.072566
-0.036803 -0.076399 0.085566
-0.008894 -0.066934 0.020762
-0.008248 0.091128 -0.056221
0.049014 0.016414 0.003784
-0.044448 0.069581 -0.080805
0.025581 -0.086328 0.064153
0.054999 0.036027 -0.101363
-0.054845 -0.014642 0.051341
0.015499 -0.072584 0.110075
0.043450 -0.072643 0.059750
-0.045913 0.021826 0.031791
0.052258 0.017245 -0.046123
-0.010790 -0.090846 0.075403
0.019713 -0.014146 -0.123501
0.043151 0.071307 -0.058854
-0.012609 -0.088585 0.084734
0.004178 -0.087797 0.090745
-0.032067 -0.075705 0.094549
0.036204 -0.070682 0.096914
-0.038891 -0.050724 0.030176
-0.051124 0.052604 -0.042894
-0.015520 -0.090154 0.070086
0.031339 0.026716 0.018827
-0.044531 0.069050 -0.053235
0.042253 0.047568 -0.029485
0.014243 -0.020484 -0.047536
-0.042376 0.020931 0.020986
-0.053845 0.043301 -0.041399
-0.051678 0.018341 -0.108757
0.001664 0.035791 -0.010335
-0.052021 0.015313 -0.041856
-0.047146 0.014636 0.021737
-0.051906 0.020436 -0.013134
-0.003663 0.032063 0.012745
-0.041807 0.069808 -0.046978
0.014083 -0.074602 0.028453
0.040345 0.029234 0.029673
-0.011146 -0.078007 0.031382
-0.040021 0.025271 -0.001650
-0.013598 0.071110 -0.030929
-0.045675 -0.064663 0.054666
-0.023697 -0.066125 0.026056
0.016159 -0.090002 0.067234
0.054587 0.030779 0.061562
0.014080 -0.090260 0.062728
-0.027357 0.035742 0.020761
-0.000048 -0.036549 -0.012745
-0.045257 0.019532 0.006961
0.050436 0.059185 -0.052763
0.054951 -0.013814 0.037989
0.022099 0.087562 -0.058627
0.022013 -0.086451 0.055252
0.044660 0.019459 0.024996
-0.050883 0.006950 0.030464
0.002880 -0.048728 0.119612
-0.048836 0.021206 -0.006560
0.050855 0.008030 0.015887
-0.038698 -0.018527 -0.012782
0.031224 -0.041931 0.011403
0.031316 -0.009203 -0.076236
-0.007287 -0.045412 0.000695
0.019820 -0.076511 0.103769
0.029621 0.031036 -0.008203
-0.044895 -0.069447 0.056056
-0.026097 -0.033693 0.115660
0.044572 0.004799 -0.101740
-0.036805 -0.077790 0.055573
-0.052590 0.053012 -0.049423
-0.042748 0.071793 -0.067387
-0.029414 -0.027684 -0.010914
-0.031138 0.031207 -0.008969
-0.028552 -0.070440 0.032193
-0.021646 -0.022599 -0.030888
0.026139 -0.038738 0.002328
-0.010756 -0.070767 0.113161
-0.047316 0.055988 -0.039360
-0.044448 0.069581 -0.080805
0.014084 -0.090476 0.065669
-0.028687 -0.079350 0.092067
-0.035610 -0.080344 0.072251
-0.029035 -0.049571 0.017125
-0.048673 0.036689 0.094129
0.050045 0.008518 0.022350
-0.033354 0.045739 -0.023763
0.010610 -0.017444 -0.086636
-0.017815 -0.080160 0.099862
-0.005315 -0.087499 0.045760
0.038061 -0.024127 -0.003878
0.040345 0.029234 0.029673
0.053952 -0.000192 0.048532
-0.002947 0.074076 -0.031428
0.030230 -0.021680 -0.021381
-0.025868 -0.032234 -0.007279
0.042362 0.031847 -0.015392
-0.002839 -0.021861 -0.050743
-0.054842 0.007832 -0.009153
-0.041903 -0.045288 0.030745
0.047990 0.056472 -0.040758
-0.029709 0.068734 -0.034798
0.032646 -0.069857 0.035337
0.010384 0.083513 -0.040882
0.001009 0.028403 0.001795
0.051926 0.037565 -0.032996
0.000176 -0.075007 0.110548
0.024862 -0.085606 0.057007
0.045647 -0.016125 -0.000804
-0.025592 -0.015267 -0.049999
0.036029 -0.042063 0.106470
0.039699 -0.036794 0.104052
0.041559 0.068051 -0.043897
-0.045899 -0.069663 0.076189
-0.000747 0.031193 0.012056
0.045408 -0.069506 0.058106
0.029550 0.036689 0.022100
0.006041 0.028363 0.001758
-0.051964 0.028544 -0.024489
-0.049098 0.061974 -0.082241
-0.054845 -0.014642 0.051341
0.050934 0.057975 -0.103557
0.027780 -0.010256 -0.116602
-0.050010 0.025684 0.043717
-0.054916 -0.022877 0.068389
0.018400 -0.082568 0.041560
0.052394 -0.040065 0.069885
0.030355 -0.083615 0.062344
-0.047530 0.009439 -0.105946
-0.008821 -0.039764 -0.006292
-0.026796 0.059062 -0.028031
0.008363 -0.045232 0.000729
-0.054031 0.031182 -0.033313
0.037383 -0.049180 0.026555
0.051397 0.056568 -0.050762
-0.048527 0.052881 -0.038417
0.005808 0.029456 -0.001470
-0.019830 0.086111 -0.050934
-0.019971 0.035193 0.017188
-0.050865 -0.041038 0.081027
0.040636 -0.055871 0.036933
-0.054592 -0.009184 0.050967
-0.020229 -0.070211 0.026771
0.040276 -0.069751 0.091754
0.010853 0.081203 -0.038347
-0.040174 0.033256 -0.015705
0.028718 -0.070212 0.104809
0.017971 0.069529 -0.030973
0.020548 0.027400 0.011553
0.040866 0.034319 0.031559
-0.006257 0.035220 0.013787
-0.003117 0.088972 -0.047922
0.007467 -0.090802 0.057847
-0.031771 -0.042471 0.012628
0.045453 0.034296 -0.123501
0.052938 0.007683 0.045414
0.003743 -0.078091 0.106975
0.051636 0.047567 -0.039090
