-0.071889 0.035044 0.012908
-0.005830 0.039883 -0.065849
0.081217 -0.065971 0.046498
0.013100 -0.078591 0.017408
-0.018180 0.033965 0.019883
-0.058773 -0.018798 -0.021204
0.018299 -0.080171 0.035812
-0.073370 -0.005896 -0.004836
-0.040457 -0.002346 -0.070186
0.093788 -0.044931 0.005595
0.080179 -0.061043 0.061427
0.007488 0.024991 0.042487
-0.090752 0.053588 -0.047952
-0.018751 -0.018881 0.035539
-0.019395 -0.009750 0.025873
0.036685 -0.085631 0.035910
0.020842 0.031208 -0.030257
-0.019239 0.048927 0.020267
0.066000 0.003967 0.055048
-0.084810 0.000519 -0.024528
-0.029070 -0.020485 -0.009088
-0.013233 -0.003923 -0.058141
0.041253 -0.089500 -0.027532
-0.017677 -0.029786 -0.042883
0.052858 0.006989 0.061927
0.077568 -0.005088 0.050595
-0.014276 -0.044230 0.010411
-0.076697 -0.004541 -0.047993
0.073532 -0.055847 0.068196
0.087301 -0.006039 -0.001688
0.061364 -0.002311 0.068998
0.002272 -0.069571 0.036772
-0.010594 0.017310 0.020995
-0.008737 -0.056648 -0.003585
0.088745 -0.035483 0.046957
-0.016713 -0.012077 0.035641
0.024079 -0.081673 0.035025
-0.037996 0.084748 0.026860
0.063792 -0.032025 0.078580
0.073195 0.005128 0.035570
-0.022924 -0.014678 0.020165
-0.011132 -0.051887 -0.008622
-0.054262 -0.009488 0.005690
0.069569 0.012082 -0.008039
0.004480 0.014478 0.023260
0.095756 -0.035488 -0.022541
-0.084792 0.035084 -0.054843
-0.000204 -0.000920 0.042471
-0.017014 -0.035314 -0.005629
-0.045158 0.070050 0.026378
0.071720 -0.067867 0.056961
-0.017243 -0.005337 0.042794
0.093290 -0.026458 0.037066
-0.007614 0.007426 0.039131
0.024450 -0.004418 0.072099
0.007526 -0.019974 0.072904
-0.062104 -0.000971 0.009515
0.020575 -0.004045 0.070105
-0.016358 -0.009852 -0.053675
-0.066450 -0.005896 -0.058606
-0.017722 -0.015278 -0.041741
-0.003325 0.019424 -0.058291
0.009933 0.020764 0.018905
-0.076932 -0.006286 -0.044509
-0.021741 -0.021493 0.017641
-0.091857 0.089500 -0.006489
-0.035125 -0.006841 0.011695
-0.072832 0.024211 -0.065998
0.063835 -0.072839 0.058871
0.045602 0.013270 0.044614
-0.016658 -0.035314 0.036114
-0.086777 0.057363 0.000447
0.062403 -0.055709 0.075020
-0.000729 0.004660 -0.028365
-0.023743 -0.021323 0.042783
0.010889 0.056148 -0.044944
-0.079646 0.024535 0.003129
0.024388 -0.083062 0.024258
-0.002967 0.000074 0.036821
0.035949 -0.056364 0.078652
-0.064322 0.035251 0.017640
-0.067490 0.017578 0.012346
-0.073373 -0.005285 -0.052083
0.006065 -0.058140 0.063155
0.016399 0.033763 -0.005267
0.016091 0.019419 0.037899
-0.021044 -0.028123 -0.027532
-0.022344 0.000641 -0.067512
-0.054461 0.011789 -0.073113
-0.000187 -0.066074 0.019116
-0.047196 -0.021215 -0.034087
0.060188 0.016940 -0.015251
0.034979 -0.040122 0.082440
-0.021931 0.023106 0.020566
0.072456 -0.016467 0.070816
0.052465 0.009886 0.054867
0.006831 0.061654 -0.052710
-0.001916 -0.061829 0.035983
0.014045 0.049336 -0.036718
0.094250 -0.037722 0.010385
0.017847 0.004695 0.056002
-0.014509 -0.032406 0.041622
-0.031953 0.010481 0.018955
0.086533 -0.056205 0.035030
-0.030861 0.072739 0.025653
0.077054 -0.060938 0.058864
0.019507 -0.015492 0.075623
-0.020362 -0.010087 0.024507
-0.003083 -0.066608 -0.013188
-0.085260 0.002896 -0.035871
-0.057971 -0.001106 -0.067507
0.010478 0.007771 0.035940
0.029545 0.016688 0.023563
0.093833 -0.035597 0.036812
-0.030524 -0.022861 -0.031391
0.037462 -0.031081 0.082811
0.060940 -0.079289 0.039591
0.095661 -0.035724 -0.006345
-0.056013 0.002896 -0.070230
-0.045501 -0.020010 -0.042009
-0.010992 -0.032574 0.050531
-0.009900 -0.054716 -0.027532
-0.013473 0.076907 0.019244
0.004730 -0.008230 0.061462
0.004108 -0.061185 0.055031
0.007263 -0.035056 0.072425
-0.015861 -0.037691 0.035521
0.041256 -0.089500 -0.027378
-0.002990 0.003054 0.032082
-0.083098 0.005004 -0.010399
-0.007352 0.017563 0.037394
-0.001510 0.037538 0.012832
-0.072895 0.017470 -0.064305
-0.010313 -0.052929 0.005338
-0.034651 0.089500 0.026579
0.018877 -0.082711 0.009738
-0.062394 -0.016249 -0.014276
0.028354 -0.086067 0.009740
0.031838 0.005786 0.064794
-0.015621 0.043339 -0.073567
-0.031327 0.018788 -0.075397
0.065857 -0.000304 0.063605
-0.024138 -0.025652 0.037079
0.013322 -0.044377 0.075217
-0.010600 0.051322 -0.071456
0.074065 -0.069407 0.044935
-0.056104 -0.019213 -0.037283
0.004619 -0.033177 0.072907
-0.017398 0.042497 0.019473
0.006007 0.054686 -0.053061
0.013151 0.068994 -0.022000
0.013757 0.021369 0.042822
-0.000631 0.025545 -0.056545
0.011373 0.030058 0.008922
0.010681 -0.077977 0.009738
0.040411 -0.001179 0.072914
0.038784 0.019136 0.005861
0.004536 0.040977 0.006500
0.070248 -0.058979 0.068994
0.085832 -0.038550 0.058184
-0.081124 0.011755 -0.052856
-0.035912 -0.020015 -0.012610
-0.052018 0.061047 -0.080940
-0.080546 -0.006287 -0.028652
-0.048809 0.031208 0.021956
0.021541 -0.001632 0.068611
0.050221 0.014606 0.033950
-0.059577 -0.016199 -0.010542
0.077656 -0.065574 0.045184
-0.080012 0.020857 -0.057651
-0.049673 0.064357 -0.081594
0.011782 0.083267 -0.042539
0.084868 -0.007255 0.024166
0.024768 0.006689 0.059207
0.090810 -0.042223 0.034988
-0.026374 -0.017802 0.006175
-0.033872 -0.018024 -0.005391
0.024085 0.027138 -0.034763
-0.021991 0.005553 -0.069351
-0.051898 -0.000970 0.013579
-0.021390 -0.027726 -0.024455
-0.093320 0.042552 -0.030841
-0.007750 -0.054765 0.020207
-0.006540 0.071153 -0.070197
0.072565 -0.052984 0.070521
0.091215 -0.021847 0.043099
0.015576 0.013899 0.026252
-0.011882 -0.037180 0.045404
-0.022460 -0.017008 0.036825
-0.083611 0.064026 0.005789
0.040488 -0.050178 0.080939
-0.020128 -0.028251 -0.014938
0.037293 0.020284 0.042212
-0.054421 0.034526 -0.077367
0.079187 -0.035491 0.068994
-0.087974 0.039767 -0.005686
-0.019328 -0.003871 -0.062872
-0.016443 -0.023964 0.044606
0.043495 -0.027299 0.082553
-0.058952 0.006652 -0.070325
0.010477 -0.012883 0.069823
-0.000856 -0.055316 0.061245
0.021708 0.012315 0.033851
0.010041 0.072842 -0.009011
0.064960 -0.083577 -0.007876
-0.025204 -0.011801 0.016872
-0.008664 0.006594 -0.060267
0.014221 0.051293 -0.023637
0.012876 0.046523 -0.044205
-0.081476 0.077406 0.009244
0.019635 0.032609 -0.023646
0.059019 -0.015838 0.077223
0.040481 0.018138 0.014686
0.015686 -0.074661 0.046420
0.048301 -0.088169 -0.001691
-0.003124 0.005185 0.029228
0.055110 0.018732 -0.027532
0.053156 0.018996 -0.014907
0.053808 -0.065779 0.072656
-0.003243 -0.018848 0.060063
0.049380 0.011533 0.050537
-0.001451 0.007148 0.031040
0.066673 0.012073 0.010702
0.023928 0.021283 0.014179
0.001823 -0.041136 0.067172
-0.092234 0.040726 -0.018271
0.082519 -0.068417 0.007107
0.040024 0.020516 -0.027532
-0.007400 0.062206 0.014150
0.013230 0.001888 0.056469
-0.036393 -0.021200 -0.018185
-0.039319 0.049627 0.024902
-0.071825 0.002897 0.004581
-0.061017 0.049869 0.021133
-0.010706 0.002453 0.026619
-0.062616 -0.011400 -0.001899
0.088082 -0.010548 0.036851
-0.017113 0.006264 -0.066908
0.010903 -0.004911 0.064242
0.060741 0.016938 -0.027532
-0.005500 -0.038920 0.058128
-0.019701 0.001450 -0.066532
-0.017958 0.076587 0.021595
0.086279 -0.058896 0.044810
0.053609 0.011749 0.045095
0.017597 0.026603 0.007849
-0.041867 -0.019417 -0.044804
0.024296 0.026528 -0.020400
-0.037706 -0.017520 -0.005452
0.039710 0.005402 0.066739
-0.014105 0.019799 0.020535
0.040592 -0.068280 0.072592
-0.017243 -0.005337 0.042794
-0.009182 -0.029328 0.059719
-0.089957 0.089500 -0.053582
-0.031727 0.089500 0.026145
-0.095452 0.064538 -0.026075
-0.026371 -0.019143 0.001670
-0.066954 0.044376 -0.073661
0.061882 -0.070413 0.064718
0.093680 -0.021503 -0.000044
-0.077993 0.066372 0.012014
0.031608 0.004579 0.066321
0.007265 0.016749 -0.027532
-0.030777 0.003268 0.017602
-0.073738 0.037075 0.011825
-0.023163 -0.025580 -0.018541
0.043013 0.020327 -0.016658
0.027434 0.013332 0.035724
0.005312 0.025799 0.016244
-0.043476 -0.014430 -0.056798
-0.000225 -0.052942 0.056728
0.012462 0.060175 -0.032948
0.044013 -0.076924 0.062951
0.039551 -0.077847 0.061347
0.012466 -0.001245 0.061194
-0.071748 -0.011152 -0.043272
0.050721 0.013184 0.057097
0.010725 0.041093 -0.028165
-0.056013 0.002896 -0.070230
-0.078527 -0.003053 -0.046723
0.012652 -0.073715 0.057001
0.079456 -0.007611 0.050677
0.009137 -0.046477 0.072228
0.016296 0.041605 -0.030365
0.064013 0.014199 0.003203
0.096118 -0.038617 -0.027531
-0.095216 0.083647 -0.038535
-0.045289 -0.006386 0.010985
0.006745 -0.067293 0.046437
0.040484 -0.064095 0.075218
0.002638 0.012991 0.024070
0.021067 -0.063930 0.071104
0.013230 0.001888 0.056469
0.078922 -0.008461 0.054854
-0.000204 -0.000920 0.042471
-0.014018 0.011365 0.037891
0.041994 -0.088616 -0.001658
-0.001086 -0.045549 0.061667
0.042497 0.014016 0.041706
0.009131 0.049380 -0.003976
0.068248 0.004121 0.048794
-0.002990 0.003054 0.032082
-0.017695 -0.002097 0.024023
0.065902 -0.083634 -0.021750
-0.019316 -0.011863 -0.052807
0.091148 -0.035400 0.034066
-0.014058 0.000709 0.042781
0.010946 0.032409 0.006628
-0.024288 -0.025489 -0.027532
-0.050892 -0.017204 -0.048997
0.003793 0.031426 0.013063
0.019846 0.032979 -0.031377
0.004837 -0.048746 0.067739
-0.026902 -0.020525 -0.005332
-0.005327 0.089500 -0.069694
-0.078366 -0.007285 -0.018134
-0.010950 0.034825 0.017715
-0.009294 -0.025560 0.059654
0.085779 -0.006703 0.015901
-0.013129 -0.032476 0.045566
-0.003911 0.077105 0.012134
-0.013602 -0.043147 0.025528
-0.003346 0.009701 0.043279
0.089394 -0.061041 -0.021825
-0.085485 0.006593 -0.016044
0.093516 -0.017987 -0.015080
0.003078 -0.046890 0.066578
-0.003733 0.075301 -0.067952
-0.075840 0.038905 0.010357
0.096118 -0.038617 -0.027531
0.015300 -0.082935 -0.019789
-0.057437 0.031441 -0.075964
0.026742 0.021682 0.010931
-0.087951 0.017651 -0.016222
0.081459 -0.035196 0.066388
-0.082455 0.004932 -0.047066
0.018673 0.009318 0.041159
0.013727 0.084500 -0.027033
-0.019654 -0.016971 0.036208
-0.080438 0.075439 -0.066304
0.009137 -0.046477 0.072228
0.086026 -0.020206 0.061722
-0.095325 0.066373 -0.022656
-0.026374 -0.017802 0.006175
-0.029397 0.032298 0.021875
-0.038901 -0.008448 0.009363
-0.016165 -0.008667 0.030177
-0.077680 -0.005273 -0.011192
0.047150 0.006470 0.064745
-0.088614 0.022536 -0.040910
0.077284 -0.027466 0.072901
0.020025 0.026914 0.003670
0.015738 0.009162 0.037891
0.017245 0.038451 -0.034691
0.031583 0.019885 0.013145
-0.083618 -0.001509 -0.023254
-0.055403 0.022531 -0.075037
-0.030287 -0.013979 0.007026
-0.073331 0.061038 -0.071457
0.030275 0.021418 0.005205
-0.031568 -0.021017 -0.028903
0.026742 0.021682 0.010931
-0.010636 -0.002189 0.031053
0.008830 0.043383 -0.000429
-0.019710 -0.025285 0.024142
0.079077 -0.060250 0.055013
-0.015532 0.008342 0.021595
-0.055927 -0.008099 -0.062676
0.074494 -0.044627 0.071868
-0.008622 -0.036978 0.053409
-0.021923 -0.018948 0.026119
-0.011754 -0.046228 0.027530
-0.052128 0.049866 0.023834
0.041253 -0.089500 -0.027532
-0.017909 -0.030520 0.027905
0.000769 -0.061773 0.040318
0.019132 -0.071797 0.061377
0.092088 -0.054425 -0.009810
-0.038649 0.078748 0.026793
0.066011 -0.051477 0.074989
-0.054095 -0.017732 -0.010444
-0.001688 0.019260 -0.056069
-0.001019 0.022055 0.019343
0.009531 0.016809 0.044522
0.063105 -0.082363 0.036880
-0.015821 -0.027122 -0.031984
0.083650 -0.055496 0.060978
0.082306 -0.050749 0.059706
-0.015506 0.012722 -0.067574
-0.078316 0.002896 -0.003042
0.017847 0.004695 0.056002
-0.006614 -0.002820 -0.051541
0.019114 0.029508 -0.046392
-0.052448 0.070050 0.025356
-0.024253 -0.022841 -0.007858
-0.084667 0.002897 -0.038675
-0.017722 -0.015278 -0.041741
0.050785 0.013166 0.041298
-0.074728 0.049886 -0.069111
0.015605 0.040684 -0.016641
-0.042242 -0.021707 -0.024822
0.049652 0.005390 0.065646
0.080519 -0.023528 0.065644
-0.013875 -0.045453 0.005814
-0.018286 -0.031298 -0.035411
-0.026858 -0.020941 -0.046415
0.067679 -0.054262 0.073143
-0.062393 -0.016068 -0.042486
0.028668 -0.011999 0.077212
-0.019970 -0.028119 -0.010580
0.019248 -0.064083 0.070061
0.018777 0.010869 0.035826
-0.087055 0.082498 0.002337
-0.051885 -0.008467 -0.063749
0.007134 -0.077552 -0.019810
-0.047949 -0.010417 0.006372
-0.048988 0.001447 -0.071475
0.045946 -0.067841 0.072931
0.015407 -0.016938 0.074291
-0.012571 -0.014439 -0.046274
-0.069719 0.012205 0.009442
0.003185 0.022468 0.042773
-0.084497 0.000519 -0.034312
0.011036 0.082344 -0.011085
-0.029574 0.068084 0.025150
0.004076 0.019372 -0.045306
-0.077383 0.035613 -0.064328
0.080179 -0.061043 0.061427
0.025321 -0.077814 0.063779
0.083385 -0.013510 0.049008
-0.042242 -0.021707 -0.024822
0.060528 -0.003652 0.070516
-0.062882 0.005085 0.011924
0.015150 0.045645 -0.033574
-0.021247 -0.015948 0.028111
0.013240 0.041826 -0.008575
0.079045 0.005209 -0.015078
-0.023198 -0.017126 0.017934
-0.014650 0.039017 -0.072363
0.040080 0.014385 0.039715
-0.053827 0.006640 0.016056
0.035172 -0.088875 -0.012466
-0.005320 0.002302 -0.054276
0.058165 -0.019689 0.078659
0.049606 -0.065471 0.073732
0.058030 0.017683 -0.015188
0.003793 0.031426 0.013063
0.007906 0.027813 0.037462
-0.093040 0.053353 -0.040780
0.011569 0.056545 -0.038542
-0.018627 0.071047 -0.077725
-0.016449 -0.029330 -0.043759
-0.001105 -0.069471 -0.019912
-0.002990 0.003054 0.032082
0.043502 -0.015461 0.079884
0.007617 0.046232 -0.000017
0.085631 -0.031613 0.058947
0.015173 0.040246 -0.013523
-0.013855 -0.030025 0.044779
-0.004429 0.068165 -0.068152
-0.059007 -0.017268 -0.013547
0.078513 -0.000886 0.034995
-0.046500 -0.013813 0.001437
0.077211 0.002552 0.022685
-0.012500 0.019266 -0.067072
0.090926 -0.018472 0.018359
0.073446 -0.066275 0.056806
-0.015651 0.018334 0.020739
0.062121 -0.006258 0.071578
0.044173 0.004740 0.067449
-0.070222 -0.009490 -0.049650
-0.084024 0.010637 -0.009226
0.041841 0.008073 0.062840
-0.061385 -0.008805 -0.058959
-0.083131 0.000963 -0.041192
0.019723 -0.039113 0.078842
0.041852 0.009091 0.060912
0.007617 0.046232 -0.000017
0.019248 -0.064083 0.070061
-0.011175 -0.011133 -0.044157
-0.016317 -0.007323 0.028849
0.017634 -0.072049 0.059208
-0.017750 -0.018722 0.043263
0.089800 -0.036465 0.041429
-0.024232 -0.021714 -0.001602
-0.038481 -0.010548 -0.062798
-0.022160 -0.009978 -0.058063
0.011400 0.028768 0.037298
0.016987 0.017731 -0.043049
-0.054769 -0.018841 -0.015143
-0.004997 -0.061930 0.004135
0.073748 -0.043521 0.072929
0.012733 0.089500 -0.017385
-0.010005 0.089500 0.017244
0.022587 -0.038483 0.079911
0.072276 -0.054978 0.069783
0.019804 0.020727 0.016826
-0.014374 -0.007096 0.031433
0.052471 -0.082191 0.055358
0.061907 -0.081490 0.024824
0.070434 0.007328 0.035035
-0.057058 -0.019652 -0.025879
-0.062394 -0.014069 -0.048570
-0.040007 -0.016674 -0.003728
0.085706 -0.035483 0.058982
-0.020011 -0.029266 -0.027532
-0.011270 -0.000114 0.043274
-0.047595 -0.009495 -0.063627
0.015088 0.042038 -0.040911
-0.012360 -0.003412 0.030361
0.084162 -0.003316 0.010881
0.068744 -0.004400 0.065642
-0.044204 0.012928 0.019098
-0.036416 -0.020196 -0.040984
0.071156 -0.074508 0.035056
-0.012908 0.006337 -0.063988
0.018299 -0.080171 0.035812
0.023511 0.007564 0.055359
-0.031128 0.072547 -0.081759
0.018348 0.034609 -0.039654
0.031860 0.021974 -0.027532
-0.020175 -0.029099 -0.027530
-0.065843 -0.014795 -0.014275
0.071596 -0.076575 0.020855
0.016427 0.017854 0.021096
0.022583 -0.029795 0.079863
-0.000161 0.081666 0.008469
-0.025968 0.089500 0.024811
0.010838 0.072977 -0.011280
-0.057304 0.007825 0.015205
-0.010436 -0.046863 0.044668
0.027581 0.015620 0.026383
0.023452 0.016861 0.026559
-0.089628 0.018922 -0.029765
0.072589 0.005927 0.045064
0.071927 -0.004230 0.061932
-0.006877 0.003739 0.044657
-0.015109 -0.037816 0.042680
0.093925 -0.028067 0.010705
0.038263 0.020445 -0.015246
0.045251 -0.074510 0.066388
-0.023469 0.068215 0.023441
0.025504 -0.085264 0.009738
-0.029104 -0.009616 0.013304
-0.092689 0.038899 -0.032904
0.017548 0.015236 0.024560
0.048115 0.012810 0.045434
-0.043463 -0.020891 -0.017801
0.053434 -0.078061 0.056806
-0.072660 0.053681 -0.071187
0.061968 -0.084675 -0.003961
0.003641 -0.013312 0.068050
-0.072921 0.064873 0.016022
-0.010178 0.018229 0.020825
-0.017109 -0.032290 -0.029702
0.008294 0.084764 -0.004164
-0.003878 0.043465 -0.064569
-0.009244 0.050687 0.015281
-0.060275 0.013380 0.015290
-0.027569 -0.023799 -0.031512
-0.000068 0.089500 -0.064506
-0.057090 -0.009120 0.004929
0.077188 -0.040150 0.070516
0.086181 -0.021587 0.050537
0.080709 -0.027255 0.066522
-0.014804 -0.016226 -0.028610
-0.026902 -0.020525 -0.005332
-0.016017 -0.016255 -0.028632
-0.017094 -0.022496 0.036816
0.092459 -0.036201 0.044745
0.043546 -0.067302 0.073219
-0.004429 0.068165 -0.068152
-0.081685 0.068214 0.008436
-0.066460 0.068214 0.020234
0.091820 -0.027599 0.026867
0.025501 -0.087214 -0.027532
-0.035324 0.030924 0.022229
0.076873 -0.063115 0.055252
0.025365 0.020529 0.044318
-0.011840 -0.003882 0.036241
0.013504 0.064882 -0.027521
-0.028798 -0.020422 -0.031160
0.009136 0.072571 -0.049265
-0.005308 0.002534 0.030735
0.058168 -0.054884 0.076875
-0.025941 0.054341 0.023166
0.061673 0.016547 -0.022496
0.027356 -0.071277 0.067494
0.082103 -0.048185 0.061938
0.015116 0.016750 -0.046343
0.013568 0.019920 0.043288
-0.001359 0.067402 -0.065044
0.007751 -0.029959 0.072568
0.025358 0.020943 -0.032272
-0.028215 0.004080 0.018280
0.086942 -0.004213 -0.015054
-0.043220 0.073737 -0.082712
-0.007835 0.006921 0.025038
-0.075041 -0.007673 -0.010529
-0.050928 -0.004536 0.011479
-0.015797 -0.031504 0.044133
0.028354 -0.086067 0.009740
-0.093512 0.044379 -0.024729
0.054000 0.017327 0.007590
-0.058235 0.053532 -0.078612
0.036446 0.017956 0.018920
0.041218 -0.076212 0.064277
0.069651 -0.080445 -0.000044
-0.011754 -0.046228 0.027530
0.071927 -0.004230 0.061932
-0.040010 0.042228 -0.080134
-0.067698 -0.008172 -0.001377
0.072501 -0.071645 0.057084
0.058165 -0.019689 0.078659
0.084682 -0.051050 0.063035
-0.005481 -0.063282 -0.017617
-0.002605 0.089500 -0.067194
-0.000100 0.046086 0.009042
0.012520 0.039277 -0.003937
-0.014280 0.016904 0.020915
0.044476 0.008511 0.061841
-0.024043 -0.023829 -0.042491
0.083723 -0.037257 0.062887
-0.085846 0.029794 -0.004713
-0.000119 0.056058 0.007562
-0.010141 -0.025665 0.052628
0.084807 -0.012971 0.041422
0.030431 0.022290 -0.009047
-0.073809 0.007182 0.004429
0.049548 -0.070267 0.072896
-0.024138 -0.025652 0.037079
0.019729 -0.059284 0.073248
0.004886 0.011070 0.026545
0.083696 -0.051673 0.054847
-0.033792 0.000597 -0.071138
0.037607 -0.066074 0.073922
-0.083508 0.082502 0.007106
0.016259 0.035695 -0.009155
0.028556 -0.077516 0.057938
-0.059943 -0.003054 -0.065310
0.084166 -0.039557 0.061691
0.071925 -0.037773 0.074504
0.043497 -0.004352 0.074858
0.049427 -0.036383 0.082440
-0.019839 0.079803 0.022531
0.069435 -0.051698 0.073129
-0.046252 0.002896 -0.072458
-0.016256 -0.030523 -0.037443
0.017570 0.032237 -0.005285
0.007128 0.037703 -0.045749
-0.029768 -0.017635 -0.000508
-0.057516 -0.003054 -0.066432
-0.041861 0.079629 0.026871
-0.083943 0.004412 -0.013088
-0.030421 0.041894 -0.078965
-0.031488 -0.022372 -0.021268
0.028352 0.023077 -0.003526
0.084221 -0.066733 0.003717
-0.001151 -0.037786 0.064596
-0.021044 -0.028123 -0.027532
0.033000 -0.086436 0.036842
-0.086598 0.079247 -0.058962
-0.014075 -0.007074 -0.055463
0.006470 0.066587 -0.054073
-0.090570 0.050191 -0.008569
-0.077210 0.060808 -0.068282
-0.069121 0.002893 0.006931
-0.003243 -0.018848 0.060063
-0.015151 -0.023625 -0.046194
0.084731 -0.065452 0.007629
-0.061821 0.005602 -0.068723
0.061164 -0.082692 0.018767
0.074065 -0.069407 0.044935
-0.049231 0.038601 0.022985
0.045757 0.017463 0.046541
0.013283 0.049381 -0.040579
-0.022658 -0.020494 0.014450
0.044481 -0.080042 0.055380
0.016978 0.038406 -0.037451
-0.089354 0.024856 -0.016366
-0.081206 0.002895 -0.007987
0.024584 -0.048188 0.079031
-0.083001 0.011542 -0.006609
-0.022024 -0.014113 0.025935
0.012246 0.019670 0.019551
0.007030 0.019385 -0.032794
0.090966 -0.025490 0.030249
0.013315 0.028379 0.009265
0.004188 0.089500 -0.025158
0.086248 -0.007254 0.036834
0.088487 -0.018357 0.035150
0.010247 0.065173 -0.009707
0.011448 0.000518 0.056944
-0.072621 0.075241 -0.072928
0.074423 -0.057060 0.066522
0.014250 0.028850 0.037391
0.039805 -0.082082 0.046382
-0.044028 -0.020181 -0.014373
-0.010636 -0.002189 0.031053
0.014230 -0.055744 0.072153
-0.056455 0.061241 0.023793
-0.078236 -0.006212 -0.014537
-0.055675 0.000519 0.013223
0.016049 0.016955 0.022092
0.001795 -0.032014 0.068012
-0.092076 0.033430 -0.025505
-0.022460 -0.017008 0.036825
-0.085829 0.021140 -0.047962
0.064013 0.014199 0.003203
0.009531 0.016809 0.044522
-0.021991 0.005553 -0.069351
0.095922 -0.039682 -0.018659
0.052261 -0.064772 0.073651
-0.012935 -0.012119 -0.044400
-0.011250 0.041041 0.017061
0.042917 -0.071157 0.072893
-0.039319 0.049627 0.024902
0.086352 -0.064963 -0.006343
-0.030857 0.037734 0.022555
-0.077034 0.077407 0.013525
-0.074728 0.049886 -0.069111
-0.046625 0.005730 -0.073344
0.086160 -0.056342 0.035075
0.034542 0.014066 0.039015
0.001941 -0.056724 0.057044
0.026580 0.024090 -0.003455
-0.010239 0.084779 0.017382
0.060042 0.005829 0.058887
0.005642 -0.025620 0.072910
-0.084302 0.002896 -0.015997
0.009444 0.041912 -0.039962
0.062554 -0.076093 0.050588
0.009742 0.010875 0.028908
-0.083943 0.004412 -0.013088
0.009449 0.028346 0.037434
0.092011 -0.013546 -0.018597
0.015398 0.023139 0.037529
0.004210 0.089500 -0.030938
-0.055273 -0.013659 -0.001291
-0.003744 0.012898 -0.056728
-0.076319 0.003360 -0.056052
0.081849 -0.026385 0.064746
0.007632 0.009275 0.030403
-0.001911 0.012706 -0.054080
0.040592 -0.068280 0.072592
0.028101 0.022783 -0.036390
0.088816 -0.049423 0.034375
-0.095865 0.072433 -0.025852
0.005822 0.078444 0.000183
-0.029083 -0.023258 -0.031550
-0.023670 -0.017975 0.015150
-0.069160 -0.013462 -0.040398
-0.037312 -0.008856 -0.064677
-0.007108 0.002983 0.028781
0.075329 -0.065054 0.054921
0.014343 0.035135 -0.002444
0.054819 -0.086795 -0.000220
0.005843 0.010091 -0.028250
-0.029024 -0.014125 0.008499
-0.002779 -0.042239 0.060893
0.029085 -0.068955 0.070354
0.003965 0.032923 -0.051248
0.062719 0.012994 0.018952
0.060748 0.011668 0.034968
0.006710 0.022706 0.037842
-0.021223 -0.027084 -0.038220
-0.002575 0.002078 0.033939
-0.016426 -0.030586 -0.038644
0.015140 -0.005609 0.068148
0.092088 -0.054425 -0.009810
0.079620 -0.055313 0.060831
0.046247 -0.034500 0.082818
0.010590 0.010365 0.030295
-0.058153 -0.013629 -0.053113
-0.070482 -0.013320 -0.037619
-0.038823 -0.019200 -0.045418
0.087315 -0.044803 0.048404
0.093516 -0.017987 -0.015080
-0.008443 -0.043000 0.048447
-0.023712 -0.007960 0.019607
0.056094 0.009803 0.050614
-0.047937 -0.021426 -0.026898
0.000049 -0.014515 0.061440
0.013425 0.076599 -0.023990
-0.029707 -0.013732 -0.055801
0.003486 0.015988 0.022149
0.074838 -0.063600 0.059029
-0.029210 0.036239 -0.077911
0.077947 -0.033209 0.070209
-0.022910 -0.004567 -0.064328
-0.080208 0.002893 -0.049972
0.010417 0.012292 0.026989
-0.051691 0.011838 0.017787
0.058433 0.014909 0.017355
0.004456 0.089500 -0.031204
0.045200 -0.048062 0.081340
-0.030295 -0.009045 0.012666
0.062132 0.007176 0.062088
0.038634 -0.074514 0.066521
-0.014239 0.001915 0.042782
-0.089114 0.016107 -0.028338
-0.018903 -0.023840 0.035627
0.021183 0.015757 0.025739
-0.020609 -0.012801 0.025017
0.006514 0.026639 0.036972
0.003212 -0.048910 0.065805
0.043479 -0.057097 0.078568
0.014290 0.016207 -0.046191
0.010384 0.024125 0.037520
-0.004047 0.027170 0.017836
-0.045052 0.083570 0.026819
0.001583 0.062823 0.005406
-0.086368 0.006644 -0.036152
0.012588 0.070689 -0.018268
-0.016777 0.048314 -0.074847
-0.084763 0.013205 -0.046517
0.048747 -0.082474 0.041613
-0.007749 -0.059320 -0.019036
-0.029035 -0.002102 0.016658
0.014536 0.029215 0.006794
-0.085846 0.029794 -0.004713
-0.075041 -0.007673 -0.010529
0.006745 -0.067293 0.046437
0.001393 0.000992 0.040733
0.083338 -0.012029 0.059815
0.043248 0.019881 -0.006327
-0.017094 -0.022496 0.036816
0.090771 -0.028224 0.034000
0.034898 0.006678 0.064337
-0.012749 -0.016810 0.043987
0.021943 -0.073409 0.061257
-0.046521 0.019142 0.020146
-0.094660 0.089500 -0.041165
-0.089254 0.038820 -0.008940
-0.003709 0.069574 0.011515
0.012462 0.060175 -0.032948
0.022512 -0.006388 0.072927
0.004167 0.020835 -0.046433
0.028354 -0.086067 0.009740
0.031426 -0.040132 0.081950
-0.007318 -0.000190 0.032248
-0.058773 -0.018606 -0.036305
0.055110 0.018732 -0.027532
-0.010778 -0.000600 -0.058588
0.081215 -0.056846 0.054880
-0.049248 0.002762 0.015901
-0.075341 -0.004541 -0.005834
-0.013230 -0.016401 0.050270
-0.009244 0.050687 0.015281
0.006470 0.066587 -0.054073
-0.068062 0.000966 0.006733
-0.018528 -0.031652 0.008189
-0.042907 0.053840 0.025334
-0.086282 0.011353 -0.014980
-0.069165 0.000383 0.005508
0.030703 -0.083600 0.032135
-0.018167 -0.031693 -0.018796
-0.015625 0.006128 -0.065913
0.023317 0.026763 -0.006968
0.012285 0.041178 -0.005401
-0.028216 -0.023558 -0.024439
-0.018099 -0.006019 0.042780
0.013175 0.063954 -0.021677
-0.007400 0.062206 0.014150
0.078723 -0.054826 0.062776
0.071577 -0.049420 0.072589
0.016987 0.017731 -0.043049
-0.025650 -0.000719 0.018472
-0.048379 0.071999 -0.082208
0.068588 -0.006091 0.067372
-0.045501 -0.020010 -0.042009
0.029041 -0.044243 0.080966
-0.023361 -0.018974 -0.031748
0.084703 -0.061254 0.026918
-0.019390 -0.013688 0.027852
0.049429 -0.019933 0.080657
0.059074 -0.057434 0.075538
-0.012808 0.027793 0.019190
0.024223 0.020502 -0.046256
-0.086138 0.046749 -0.055540
-0.004446 -0.001621 0.053945
0.060300 -0.038112 0.079818
0.026159 -0.084857 0.036836
0.039057 0.020088 -0.008123
0.026784 0.012337 0.039589
0.012353 0.033254 0.003831
0.079909 0.003235 -0.000170
0.005727 -0.072898 0.017408
-0.010082 -0.031523 0.052627
-0.004627 -0.051539 0.045606
-0.028937 0.006160 0.018507
-0.005308 0.002534 0.030735
0.027581 0.015620 0.026383
0.094897 -0.040807 -0.000044
0.004364 -0.006933 0.065743
-0.019673 -0.029129 -0.036569
0.028254 0.023442 -0.010321
0.051666 -0.087614 -0.001694
0.001458 0.055807 -0.060370
0.041168 -0.079367 0.057891
0.091000 -0.013445 -0.000056
0.074045 0.002965 0.034744
0.012180 0.022813 0.016580
0.002523 -0.058789 0.055128
0.091409 -0.051727 0.010996
-0.017615 0.076907 -0.077506
-0.028829 0.089500 0.025556
-0.089641 0.057025 -0.051235
0.058707 0.013451 0.034875
-0.095452 0.064538 -0.026075
-0.014888 -0.034651 0.037961
0.026390 0.016733 0.023058
0.028904 0.020192 0.014331
-0.021053 -0.008780 0.037439
-0.026574 -0.014488 0.037516
0.095256 -0.036054 -0.000215
-0.024170 0.003639 -0.069653
-0.014234 0.019109 -0.068258
-0.024381 -0.025425 -0.031290
-0.013473 0.076907 0.019244
0.064640 0.013148 0.010532
0.054827 -0.087199 -0.006345
0.057151 -0.086961 -0.015259
0.015314 -0.080237 0.036857
-0.046365 0.006981 0.017613
0.021887 0.025611 0.004192
-0.081103 0.062699 0.008565
-0.082457 0.048037 -0.061025
0.006893 0.013616 0.047714
-0.009426 0.043636 -0.069520
-0.018849 -0.012916 0.036454
-0.023355 0.025666 0.020700
-0.053593 -0.015144 -0.052600
-0.089205 0.017561 -0.032334
-0.037279 -0.009246 0.008819
-0.011595 -0.012028 -0.046263
0.070336 0.009868 0.010806
0.070497 0.009232 0.036874
-0.089193 0.064540 -0.002690
-0.027729 -0.023259 -0.019739
0.009237 0.057447 -0.006432
0.049639 -0.069121 0.071172
0.019304 0.019765 0.044633
0.081313 -0.043302 0.065312
-0.024706 -0.020006 -0.028783
-0.061881 0.061010 0.021863
0.045721 -0.082866 0.056960
0.006295 0.057748 -0.000943
0.090882 -0.011251 -0.014911
0.027229 -0.075931 0.060636
-0.051691 0.011838 0.017787
-0.073990 0.049804 0.013632
-0.027184 -0.011498 -0.058557
0.005548 0.051984 0.001216
-0.080324 0.005706 -0.051573
0.087751 -0.005111 -0.027532
0.091148 -0.035400 0.034066
0.052565 0.005936 0.063826
-0.028015 -0.017670 0.002443
-0.048145 0.079248 -0.082493
-0.058374 0.000965 -0.068458
-0.066535 -0.009429 -0.002103
-0.019290 -0.002766 0.022933
-0.094920 0.072003 -0.038273
0.013933 -0.069501 0.059106
-0.058153 -0.019183 -0.032774
-0.016680 -0.030795 -0.038795
-0.014165 -0.036946 0.037715
0.004911 0.008098 0.030593
0.022105 0.021160 0.015282
0.032066 -0.056260 0.078198
0.084162 -0.003316 0.010881
0.058165 -0.047191 0.079181
0.018312 -0.047410 0.076945
0.069132 -0.008856 0.069067
-0.037756 -0.019385 -0.010824
-0.024997 -0.014181 0.015800
-0.081691 0.024358 -0.056424
-0.035887 0.064930 0.025965
-0.007750 -0.054765 0.020207
0.046468 -0.037156 0.082743
-0.006685 0.065154 -0.069882
0.005822 0.078444 0.000183
-0.090144 0.042262 -0.046056
-0.017970 0.055684 -0.076262
-0.010778 -0.036523 0.054057
0.066727 0.006949 0.056330
0.017343 0.024313 0.012160
0.080044 -0.046825 0.065744
-0.089026 0.017772 -0.034333
0.016608 -0.058188 0.072301
0.025495 -0.030457 0.080781
-0.059835 -0.017387 -0.040959
0.059465 -0.080959 0.034063
-0.017615 0.076907 -0.077506
0.012853 0.065455 -0.019604
0.004188 0.089500 -0.025158
0.084747 -0.015765 0.060706
0.016580 0.001548 0.061094
0.074494 -0.044627 0.071868
0.034621 0.005209 0.066329
-0.090239 0.024472 -0.034647
-0.010557 -0.023953 0.051552
0.007717 0.064031 -0.003956
0.075793 -0.010381 0.063605
0.025945 -0.080750 0.056387
0.013476 0.050009 -0.016750
-0.016139 -0.036496 0.027238
0.004188 0.089500 -0.025158
0.069649 -0.011780 0.070513
0.010963 0.081781 -0.045190
-0.017720 -0.015895 -0.039094
-0.016168 0.071156 0.020476
0.065164 0.008552 0.037818
-0.032328 -0.017816 -0.003778
0.019835 0.031839 -0.017644
-0.015061 -0.003773 0.027618
0.007471 0.022058 0.018318
-0.007358 0.052666 -0.069144
-0.043720 -0.020821 -0.038619
-0.017113 0.006264 -0.066908
0.024296 0.026528 -0.020400
0.081589 -0.020926 0.062887
-0.033690 0.006296 -0.073173
-0.030241 0.003735 -0.071682
0.086091 -0.040790 0.056684
-0.037053 0.045283 -0.080349
0.086404 -0.016837 0.057305
0.028374 0.009421 0.054932
0.014849 -0.047372 0.075355
-0.000722 -0.049958 0.058967
0.022105 0.021160 0.015282
0.002981 -0.072334 0.002520
-0.043138 -0.005838 -0.067659
-0.022664 -0.008961 -0.059732
0.001524 -0.051352 0.061874
-0.022880 0.010463 0.019910
0.078630 0.000239 0.026918
0.077955 -0.050694 0.066522
0.007897 -0.047997 0.070862
0.092950 -0.053293 -0.027532
-0.095985 0.079051 -0.032187
0.007076 0.011743 -0.042203
-0.078648 0.011948 0.000446
-0.050769 0.038689 -0.078798
0.055629 -0.038881 0.081120
-0.081294 -0.004537 -0.035165
-0.017854 -0.005840 0.042638
0.003725 -0.005463 0.056870
0.008171 0.007483 0.034331
0.071920 -0.014445 0.072902
-0.058153 -0.013629 -0.053113
-0.018964 -0.021583 0.035539
-0.023345 -0.002500 0.019771
-0.041931 0.053876 -0.081418
0.027440 -0.083825 0.044755
0.084351 -0.000318 -0.027532
0.049789 -0.074440 0.065543
0.021716 -0.060826 0.073285
-0.011319 -0.050208 0.012247
-0.009111 0.057103 -0.071037
0.078254 -0.075202 -0.027532
-0.022473 -0.025071 -0.011700
0.024223 0.020502 -0.046256
-0.044296 0.044380 0.024251
-0.092076 0.033430 -0.025505
-0.032328 -0.017816 -0.003778
-0.032239 -0.021818 -0.036875
0.071138 -0.052250 0.071860
0.023574 0.024333 -0.044864
-0.018296 -0.033208 0.029785
-0.002497 0.045405 -0.063461
-0.033397 0.038786 0.023041
0.049319 -0.088911 -0.027532
0.040592 -0.068280 0.072592
0.090810 -0.042223 0.034988
-0.059991 0.002896 0.012556
-0.052214 0.089500 -0.081934
0.044026 -0.045394 0.081972
-0.046198 -0.010807 -0.062233
-0.000025 -0.024857 0.065504
0.013192 0.060294 -0.020780
0.031114 -0.084804 0.044208
0.063113 -0.084624 -0.011735
-0.016762 0.007819 0.037790
0.054845 -0.003692 0.072928
0.002938 0.034855 0.011381
0.019269 -0.070458 0.063583
0.022604 -0.067228 0.069291
-0.047835 0.089500 0.026579
0.034757 -0.087253 0.009738
-0.007528 -0.056237 0.037001
-0.020328 0.012281 -0.070221
0.037311 -0.067513 0.072967
0.024565 0.021183 -0.046343
0.032984 0.021511 -0.017004
-0.014276 -0.044230 0.010411
-0.093320 0.042552 -0.030841
-0.084923 0.045838 -0.057242
0.088745 -0.035483 0.046957
0.012253 0.058527 -0.015337
0.085581 -0.002786 -0.007877
0.036781 0.020778 -0.023472
0.030070 0.008444 0.059185
0.086950 -0.060421 0.036761
0.010234 -0.061818 0.064827
-0.040902 -0.021794 -0.027014
-0.038018 0.059636 -0.081823
0.011561 0.022760 0.042651
-0.017782 -0.014708 0.035582
0.038684 0.016207 0.028556
-0.071276 0.000966 0.003997
0.066488 0.011691 0.037045
0.054000 0.017327 0.007590
-0.067619 -0.004544 -0.059009
0.025837 -0.082304 0.032147
0.090196 -0.017103 0.020310
0.052369 -0.010170 0.076737
-0.004896 0.004492 0.031825
-0.026756 -0.018432 0.036984
-0.007750 -0.054765 0.020207
-0.080438 0.075439 -0.066304
0.003275 -0.067338 0.032217
-0.017336 -0.028301 -0.046424
-0.002547 0.031097 -0.060544
-0.019511 -0.017533 -0.032883
0.091373 -0.050041 0.036703
0.042917 -0.071157 0.072893
-0.018017 -0.032142 -0.027533
0.022015 0.006869 0.055543
0.014173 -0.041609 0.076095
-0.039317 0.049760 -0.080978
0.011136 0.040463 -0.002273
-0.013892 -0.038149 0.044082
-0.085514 0.007320 -0.040576
-0.007977 -0.058443 -0.009371
0.057423 -0.063204 0.073177
0.023511 0.007564 0.055359
0.091867 -0.012957 -0.027532
-0.039691 -0.009807 -0.063786
0.029118 0.023148 -0.027532
0.040024 0.020516 -0.027532
-0.079718 0.075565 0.010977
0.021708 0.012315 0.033851
-0.026628 0.026831 -0.075692
0.077284 -0.027466 0.072901
-0.002542 0.048929 0.010611
-0.006519 0.018853 0.037884
0.000089 -0.055899 0.052683
0.093401 -0.025062 0.011371
-0.066450 -0.005896 -0.058606
-0.082944 -0.003055 -0.027357
-0.019159 -0.029666 0.004091
0.046350 -0.087297 0.010875
-0.032125 -0.020567 -0.043456
-0.077715 0.017955 0.003532
0.056731 -0.050834 0.078658
0.090810 -0.042223 0.034988
-0.016470 -0.031313 -0.034895
0.090771 -0.028224 0.034000
0.080873 -0.040727 0.066517
0.062399 -0.008112 0.072579
-0.055299 -0.004543 -0.066212
-0.088055 0.035090 -0.048638
0.045475 -0.088022 0.004011
-0.004873 -0.047423 0.052188
-0.062873 0.027814 -0.073120
0.022618 0.027750 -0.010588
-0.011437 -0.029919 0.050303
0.033730 0.020289 0.036815
-0.010055 0.045830 0.016048
-0.027089 -0.018040 0.003470
-0.017145 -0.033798 -0.019271
0.045293 -0.073352 0.067795
-0.020813 0.074074 0.022741
-0.001725 0.002823 -0.028382
-0.007153 -0.013543 0.059118
0.062936 -0.080422 0.028524
-0.027729 -0.023259 -0.019739
0.027229 -0.075931 0.060636
0.009205 -0.002670 0.059670
0.004527 -0.014597 0.066050
0.073564 -0.012540 0.067790
0.011656 0.055016 -0.012163
0.039639 -0.034914 0.083017
-0.007809 0.023463 0.019448
-0.017211 -0.035909 0.013904
-0.001105 -0.069471 -0.019912
0.035130 -0.000595 0.072099
0.077211 0.002552 0.022685
-0.008676 0.028619 -0.066152
-0.009244 0.050687 0.015281
0.031738 -0.068475 0.071450
-0.066535 -0.009429 -0.002103
0.066242 -0.071246 0.059030
-0.019313 -0.019194 0.042653
-0.043146 -0.021378 -0.021066
-0.011250 0.041041 0.017061
-0.004715 0.026655 -0.061908
0.064452 -0.011226 0.073238
0.035214 -0.088500 -0.004946
0.047520 0.018543 0.007127
-0.028177 0.019525 0.020610
-0.012437 0.031980 -0.069719
-0.021053 -0.008780 0.037439
0.018389 0.035761 -0.030368
-0.047835 0.089500 0.026579
0.058165 -0.037060 0.080540
-0.048084 0.072009 0.026181
0.023008 -0.071601 0.064833
-0.071937 0.028280 -0.067612
-0.086368 0.006644 -0.036152
0.011886 -0.055312 0.070850
-0.037776 0.036897 -0.079320
-0.095718 0.082922 -0.035417
-0.018373 -0.028404 0.028404
-0.017913 -0.004184 0.037842
-0.003404 0.083448 -0.067911
0.061900 -0.071722 0.062891
0.031114 -0.084804 0.044208
-0.077263 0.031594 0.007538
0.029237 -0.067636 0.071471
0.073604 -0.008256 0.064376
-0.072978 0.046410 -0.070000
-0.018173 0.043273 -0.074903
0.021909 -0.083097 0.017403
0.050161 0.016768 0.019615
0.086335 -0.040085 0.065408
0.075990 -0.002666 0.048813
0.020597 0.005474 0.057615
0.039181 0.008842 0.061331
-0.071416 -0.005900 -0.002337
0.077020 -0.057485 0.062951
-0.044968 -0.019269 -0.011156
-0.024074 0.049543 0.022071
0.064452 -0.011226 0.073238
0.082519 -0.068417 0.007107
0.013035 0.058030 -0.018890
0.001370 0.034420 -0.056132
-0.052950 -0.017929 -0.045770
-0.064517 -0.004543 0.005339
0.029034 0.011158 0.048042
0.074691 -0.030161 0.072928
-0.027569 -0.023799 -0.031512
-0.012667 0.081935 -0.074974
0.025857 -0.026871 0.080526
0.019079 0.030842 -0.006584
-0.035948 -0.014609 -0.056069
-0.081545 0.082508 0.009341
-0.085725 0.011961 -0.043280
-0.026411 0.047120 0.022537
0.090440 -0.045664 0.030779
0.077451 -0.005688 0.063484
0.053831 -0.016541 0.078880
-0.010600 0.051322 -0.071456
0.092861 -0.050555 -0.000426
0.044907 -0.088501 -0.001694
-0.001779 0.010558 0.027481
0.012717 0.010582 0.035855
-0.067409 0.002897 -0.064284
-0.057352 0.002896 0.013673
-0.007411 -0.039876 0.054014
0.074845 -0.053706 0.068194
0.050282 0.015699 0.027064
-0.036558 -0.012451 0.004894
0.003633 -0.043136 0.068486
-0.011710 -0.002693 0.036735
0.004488 0.018235 0.020895
-0.093200 0.060867 -0.013390
-0.015114 0.083290 -0.076399
-0.009054 -0.022535 0.053605
0.094544 -0.043365 -0.000218
0.080620 -0.018341 0.062886
0.050372 -0.044663 0.081460
-0.040194 -0.021798 -0.029053
-0.073695 -0.007373 -0.007633
-0.088489 0.057198 -0.053536
-0.052463 -0.003054 0.012136
0.002262 -0.003956 0.052362
0.081040 -0.056083 0.056748
0.082451 0.001948 -0.027532
-0.001715 -0.003691 0.059260
-0.023166 -0.019094 0.015163
0.000838 0.015669 0.039222
-0.087501 0.017689 -0.041508
-0.018884 -0.006866 0.025130
-0.033549 0.001324 0.016559
-0.016639 0.005576 0.021865
-0.014219 -0.001731 0.026930
-0.093200 0.060867 -0.013390
0.094302 -0.026077 0.003716
0.057158 0.003335 0.065280
-0.017664 -0.014065 -0.046429
-0.011966 0.043828 -0.071380
0.078030 -0.069139 0.030236
0.000152 0.035461 0.012770
-0.074376 0.024188 -0.064656
0.043495 -0.027299 0.082553
-0.044296 0.044380 0.024251
-0.008664 0.006594 -0.060267
-0.018045 -0.029386 -0.043161
0.014315 -0.063747 0.066952
0.004185 -0.056893 0.061510
-0.077280 -0.007821 -0.039829
0.077090 -0.042101 0.072912
0.076911 0.005728 0.003203
-0.077280 -0.007821 -0.039829
0.057151 -0.086961 -0.015259
-0.033397 0.038786 0.023041
0.004072 0.021784 0.018963
-0.009796 -0.050172 0.025611
-0.089641 0.057025 -0.051235
0.042671 -0.054913 0.079445
0.005254 0.089500 0.001356
-0.071276 0.000966 0.003997
0.086279 -0.058896 0.044810
0.079456 -0.007611 0.050677
0.012180 0.022813 0.016580
0.050161 0.016768 0.019615
0.002770 -0.062530 0.059414
-0.033549 0.001324 0.016559
-0.067437 -0.001106 -0.061973
-0.066703 -0.005305 0.002969
0.018313 -0.012139 0.073767
-0.007153 -0.013543 0.059118
-0.081420 0.010870 -0.004063
-0.003436 0.008605 0.043793
0.010489 0.041812 -0.002200
-0.062102 0.089500 0.022867
-0.037731 -0.007157 -0.066400
0.031619 -0.087976 -0.004947
0.043500 -0.038672 0.082841
-0.028744 0.045675 0.022988
0.000848 -0.047443 0.063457
-0.000685 0.044151 0.010035
0.031950 -0.012803 0.078203
-0.061608 -0.017862 -0.034742
0.014932 0.038954 -0.010348
-0.022184 -0.024576 -0.044233
0.028779 -0.080445 0.046473
-0.058362 0.083450 -0.080281
0.002981 -0.072334 0.002520
-0.019652 0.003415 0.037728
-0.007419 0.058801 -0.069889
0.019114 0.029508 -0.046392
0.020880 0.026691 -0.046405
0.070755 -0.019633 0.073114
0.023090 -0.025466 0.079507
-0.095216 0.083647 -0.038535
0.010417 0.012292 0.026989
-0.012912 -0.022917 0.046872
-0.001911 0.012706 -0.054080
-0.014400 -0.015393 -0.030984
0.009825 0.062440 -0.008469
-0.067804 0.004933 0.008781
0.094699 -0.022892 -0.011845
0.016186 -0.083461 -0.027532
-0.083119 0.049431 0.004381
0.090645 -0.052662 0.036973
0.004531 -0.035509 0.072905
-0.008737 -0.056648 -0.003585
0.024450 -0.004418 0.072099
-0.085345 0.082502 0.004770
-0.003688 -0.066213 -0.027532
0.064035 -0.021235 0.076941
-0.085431 0.024531 -0.050221
-0.067804 0.004933 0.008781
-0.085846 0.029794 -0.004713
-0.014986 -0.039408 -0.023205
-0.016667 -0.032149 -0.028976
-0.026806 -0.023060 -0.016338
0.046468 -0.037156 0.082743
0.061844 -0.044556 0.078489
-0.093971 0.049998 -0.022585
-0.088369 0.012916 -0.031054
-0.058193 -0.008460 -0.061228
-0.093860 0.068214 -0.042081
0.087737 -0.063911 -0.027532
-0.017855 -0.032897 -0.004572
0.027768 -0.081660 0.038932
-0.022473 -0.025071 -0.011700
-0.016351 0.038624 0.019209
-0.003109 0.061848 -0.066338
0.005952 0.020698 0.019394
-0.020917 -0.011165 -0.055389
-0.019511 -0.014362 -0.047187
-0.038343 0.089500 -0.082971
-0.023648 0.023950 -0.074139
-0.021018 -0.003689 0.021724
0.086373 -0.031565 0.056885
-0.062873 0.027814 -0.073120
0.013899 -0.029812 0.076224
0.052230 0.019399 -0.027532
0.008531 -0.077878 -0.004947
-0.018286 -0.031298 -0.035411
-0.029024 -0.014125 0.008499
0.015687 0.002302 0.058731
0.043000 0.007018 0.067833
0.070813 -0.006558 0.065780
0.054770 -0.079626 0.048840
-0.069360 -0.014774 -0.030050
0.005083 -0.027372 0.070354
0.031430 -0.043114 0.081589
0.024584 -0.048188 0.079031
-0.081832 0.002896 -0.046779
0.058165 -0.037060 0.080540
0.094669 -0.047638 -0.027532
-0.013762 -0.045163 -0.007402
0.016580 0.001548 0.061094
-0.018012 0.019248 -0.070585
0.065325 -0.074553 0.050626
0.014275 0.037948 -0.006657
0.011598 0.076907 -0.042659
-0.063856 -0.012283 -0.051300
-0.016521 -0.028378 -0.046378
0.083650 -0.055496 0.060978
0.061707 -0.040225 0.079151
-0.045558 0.042229 -0.079969
0.038684 0.016207 0.028556
-0.055470 0.042739 0.022172
0.003107 0.031895 -0.052514
-0.088422 0.073728 -0.055742
0.051494 0.019032 -0.007875
0.000780 0.012712 -0.049476
0.012062 0.045869 -0.008840
0.001016 0.006939 0.033134
0.019835 0.031839 -0.017644
0.015088 0.042038 -0.040911
0.029370 0.009046 0.057083
0.009264 0.036533 0.004293
0.023113 -0.014178 0.076495
0.016259 0.035695 -0.009155
0.034502 -0.082585 0.057005
-0.022065 -0.017573 0.025994
0.021683 -0.075878 0.054925
0.065264 -0.010819 0.072927
-0.013893 -0.021283 0.050375
-0.094812 0.077409 -0.039783
0.010542 -0.049750 0.072218
0.068293 -0.009721 0.072904
0.088591 -0.061429 -0.006964
-0.083389 0.075569 -0.063036
0.089315 -0.059179 -0.000219
-0.042904 0.000777 0.015766
0.058695 0.000045 0.068196
0.013551 0.075820 -0.028115
0.090391 -0.014509 0.010881
-0.069213 0.071556 0.018891
-0.011966 0.043828 -0.071380
0.001653 -0.024752 0.067059
0.021583 -0.085564 -0.012464
0.060383 -0.073669 0.060954
0.046442 0.009660 0.058945
-0.078176 -0.004535 -0.045092
0.010478 0.007771 0.035940
0.087964 -0.048735 0.055904
-0.044042 -0.015568 -0.001511
0.088887 -0.043564 0.057286
-0.000025 -0.024857 0.065504
0.009421 0.055290 -0.045866
0.013535 0.005855 0.045568
-0.094660 0.089500 -0.014896
0.007566 0.068042 -0.052162
0.088745 -0.035483 0.046957
-0.062749 0.017335 0.015003
-0.036393 -0.021200 -0.018185
-0.017720 -0.015895 -0.039094
-0.054095 -0.017732 -0.010444
0.088532 -0.050494 0.035150
0.052656 0.014668 0.030533
-0.023317 -0.012004 0.019921
-0.029768 -0.017635 -0.000508
0.088509 -0.035669 0.060967
-0.016718 -0.031585 -0.034698
-0.075395 0.066376 0.014246
-0.058307 -0.004536 -0.064961
-0.044874 0.004933 0.017216
0.023771 0.006970 0.057500
-0.032752 -0.019243 -0.008357
0.015195 0.026947 0.009630
0.001079 -0.071642 -0.012466
-0.020380 -0.026651 0.003692
0.050155 -0.087471 0.003713
-0.049212 -0.003059 0.012911
0.082562 -0.020600 0.060951
0.015300 -0.082935 -0.019789
-0.071636 0.012008 0.007856
0.032569 0.012830 0.043847
-0.023596 -0.020932 0.006502
0.019243 0.028713 0.000106
0.052721 0.012730 0.041332
0.012300 -0.075521 0.035093
-0.003655 0.011418 0.042800
0.024768 0.006689 0.059207
-0.008396 0.055725 0.014641
0.084829 -0.064076 0.014364
-0.031703 -0.020639 -0.012539
-0.044968 -0.019269 -0.011156
0.093553 -0.040211 0.036831
0.052301 -0.088288 -0.018659
0.041937 -0.089314 -0.015339
0.012688 0.060617 -0.017809
0.016399 0.033763 -0.005267
0.072896 -0.079441 -0.021279
0.093226 -0.035582 0.020015
-0.094593 0.068036 -0.017161
0.003932 0.053732 0.003101
-0.062616 -0.011400 -0.001899
-0.070528 0.022536 -0.067431
-0.043984 0.038761 0.023551
-0.015061 -0.003773 0.027618
0.030603 0.012816 0.041817
-0.096132 0.083648 -0.024776
0.076720 0.005198 0.008979
0.013606 0.083506 -0.024412
0.084746 -0.031670 0.060951
-0.019839 0.079803 0.022531
-0.000352 0.019266 -0.054074
0.050204 -0.075744 0.063495
-0.039288 0.006272 -0.073753
0.036915 0.004454 0.067635
-0.033408 -0.006348 0.012712
0.065842 -0.067799 0.064745
-0.038823 -0.019200 -0.045418
0.029929 -0.047482 0.080503
-0.070109 0.004933 0.007003
-0.029351 -0.016259 0.003776
0.060185 0.007184 0.054859
-0.001864 -0.021055 0.062560
-0.095046 0.060867 -0.023654
-0.089886 0.022542 -0.021421
0.069187 0.008012 0.035564
-0.012390 0.013207 0.037824
0.018928 -0.084038 -0.004947
-0.015506 0.012722 -0.067574
0.063105 -0.082363 0.036880
-0.027422 -0.019107 -0.001004
0.074468 -0.051440 0.069667
0.077211 0.002552 0.022685
0.082481 0.001183 -0.008222
-0.086138 0.046749 -0.055540
0.026784 0.012337 0.039589
0.024134 -0.006371 0.073183
0.009825 0.062440 -0.008469
0.084511 -0.011514 0.055265
-0.075533 0.017770 0.005838
-0.091175 0.031793 -0.036503
0.013757 0.087500 -0.028032
0.028492 0.023086 -0.033940
-0.007415 -0.048422 0.042294
-0.046048 -0.008102 0.009292
0.019269 -0.070458 0.063583
0.003859 -0.001841 0.062469
-0.052463 -0.003054 0.012136
-0.069935 0.024106 0.012155
0.036685 -0.085631 0.035910
-0.049294 -0.011972 0.003890
0.010634 0.025760 0.042780
-0.020917 -0.011165 -0.055389
-0.007636 -0.035789 0.055815
0.012194 0.071475 -0.016298
0.089531 -0.014186 0.016835
0.021314 0.025175 0.006474
0.079376 -0.011568 0.058918
0.003593 -0.024905 0.068777
-0.003744 0.012898 -0.056728
0.017343 0.024313 0.012160
-0.017969 -0.031863 -0.033075
-0.068527 -0.014532 -0.019250
0.074188 -0.000798 0.048767
-0.024788 -0.018601 0.009289
-0.013903 0.076908 -0.075554
-0.094531 0.066377 -0.038718
0.022495 0.026061 0.001011
-0.018966 -0.008691 -0.057610
0.054452 -0.078354 0.054827
-0.064506 -0.010890 -0.053426
-0.059570 0.060866 0.022742
-0.013211 -0.018154 0.044028
0.082171 -0.067453 0.036760
-0.085260 0.002896 -0.035871
0.018990 -0.084802 -0.027532
-0.029210 0.036239 -0.077911
0.087855 -0.061103 0.004425
-0.023803 -0.006335 0.019522
0.029932 -0.015045 0.078647
-0.026894 -0.004687 0.017180
0.046037 -0.051410 0.080411
-0.092312 0.068324 -0.046961
-0.030468 -0.015114 0.004704
-0.015414 -0.030095 0.040206
-0.006233 0.037340 0.015355
0.086370 -0.051975 0.057632
0.018777 0.010869 0.035826
-0.071416 -0.005900 -0.002337
0.078274 -0.023471 0.068280
0.077955 -0.050694 0.066522
-0.080737 0.049505 -0.063309
-0.019199 -0.029442 -0.009084
-0.007902 0.084775 -0.071758
-0.026411 0.047120 0.022537
0.081838 -0.023724 0.063825
-0.066112 0.083006 -0.077056
-0.004236 -0.007593 0.048200
0.010031 0.084766 -0.047895
-0.049820 0.057026 -0.081014
-0.015151 -0.023625 -0.046194
0.072293 -0.065137 0.060879
0.025987 -0.005160 0.073081
-0.022729 -0.008770 0.042494
-0.024170 0.003639 -0.069653
-0.062749 0.017335 0.015003
0.030601 -0.076549 0.061383
-0.014255 -0.013934 -0.040502
0.033815 0.020311 0.003773
-0.011270 -0.000114 0.043274
-0.094298 0.075536 -0.014355
-0.021004 -0.008850 0.026077
-0.002739 0.039252 0.012953
0.058596 -0.069170 0.068119
0.051038 0.011708 0.048241
0.060262 -0.075675 0.065533
-0.032847 -0.022395 -0.025049
0.039057 0.020088 -0.008123
0.009444 0.041912 -0.039962
0.025721 0.020772 -0.027532
0.021630 0.017799 0.021061
0.006455 -0.021633 0.070279
-0.062009 0.011259 0.013990
-0.077280 -0.007821 -0.039829
0.053454 -0.067885 0.071232
-0.056828 -0.010898 0.002677
0.003107 0.031895 -0.052514
0.085732 -0.009481 0.026880
0.022618 0.027750 -0.010588
0.095661 -0.035724 -0.006345
-0.073563 0.083489 0.016443
0.094661 -0.046221 -0.011546
-0.044068 -0.021740 -0.029324
0.080279 -0.069369 0.017182
0.025321 -0.077814 0.063779
-0.004706 -0.008379 0.059133
0.057754 -0.066788 0.070625
0.003154 0.060681 -0.058716
-0.040972 0.034130 0.022975
0.006501 0.020677 0.042740
-0.087491 0.011927 -0.019605
-0.043146 -0.021378 -0.021066
-0.091986 0.079246 -0.007075
0.002659 0.009775 0.049264
0.032410 -0.066226 0.073187
-0.064322 0.035251 0.017640
-0.006200 -0.060799 -0.001644
0.072050 0.008746 0.010411
-0.031280 0.006360 -0.072720
0.001305 0.017764 0.042751
0.025868 0.003746 0.064990
0.090136 -0.023447 0.034981
0.050447 0.001045 0.070211
-0.028215 0.004080 0.018280
-0.050794 -0.010460 0.005645
-0.003920 0.041301 0.013111
0.037100 -0.006774 0.076081
0.074209 -0.015672 0.068998
-0.091812 0.031791 -0.030847
-0.049294 -0.011972 0.003890
-0.040158 0.025225 -0.077589
-0.016026 -0.011051 0.043334
-0.057058 -0.018361 -0.015685
0.040425 0.017187 0.022226
-0.059584 0.031791 0.019175
-0.027729 -0.023259 -0.019739
-0.013769 -0.008332 0.044427
-0.000611 0.025233 0.017944
0.081197 -0.038145 0.066519
-0.073695 -0.007373 -0.007633
0.094390 -0.020658 -0.018467
-0.056154 0.017677 0.017777
0.040182 0.020308 -0.014798
0.043270 -0.006750 0.076186
-0.035324 0.030924 0.022229
-0.076667 -0.009157 -0.036960
-0.095013 0.075602 -0.017491
0.053772 -0.075181 0.062891
-0.031852 -0.006186 0.013558
-0.050928 -0.004536 0.011479
-0.014922 -0.009362 0.032840
