-0.022661 0.124631 0.019913
-0.007064 -0.044542 -0.200542
-0.026723 0.091270 -0.130708
0.047995 0.106563 -0.006488
0.046331 0.094220 -0.009088
-0.038937 0.038929 -0.254241
-0.042797 0.106537 0.006799
0.048092 -0.009337 -0.202099
0.008894 -0.035062 -0.189839
-0.004728 0.074762 -0.054193
0.047845 0.015800 0.002754
-0.008409 -0.054237 -0.247599
-0.048724 0.025109 -0.214426
-0.027048 0.088086 -0.144395
-0.032817 0.114487 0.020340
0.002954 0.062661 -0.224979
0.007554 0.091796 -0.170803
0.037936 -0.040042 -0.243131
0.000881 -0.051651 -0.215848
0.045937 0.032105 -0.203102
-0.025753 0.092309 -0.132766
-0.006992 0.043791 -0.150798
-0.007817 -0.054407 -0.251742
0.033311 0.062589 -0.150689
0.040536 -0.036792 -0.229743
0.036892 0.034790 -0.168938
-0.033888 0.111885 -0.024027
-0.009511 0.091200 -0.177243
0.051569 0.018076 -0.233169
-0.027621 -0.047590 -0.238194
0.037405 0.117781 -0.003935
-0.022635 -0.013365 -0.178225
-0.022948 0.115849 0.029738
0.030724 0.068480 -0.038255
-0.049936 -0.001221 -0.206588
0.032741 -0.040573 -0.214328
0.017672 0.082918 -0.200041
-0.016984 0.107415 0.039417
0.030336 -0.017490 -0.184565
-0.034276 0.104190 -0.034158
0.006624 0.127903 0.019480
-0.029106 0.118378 -0.023371
-0.023738 0.066818 -0.126236
-0.018619 0.076049 -0.051066
0.051390 -0.019658 -0.249024
-0.031547 -0.032249 -0.198155
-0.021307 -0.046297 -0.210955
-0.043360 0.017067 -0.182883
0.045188 0.034936 -0.223811
-0.040004 0.038039 -0.250820
-0.004944 0.105710 -0.100983
0.029398 0.122905 0.007949
-0.043583 0.110906 -0.010134
-0.027935 0.079601 -0.048382
-0.008243 0.129434 -0.000060
-0.015460 0.105969 -0.091930
-0.050110 0.018740 -0.214750
-0.007394 0.055013 -0.249490
-0.050573 -0.013672 -0.219715
-0.026045 -0.047628 -0.227682
-0.032435 0.109081 -0.043076
0.042742 0.092990 0.020525
0.021343 0.104949 -0.093285
0.002841 0.094060 0.051794
0.039346 0.113992 -0.013611
0.021523 0.093830 -0.156688
0.030216 0.053500 -0.224275
-0.039205 0.111706 -0.010128
0.028443 0.050163 -0.237079
-0.043196 -0.017806 -0.196603
-0.037382 -0.031801 -0.203532
-0.029534 0.123278 0.002076
0.003426 0.107932 0.042510
0.036786 0.042157 -0.243712
-0.016600 0.064037 -0.127171
0.033888 0.078054 -0.039218
-0.027392 0.049528 -0.242096
0.027340 0.108437 -0.045322
-0.021508 0.046001 -0.151276
0.047281 0.093839 -0.000201
-0.015706 0.095208 -0.154420
0.031054 0.077840 -0.127343
-0.027805 0.121671 -0.013774
-0.045429 0.107377 0.012015
0.022891 0.115613 -0.037172
0.040672 0.104249 0.017660
-0.030410 0.083989 -0.157975
0.043897 0.097431 -0.015491
0.021506 0.126755 -0.001017
0.035667 0.116519 -0.015291
0.020316 0.115627 -0.040400
0.032650 0.070316 -0.144480
0.018111 0.062248 -0.220282
-0.006777 0.106041 -0.098089
-0.047300 0.030302 -0.223575
-0.000269 0.057021 -0.240671
-0.054241 -0.000921 -0.237145
0.024824 0.078611 -0.050782
0.030812 0.093051 -0.059417
-0.006777 0.106041 -0.098089
-0.031482 0.045235 -0.253590
-0.049794 0.004814 -0.205294
0.043490 0.084084 0.024614
0.021747 -0.046877 -0.213509
-0.021280 0.114709 -0.041745
-0.000504 0.116223 -0.049398
-0.045357 -0.030850 -0.233217
0.022877 0.098404 0.046747
-0.036094 0.088168 -0.037021
-0.026074 0.061939 -0.138802
0.003233 0.090239 -0.177896
-0.036275 0.060634 -0.164365
0.038243 0.048270 -0.167531
0.028296 0.083101 -0.159545
0.021881 0.124421 0.018317
-0.043122 0.091073 0.026468
-0.027983 0.070899 -0.041260
-0.012634 0.106623 -0.093468
0.031181 0.015800 0.036394
-0.022549 0.126072 0.010570
-0.030015 0.084977 -0.054770
-0.052517 -0.015978 -0.243410
-0.017381 0.094129 0.043938
0.035270 0.103610 -0.032318
-0.048876 0.093966 0.011774
-0.042980 0.088369 -0.021215
0.046041 0.030423 -0.249079
-0.017231 -0.035671 -0.192914
-0.026510 0.114345 0.028191
-0.002466 -0.054894 -0.252009
0.038541 0.102978 0.031181
0.026744 0.089529 -0.169417
-0.038232 -0.034471 -0.211557
0.016966 0.090179 -0.178170
-0.051956 0.006463 -0.218209
-0.004664 0.107285 -0.094626
0.038735 -0.031365 -0.205284
-0.046480 0.089337 0.011165
-0.002071 0.086678 -0.189222
0.035842 0.077213 -0.035692
-0.032024 0.100162 -0.044569
0.024511 -0.049305 -0.248418
0.020186 -0.048631 -0.218245
0.024966 0.093996 -0.150800
0.012896 0.087497 -0.190089
0.024571 0.124031 -0.010996
-0.034316 0.016281 -0.173161
0.050952 0.020872 -0.244190
0.047492 0.028675 -0.239624
0.050324 0.021731 -0.227904
-0.028204 0.114472 0.026381
-0.027194 0.088444 -0.141358
0.050905 0.020881 -0.253519
-0.037637 0.113625 -0.011011
-0.005792 -0.049121 -0.208388
-0.030817 0.080414 -0.129690
0.000146 0.123665 -0.028089
0.025419 0.063674 -0.211643
-0.043753 -0.033363 -0.254177
-0.003635 0.107244 -0.092691
-0.028801 0.087554 -0.129611
-0.041874 0.043135 -0.213797
0.005640 0.064753 -0.047923
-0.001958 0.127300 0.022462
-0.024518 0.107228 -0.058848
0.010115 0.084873 -0.198293
0.037240 0.050497 -0.164651
0.022479 0.051528 -0.147495
-0.030786 0.087311 -0.058365
0.029146 -0.044416 -0.219067
0.016826 0.056237 -0.141140
-0.011477 0.104754 -0.102312
0.031076 0.086948 -0.054516
-0.020566 0.057213 -0.228746
-0.008493 0.061913 -0.130805
0.024864 0.059090 -0.141292
-0.034373 -0.041641 -0.223475
0.001825 0.056525 -0.139341
-0.003271 -0.020262 -0.178697
0.042728 0.107648 -0.002366
-0.002683 0.093064 -0.167133
-0.008498 0.104824 -0.106676
-0.018463 0.124383 0.021901
0.027643 0.110914 0.030264
-0.034355 0.035563 -0.165607
-0.017541 -0.052027 -0.242566
-0.011402 0.129150 0.001555
0.028930 0.100051 -0.059037
-0.047144 0.094093 -0.002954
-0.008494 -0.006622 -0.172332
0.045117 0.033822 -0.231798
0.042124 -0.032587 -0.219960
-0.049468 0.024305 -0.225462
-0.027793 0.119358 0.020433
0.000138 0.128518 -0.010525
-0.003887 -0.041286 -0.195689
-0.026101 -0.048019 -0.231757
-0.010599 0.101380 -0.121989
0.016606 0.127323 0.014409
-0.028398 0.085848 -0.143731
0.012187 0.057183 -0.235771
-0.025245 0.086735 -0.162924
-0.047315 0.092486 0.003982
0.021421 0.056252 -0.230201
0.046766 0.092401 0.008295
-0.035687 -0.041434 -0.228934
-0.021926 0.085622 -0.189867
0.027251 0.055722 -0.146686
-0.031680 0.025107 -0.167745
0.019945 0.089282 -0.169954
0.003424 0.112599 0.039768
0.036492 0.084181 -0.036100
0.023676 0.122291 -0.018455
-0.019066 0.124619 -0.016375
-0.038104 -0.019540 -0.192202
0.000623 0.074938 -0.055559
0.026034 0.109240 -0.058909
-0.040629 -0.035871 -0.225095
-0.030401 0.057184 -0.148876
-0.026444 0.084505 -0.165959
-0.040912 0.033705 -0.175562
0.022914 0.126439 0.003392
0.025617 0.054867 -0.146200
-0.010764 0.076028 -0.204259
-0.046592 0.101232 0.021221
-0.048641 0.105992 -0.002891
-0.038357 0.049897 -0.168296
-0.010828 0.102668 -0.117433
-0.005412 0.128772 0.016123
-0.015455 0.100254 -0.126601
0.017796 0.127986 0.004371
-0.000139 0.086032 -0.196782
0.021245 0.113356 -0.045604
-0.007231 -0.017334 -0.177280
-0.019242 0.064106 -0.128444
0.040409 0.036683 -0.174066
-0.047896 0.086123 0.000793
0.015631 -0.047873 -0.209837
-0.027641 0.094086 0.038308
-0.019968 0.110362 -0.057928
-0.014457 0.093375 -0.164952
-0.033888 0.111885 -0.024027
0.039788 0.104722 0.027614
-0.036041 0.073987 -0.034280
-0.011379 0.105071 -0.100596
-0.012970 0.057865 -0.233251
0.018948 -0.050954 -0.232094
-0.040516 0.044546 -0.217554
0.013818 0.075602 -0.052449
0.002156 0.117205 -0.046264
-0.015050 0.104026 -0.103182
-0.030508 0.075799 -0.123632
0.031176 0.078634 -0.146314
0.027171 0.076317 -0.045410
-0.038404 0.109523 0.016499
-0.034770 0.077043 -0.037361
-0.021820 0.094111 0.046832
0.035703 0.109021 -0.024326
0.032864 0.096482 -0.044404
0.028972 0.123362 -0.002599
0.004649 -0.012747 -0.174876
-0.031911 -0.044853 -0.252091
0.015527 -0.052571 -0.241473
0.053623 -0.003515 -0.231448
-0.020597 0.094830 -0.142130
-0.015458 0.101902 -0.117305
-0.016582 0.042789 -0.152311
0.010135 0.075644 -0.054136
-0.032165 0.060894 -0.035530
0.028902 0.123590 0.004520
-0.033284 0.051681 -0.156642
0.019631 0.060009 -0.136954
-0.037187 0.093405 -0.037167
0.030560 0.082504 -0.124784
-0.030875 0.108927 -0.047728
-0.017789 -0.000372 -0.170706
0.043680 0.102368 -0.011113
0.021464 0.100593 0.040318
0.007799 0.071716 -0.050038
0.032621 0.072636 -0.038082
0.040155 0.049434 -0.200463
-0.031279 0.080065 -0.044366
0.026183 0.068597 -0.126501
-0.049157 -0.021270 -0.224935
-0.018414 0.077201 -0.054906
0.050417 0.021208 -0.226250
0.043831 0.105020 -0.004058
-0.032936 0.120583 -0.003312
-0.027918 0.087984 -0.137305
-0.043138 0.112407 0.000095
0.045328 -0.028482 -0.222476
0.011264 0.084991 -0.191672
-0.031539 0.076584 -0.138850
0.032790 0.085809 -0.046646
-0.054351 -0.003421 -0.239575
-0.029614 0.081780 -0.153335
-0.017994 0.112282 -0.058180
-0.013508 0.084635 -0.197770
-0.027382 0.082015 -0.056870
-0.033279 0.066673 -0.193184
0.030764 0.092227 -0.062647
-0.029994 0.046474 -0.250815
-0.031772 -0.045015 -0.238052
0.021459 -0.050664 -0.253523
-0.009511 0.091200 -0.177243
0.009711 0.114757 0.037155
-0.030064 0.082138 -0.143626
0.027724 0.063602 -0.039361
-0.007447 0.056145 -0.242642
-0.047768 -0.026273 -0.230827
0.018679 0.076565 -0.061048
0.029261 0.068813 -0.039515
-0.030023 0.107883 -0.055317
-0.032773 -0.028982 -0.195725
0.028720 -0.017157 -0.183377
0.028867 0.083234 -0.153270
-0.022097 0.057804 -0.225813
0.033221 -0.043941 -0.248862
-0.023507 -0.049554 -0.236557
0.008439 0.075723 -0.055212
-0.011567 0.104767 -0.102165
-0.031295 0.060608 -0.208198
0.031872 0.090677 -0.052199
-0.012319 0.120727 0.030757
0.039908 0.013486 -0.179303
0.028866 0.082684 -0.156421
-0.038404 0.109523 0.016499
0.028573 0.088497 -0.127007
0.048648 0.084934 0.009990
-0.052916 -0.005463 -0.226685
-0.023573 0.094671 -0.133614
-0.030762 -0.039222 -0.206668
0.041970 0.042587 -0.186437
-0.039629 -0.038222 -0.234672
-0.045430 0.002865 -0.259000
0.009896 0.129188 -0.001226
0.047184 -0.001547 -0.194113
-0.027013 0.091596 -0.126416
-0.003991 0.125784 -0.021215
-0.030553 0.081143 -0.139483
0.028769 0.085327 -0.142543
0.045050 -0.028281 -0.220509
0.043951 0.097071 0.015603
-0.045731 0.104004 0.018501
-0.008497 0.102080 -0.122109
-0.027096 0.080760 -0.051978
-0.046358 0.097763 0.003198
-0.024363 -0.025239 -0.186799
0.038414 0.091718 0.028072
0.050269 0.102935 0.005860
0.038414 0.091718 0.028072
0.013849 0.088905 -0.178643
0.005541 0.129448 0.011336
-0.011263 0.099835 -0.129729
0.038894 0.102315 -0.024665
-0.018642 0.088932 -0.181742
0.018208 0.059087 -0.226517
0.048695 0.025661 -0.253085
0.046653 -0.000103 -0.192269
0.045587 0.100805 0.000812
-0.016528 0.124729 0.022700
0.012162 0.122414 -0.028490
-0.026166 0.064281 -0.040492
0.027639 0.115682 0.025617
0.013504 -0.005015 -0.172051
0.039063 0.041698 -0.170403
0.004328 0.129132 -0.006060
-0.011251 0.103862 -0.107534
0.002115 -0.050564 -0.211011
0.012896 0.087497 -0.190089
-0.004388 0.117460 0.037646
-0.016843 0.108710 -0.077760
0.015631 -0.047873 -0.209837
0.050079 0.097807 0.003234
0.052173 -0.017327 -0.246233
0.000142 -0.027919 -0.183421
-0.040320 0.020986 -0.177660
0.042194 0.113426 -0.000946
-0.035062 -0.039731 -0.217948
-0.024310 0.106087 -0.065309
-0.049881 -0.022073 -0.233227
-0.017563 0.126367 0.017337
0.032459 -0.042165 -0.219138
-0.043110 0.110692 0.010188
-0.009730 0.117872 0.034532
0.018328 0.052280 -0.250548
-0.031876 -0.004454 -0.178408
-0.020354 0.084211 -0.186943
-0.018247 0.064656 -0.126046
-0.031160 0.077394 -0.130780
0.020051 0.083991 -0.187918
-0.023857 0.080465 -0.195348
-0.033800 -0.043481 -0.249872
-0.004283 0.129552 0.010983
-0.043360 0.017067 -0.182883
0.039908 0.013486 -0.179303
0.016006 0.113641 -0.051083
0.031379 0.121603 0.006800
-0.011452 0.091590 -0.174692
-0.025290 0.117148 0.028243
0.028143 0.086990 -0.140235
0.030400 0.121958 0.009062
0.015308 -0.011614 -0.175228
-0.033487 0.060724 -0.152103
-0.011263 0.099835 -0.129729
-0.051212 -0.007972 -0.217222
0.026602 0.045197 -0.154016
0.033797 0.114188 -0.020185
-0.030948 0.077009 -0.125216
0.031252 0.102566 -0.044427
0.025593 -0.045113 -0.213886
0.054980 0.000000 -0.256989
0.002918 0.056954 -0.240699
-0.005495 -0.033146 -0.187661
0.022167 0.092868 -0.147765
-0.001197 0.042275 -0.151577
0.033367 0.065427 -0.035037
-0.048162 0.088858 0.013368
-0.008494 0.104137 -0.110583
-0.004140 0.105920 -0.102820
0.027941 0.104787 -0.052271
-0.004493 0.104536 -0.107971
0.033879 0.102620 0.036282
-0.018921 0.127113 0.011914
-0.013566 0.105220 0.045728
-0.001468 -0.025215 -0.181624
-0.000769 0.090121 -0.178614
0.016766 0.097115 0.043508
0.008993 0.118185 0.035962
-0.025300 0.073772 -0.198171
-0.053127 -0.010610 -0.234048
-0.012340 0.061350 -0.046297
-0.020555 0.117587 0.029700
0.004274 0.086632 -0.194927
-0.052916 -0.005463 -0.226685
0.047846 0.015800 -0.002729
0.008816 -0.054298 -0.255285
-0.002991 0.065962 -0.048429
0.037792 0.091372 -0.032316
0.032261 -0.024375 -0.191038
-0.028982 0.082478 -0.156415
-0.033533 0.057309 -0.209467
-0.011021 0.119775 0.033655
0.042966 0.015800 -0.021233
0.029815 0.085331 -0.126252
0.036616 0.062871 -0.178216
-0.015457 0.100587 -0.124738
-0.010183 0.129137 -0.001395
0.024983 0.107436 -0.056041
-0.006940 0.073448 -0.207919
0.031328 0.054021 -0.220991
0.049940 -0.010769 -0.212663
0.009469 0.061848 -0.225340
-0.028071 -0.031110 -0.194237
-0.005974 0.106419 -0.096330
-0.031243 0.078442 -0.145411
-0.027641 0.099919 0.036610
-0.008497 0.105806 -0.098427
-0.034527 0.047291 -0.231206
0.025357 0.118977 0.023905
-0.023784 0.079224 -0.055530
0.030489 0.096780 -0.055307
0.036066 0.050526 -0.162067
-0.029969 0.095526 0.036180
-0.016485 0.022363 -0.161964
0.030657 0.096684 -0.054242
-0.006374 0.015800 0.047498
-0.008511 0.104731 -0.104594
-0.032227 -0.038189 -0.206724
0.028866 0.082684 -0.156421
-0.027812 0.112178 -0.036301
-0.046403 -0.029551 -0.254560
-0.003122 0.072905 -0.051945
0.034639 0.032574 -0.167197
0.046512 0.091888 -0.009917
0.026258 0.107194 -0.052244
0.010106 0.121464 -0.032146
0.031925 0.113107 0.023380
0.021063 0.077140 -0.201721
0.029219 0.070846 -0.130242
0.008408 0.103367 0.048230
-0.047604 0.029198 -0.214723
0.018026 -0.050536 -0.225562
0.039130 -0.019822 -0.193458
-0.000187 -0.053972 -0.234465
-0.011763 0.101479 -0.123164
-0.048597 -0.020855 -0.220820
0.046814 0.087225 0.010127
-0.052517 -0.015978 -0.243410
-0.036653 0.057616 -0.198799
0.034501 0.043896 -0.162084
-0.040648 0.109608 -0.009499
0.046581 0.086744 -0.016159
-0.051712 0.013641 -0.222107
0.024769 0.052016 -0.238040
-0.028420 0.051684 -0.232284
0.031788 0.119011 0.014205
0.042999 0.099757 -0.016174
-0.012875 0.127974 -0.007870
-0.007802 0.090274 -0.176456
0.048270 0.027770 -0.223482
-0.010915 0.091160 -0.171480
0.046154 0.088936 -0.012532
0.002115 -0.050564 -0.211011
0.026649 0.119420 0.021796
0.046742 0.031646 -0.212791
-0.011453 0.106783 -0.093494
0.033658 0.104150 -0.035772
0.026967 0.124690 0.003814
-0.014731 0.104026 -0.103504
-0.002687 0.058695 -0.136303
-0.022440 -0.002555 -0.172887
0.035776 0.102764 0.034362
0.031446 0.115982 -0.021894
0.043937 0.074591 0.022084
-0.019397 0.111413 -0.054834
-0.032694 0.014130 -0.172641
-0.008497 0.102080 -0.122109
-0.015685 0.075181 -0.050999
-0.041568 0.034951 -0.177027
-0.040273 0.042980 -0.224256
-0.044428 -0.022785 -0.205598
0.031872 0.090677 -0.052199
0.028592 0.106533 -0.046173
0.000000 0.109012 0.042087
0.050328 0.015454 -0.212553
-0.013504 0.104160 -0.103927
-0.020251 0.124469 0.020039
-0.013909 0.055915 -0.238716
-0.010520 0.120609 -0.034308
-0.025300 0.073772 -0.198171
-0.034474 0.098169 0.031017
-0.041595 0.032682 -0.177093
0.013671 0.127656 -0.008900
-0.043558 0.100372 -0.013933
-0.050734 -0.004956 -0.212342
-0.022510 0.066495 -0.125003
0.041129 0.102194 0.028820
0.003081 0.054918 -0.257418
-0.048016 0.021055 -0.202669
-0.028761 0.090298 0.038090
-0.043019 0.111947 -0.008065
-0.013420 0.104875 -0.102590
-0.008494 0.100048 -0.132762
-0.031197 0.090883 -0.057510
-0.017463 0.127300 -0.006262
-0.049493 -0.024018 -0.259000
0.007977 0.054695 -0.251929
0.017866 0.118508 0.031965
-0.046933 -0.014340 -0.202195
-0.030337 0.106003 0.036169
-0.017967 0.091113 -0.165642
-0.036248 0.053108 -0.210883
0.040122 -0.037807 -0.245828
-0.013320 0.083225 -0.201186
0.049599 0.088769 0.003465
-0.034474 0.098169 0.031017
0.009303 0.064459 -0.220417
0.030825 0.077062 -0.122090
-0.012409 0.003707 -0.168518
0.036974 0.106812 0.028703
-0.019242 0.064106 -0.128444
-0.023605 0.125278 0.012604
-0.053352 0.011648 -0.239282
-0.006138 0.106690 -0.094668
-0.007829 0.059783 -0.230553
0.029977 0.084822 -0.054477
-0.038353 0.114657 0.003035
-0.044450 0.103978 -0.000281
-0.042731 0.040226 -0.220049
0.039967 0.101355 0.021569
0.018530 -0.050889 -0.229993
0.021305 -0.021781 -0.182905
-0.020354 0.084211 -0.186943
0.039675 0.099925 0.033007
0.031038 0.085384 -0.051502
-0.027687 0.057316 -0.220032
0.036812 0.044682 -0.165358
-0.021227 -0.048364 -0.218881
-0.042351 0.113107 -0.005092
-0.010392 0.070957 -0.048980
-0.047664 0.089895 0.003008
0.013675 0.116623 0.035990
0.029249 0.080397 -0.165997
0.008862 0.065547 -0.047492
0.034519 0.113524 -0.025921
-0.002999 0.105062 -0.105638
0.010854 0.089015 -0.179804
0.001694 0.074066 -0.053611
-0.019911 0.083485 -0.197335
-0.026769 0.074956 -0.044572
0.040828 0.036891 -0.255442
-0.000152 0.034239 -0.155906
0.048981 0.025559 -0.241929
0.046795 -0.027058 -0.226407
0.027717 0.123703 -0.005282
-0.008622 -0.026808 -0.183163
0.048205 -0.026567 -0.251641
0.037497 0.113933 -0.010711
0.047281 0.093839 -0.000201
-0.031851 0.087734 -0.051778
0.033497 0.070871 -0.156509
0.037651 0.082318 -0.033213
-0.025009 0.079713 -0.060284
-0.009824 0.082992 -0.202699
-0.015460 0.102403 -0.114499
0.025453 0.048778 -0.256135
-0.034313 0.053205 -0.216247
0.019767 0.084454 -0.187159
0.000395 0.065800 0.049403
0.030410 0.107061 -0.058755
-0.033352 -0.036522 -0.205316
-0.040055 0.107278 -0.015730
0.040586 0.038261 -0.243536
-0.042073 0.044346 -0.202793
0.042285 0.037410 -0.236076
-0.046653 0.003398 -0.191554
-0.015458 0.105578 -0.096707
0.021926 0.061988 -0.135002
0.034068 0.119678 0.002739
0.014356 0.061886 -0.223205
-0.015434 0.104163 -0.102018
-0.014323 0.126461 -0.013907
-0.013461 0.063992 -0.046146
-0.015457 0.102896 -0.109096
0.017649 0.125955 0.018622
0.045356 0.093792 0.013377
0.028737 0.063665 -0.140206
-0.013502 0.120126 0.032308
0.007533 0.055651 -0.245070
-0.050412 0.103391 0.001737
-0.015685 0.075181 -0.050999
0.042295 0.106005 -0.027511
-0.046498 -0.024747 -0.218531
-0.028203 0.092289 0.042897
0.025561 0.111715 -0.047968
0.047365 0.085995 -0.013815
-0.042186 0.113434 -0.001480
-0.046358 0.097763 0.003198
0.020337 0.090430 0.043164
-0.002673 0.003506 -0.168071
0.023661 0.065699 -0.129200
-0.026199 0.080849 -0.058932
0.031153 0.119469 -0.016726
-0.038295 0.066553 -0.029097
0.020328 0.077617 -0.054210
-0.039223 0.113592 -0.001343
0.049734 -0.023262 -0.238839
-0.047054 -0.028597 -0.249199
-0.053093 0.014333 -0.250527
-0.045138 0.109111 -0.010668
-0.005463 -0.051972 -0.219270
-0.007568 -0.049131 -0.208883
0.023457 0.123552 0.018386
0.044990 -0.016509 -0.198082
0.048234 -0.002434 -0.198953
-0.046657 0.108479 -0.003477
0.044885 -0.031960 -0.239119
0.052708 -0.004321 -0.224438
-0.034066 0.092631 -0.042130
-0.049794 0.004814 -0.205294
-0.044321 0.110935 -0.005892
-0.026958 0.047956 -0.256263
0.011361 0.087672 -0.184146
-0.021638 0.067393 -0.209721
-0.026510 0.114345 0.028191
0.020531 0.111065 -0.054074
0.038823 0.047561 -0.216001
-0.027602 0.016948 -0.168302
-0.037618 -0.040006 -0.231735
-0.008465 0.088449 -0.188567
-0.034458 0.069031 -0.174206
-0.037526 0.091807 0.029229
-0.022821 0.105831 -0.086153
0.041149 0.100143 0.031042
0.041637 -0.018167 -0.194950
0.026543 0.075033 -0.044807
0.016972 0.128135 0.001321
-0.041523 -0.031780 -0.215226
-0.025176 0.095821 -0.140217
-0.005908 0.062443 -0.047630
0.051161 0.020139 -0.239423
-0.012376 0.104389 -0.103633
-0.013508 0.124755 0.024586
0.028195 0.079637 -0.177352
0.017271 0.076298 -0.060994
-0.037154 -0.039693 -0.225963
0.051116 -0.020331 -0.259000
0.016236 -0.052206 -0.238097
0.026228 0.060721 -0.140567
0.021687 0.077431 -0.051744
0.031692 0.075967 -0.140206
0.025052 0.066610 -0.129276
0.000475 -0.022464 -0.179914
-0.024787 0.118609 -0.027060
0.017781 0.096178 -0.141381
-0.036572 0.089755 0.030730
-0.025164 0.080116 -0.056117
0.005315 0.060334 -0.047610
-0.025982 0.054376 -0.146896
0.037518 0.075201 -0.032199
-0.001680 0.118441 0.036976
-0.053576 0.009210 -0.236755
-0.036696 0.046857 -0.225932
0.052494 -0.008088 -0.225646
-0.045147 0.101599 -0.004066
0.047109 0.088519 -0.008373
-0.043565 0.026504 -0.182621
-0.016582 0.042789 -0.152311
-0.045701 -0.002445 -0.191328
-0.020684 0.112451 -0.049160
-0.000694 0.104378 0.044282
-0.015051 -0.021870 -0.181019
-0.008497 0.100804 -0.128867
-0.044568 0.008981 -0.186488
-0.029388 0.084193 -0.141196
-0.005868 0.127638 -0.013753
0.023280 0.063258 -0.214439
-0.002367 0.063563 -0.048080
-0.041150 0.098879 -0.021861
0.039740 0.107598 -0.016136
0.018063 0.057995 -0.229151
-0.015456 0.101675 -0.118592
0.034857 0.062794 -0.155888
0.010536 0.062022 -0.130880
0.014098 -0.052859 -0.240075
-0.044891 0.106694 0.015249
0.039280 0.095400 -0.028172
0.020446 0.083650 -0.196553
-0.026958 0.047956 -0.256263
-0.038384 0.046337 -0.221522
0.035126 0.092750 -0.038875
0.037097 0.099607 0.036023
-0.011252 0.100284 -0.129801
-0.007166 -0.020478 -0.179008
-0.037730 -0.033811 -0.208409
-0.009720 0.129404 0.003334
-0.000759 0.062428 -0.048021
0.004416 0.128696 -0.008904
-0.024307 0.053130 -0.235133
-0.045794 0.100047 0.001882
0.015472 0.097230 -0.139423
-0.031663 0.089068 0.039897
-0.052352 -0.014702 -0.234709
0.023457 0.123552 0.018386
-0.002250 0.107440 0.046264
0.029938 -0.045373 -0.227022
-0.038343 -0.039666 -0.240686
-0.022265 0.085795 -0.178403
0.051865 -0.009771 -0.223036
0.021926 0.061988 -0.135002
0.017610 0.076908 -0.058121
0.012248 0.120037 -0.035001
-0.044645 0.087722 0.017312
-0.008497 0.100358 -0.128789
0.037904 -0.039847 -0.233138
0.046071 -0.010792 -0.195808
-0.032620 0.081693 -0.043652
0.020379 0.066344 -0.121787
-0.014279 0.104514 -0.101212
-0.019935 0.125858 -0.010387
-0.004107 0.129294 0.013345
-0.006829 0.108066 0.042037
0.041713 0.100645 -0.018937
0.031410 0.076850 -0.162344
-0.052376 -0.016692 -0.246003
-0.030329 0.103813 -0.045652
-0.001672 0.074017 -0.053549
-0.012392 0.054256 -0.142720
-0.032699 -0.014411 -0.184168
-0.012044 0.104489 -0.103346
0.034362 0.079734 -0.039312
0.009098 0.096371 -0.149619
-0.003001 0.105513 -0.105716
-0.038204 0.070146 -0.029858
-0.010220 0.055902 -0.241839
0.041398 0.092185 0.023338
-0.040210 0.045019 -0.175708
-0.003492 -0.053259 -0.228212
0.015034 0.128339 -0.001910
-0.023055 0.087068 -0.171532
-0.033606 0.058904 -0.206227
-0.021266 0.109524 -0.067573
-0.011738 0.105066 -0.102950
-0.042128 0.080274 0.026402
-0.005013 0.106622 -0.095645
-0.008733 0.081981 -0.198225
-0.005727 0.113409 -0.058437
-0.013793 0.109723 0.042224
0.046091 -0.000746 -0.191414
-0.051974 -0.014916 -0.231379
-0.034373 -0.041641 -0.223475
0.053557 -0.011448 -0.242224
0.010094 0.129344 0.006299
-0.024143 0.014289 -0.167527
0.051854 -0.017998 -0.241922
0.025848 0.109085 -0.047690
-0.026704 0.114823 -0.036232
0.027304 0.070358 -0.124536
-0.051004 0.020721 -0.243729
-0.040660 0.037796 -0.246265
-0.002673 0.003506 -0.168071
-0.014881 0.076727 -0.056428
-0.030466 0.095369 -0.058466
0.025412 0.106058 -0.059435
-0.022274 0.115623 -0.037993
-0.047315 0.092486 0.003982
-0.031313 0.053827 -0.221453
0.030128 0.046600 -0.155785
-0.030354 0.083248 -0.162772
-0.015997 0.116972 0.032970
0.009894 0.055112 -0.246134
0.021343 0.104949 -0.093285
-0.015458 0.099647 -0.129910
-0.016909 0.063549 -0.218761
0.020852 0.126936 0.008328
0.039216 0.098486 -0.026874
-0.006076 -0.053715 -0.234478
-0.030219 0.046703 -0.247738
-0.027563 0.072487 -0.196828
0.050534 0.021802 -0.237001
0.047594 0.087594 0.005272
-0.008498 0.030754 -0.157784
0.007751 0.125312 0.025920
-0.017609 0.099296 -0.129726
0.029272 0.113173 0.029477
-0.004559 0.063590 -0.125829
-0.045498 0.086753 -0.014985
-0.037025 0.106408 0.029111
-0.036943 0.071373 -0.032125
0.051832 -0.016911 -0.235428
0.011264 0.084991 -0.191672
-0.027695 0.076487 -0.045104
-0.028236 0.074259 -0.195805
0.010840 -0.053460 -0.239166
-0.051076 0.012245 -0.215173
-0.029489 -0.009335 -0.179291
-0.009720 0.129404 0.003334
0.028433 -0.041192 -0.207532
0.039639 0.112293 0.015825
0.029537 0.110682 0.032093
0.032081 0.047127 -0.238948
-0.016787 0.057909 -0.230414
-0.037063 0.113656 0.012780
-0.022564 0.111976 0.033431
-0.020443 0.125750 0.016017
0.041844 -0.035776 -0.251620
0.042936 -0.030881 -0.218294
0.031248 0.072176 -0.136033
-0.000436 0.059071 -0.233694
-0.038755 0.042734 -0.231940
-0.001376 0.015800 0.047896
-0.030196 0.098355 0.035134
0.032894 0.096349 -0.050552
-0.006546 0.122892 -0.029428
-0.026077 0.110966 -0.049999
-0.047067 -0.000937 -0.193529
-0.047753 0.028048 -0.241565
0.035437 0.073248 -0.034910
0.030555 0.074000 -0.186232
0.041223 -0.013746 -0.191307
-0.018045 0.110706 0.036936
0.031801 0.072889 -0.138186
0.052142 0.016702 -0.237710
-0.015997 0.116972 0.032970
-0.042064 -0.035624 -0.245779
0.010840 -0.053460 -0.239166
0.026526 0.077816 -0.047622
0.023909 0.115201 -0.036801
0.005839 0.058078 -0.137389
0.053828 0.001628 -0.232709
-0.041212 0.112329 -0.013473
0.024357 0.076926 -0.048482
-0.025995 0.106888 0.034475
0.007965 0.100503 0.050086
0.026649 0.119420 0.021796
0.022029 0.105018 0.042456
-0.002999 0.106310 -0.101085
-0.016154 0.125403 0.021437
0.032705 0.044813 -0.248746
-0.024665 -0.049097 -0.237911
0.019303 -0.039214 -0.197957
-0.023873 0.075958 -0.047646
-0.016248 0.074360 -0.049772
-0.033207 0.046859 -0.236558
-0.034872 0.117455 0.009815
-0.030470 0.080576 -0.147687
-0.034742 -0.042352 -0.230167
0.012603 0.062990 -0.128908
-0.015051 -0.021870 -0.181019
-0.030945 0.122257 0.004039
-0.018792 0.072746 -0.204861
-0.028482 0.122041 0.013814
0.017631 0.080506 -0.196367
0.029656 0.083651 -0.140427
0.038490 0.072748 -0.029932
-0.042721 0.106154 -0.008255
0.044897 0.101978 0.005240
0.021076 0.126277 -0.006319
0.047208 0.090617 0.006814
-0.022180 0.078401 -0.057101
-0.023144 0.054630 -0.232413
-0.006777 0.106125 -0.100282
-0.027805 0.120775 -0.016625
-0.030116 0.083703 -0.051191
0.049406 -0.024266 -0.249967
0.045213 -0.031330 -0.255735
-0.053360 -0.002035 -0.228587
0.044900 0.029141 -0.191042
0.003274 -0.052010 -0.218630
-0.026723 0.091270 -0.130708
-0.010056 0.050141 -0.146348
-0.018618 0.093025 -0.155697
0.029842 0.082263 -0.146707
-0.000079 0.100201 -0.132344
0.030458 0.082045 -0.166870
0.010425 0.129306 0.002565
0.034799 0.107185 -0.043726
-0.017609 0.099296 -0.129726
-0.007868 0.063220 -0.223070
0.050064 0.097647 0.000609
0.029024 0.104476 -0.048901
0.041753 0.108369 0.007486
-0.022315 -0.039768 -0.200467
0.003919 0.068614 -0.214714
0.000755 0.068043 -0.049156
0.048270 0.027770 -0.223482
-0.033903 0.065916 -0.151521
0.037217 0.040958 -0.249438
0.020878 0.085405 -0.182669
0.013775 0.124442 0.025032
0.049927 -0.021025 -0.229741
-0.026278 0.118813 -0.024416
0.048787 0.025686 -0.247967
0.028867 0.083234 -0.153270
0.054624 -0.006331 -0.253339
-0.040582 0.110353 0.017765
0.032176 0.119291 -0.012068
0.049940 -0.010769 -0.212663
-0.021971 0.072928 -0.202490
0.013308 0.085209 -0.190332
0.028642 0.075890 -0.043757
-0.014111 0.100257 -0.125281
-0.040642 -0.035203 -0.222387
0.007177 -0.045315 -0.201774
0.027834 0.094761 -0.140597
0.003522 -0.054873 -0.254593
-0.045428 0.099442 0.007328
-0.026804 0.119856 -0.020873
-0.046438 -0.029646 -0.244699
0.048018 0.027980 -0.234226
0.050860 -0.020609 -0.239896
0.047898 0.086701 -0.000267
-0.017645 0.083158 -0.192475
-0.023159 0.089245 -0.162167
0.029966 -0.007856 -0.178827
-0.018253 0.120655 -0.029011
0.032859 0.049898 -0.227925
0.002405 -0.051075 -0.212683
-0.041213 0.067789 -0.024464
-0.023641 0.093726 -0.138373
-0.034709 0.065919 -0.158500
0.029223 0.098347 -0.115849
0.011710 0.053759 -0.256385
0.053334 -0.005887 -0.230382
-0.040606 -0.037221 -0.249334
0.008223 0.123892 -0.025999
-0.035014 -0.042446 -0.253815
0.044079 0.107395 0.015802
-0.010794 0.114550 -0.051947
0.016233 -0.052573 -0.259000
0.019830 0.068178 -0.209960
-0.003777 0.126390 0.024582
0.030257 0.117671 -0.020591
0.022275 0.063295 -0.042578
-0.043081 0.036489 -0.235038
-0.024518 0.107228 -0.058848
-0.030968 0.088289 -0.060630
0.029590 0.049680 -0.236128
0.030174 0.100550 -0.050998
-0.015461 0.102638 -0.113152
0.034556 0.118278 0.008180
-0.035085 0.061890 -0.156762
-0.040844 0.036845 -0.259000
-0.030805 0.080860 -0.045854
-0.028272 0.011818 -0.170576
0.033273 0.089758 -0.045742
0.044702 0.098741 0.011760
0.025578 0.111627 -0.042002
0.029373 0.083248 -0.052354
-0.040527 -0.002150 -0.184590
0.039107 0.078363 -0.029691
-0.029892 0.119863 -0.015434
-0.005633 0.125732 0.028235
-0.028801 0.117404 -0.023871
-0.048823 -0.025031 -0.236542
0.040953 0.085491 -0.025681
0.034229 0.070583 0.033518
-0.032305 0.074802 -0.161961
-0.012400 0.128276 0.014097
0.021167 0.112018 0.036841
0.038536 0.107274 0.026074
-0.014537 0.127586 0.015516
-0.040059 0.041616 -0.172876
0.031926 0.102409 0.031779
-0.051125 0.017055 -0.221969
-0.034906 0.119981 -0.003055
0.001694 0.117108 0.038284
0.043216 -0.034235 -0.243962
-0.045933 0.107689 0.009250
0.015662 0.112533 -0.055453
-0.012508 0.104353 -0.103726
-0.007366 0.075706 -0.055772
0.044853 0.103974 0.020376
0.007542 -0.018729 -0.178036
0.029234 0.101307 -0.054092
-0.006591 0.066591 -0.217479
0.015857 0.115187 -0.046235
0.035085 0.056051 -0.158039
-0.033141 0.099182 0.039857
0.039063 0.041698 -0.170403
0.050367 -0.022148 -0.253120
0.051460 0.005848 -0.214679
-0.006214 -0.054285 -0.242582
-0.037134 0.107366 0.021559
-0.011415 0.105666 -0.099832
-0.052857 -0.010387 -0.231071
-0.034682 -0.037484 -0.210100
0.039994 0.030834 -0.174583
-0.026822 0.053941 -0.228903
0.027476 0.087472 -0.143926
0.026193 0.015495 -0.168090
0.027638 0.104037 -0.055428
-0.008498 0.103430 -0.114607
-0.046596 -0.026105 -0.222392
0.031973 0.096771 -0.055550
-0.048311 0.027376 -0.232842
-0.006829 0.108066 0.042037
0.015479 0.119518 0.030643
-0.028173 0.089793 -0.165472
-0.011138 0.111145 0.041857
-0.008500 0.003612 -0.168264
-0.043360 0.017067 -0.182883
-0.023712 0.106575 -0.065616
-0.022994 0.096402 0.040749
-0.018359 0.061649 -0.133574
-0.031551 0.087268 -0.052632
-0.028203 0.092289 0.042897
0.040149 0.044023 -0.221311
0.046171 -0.022215 -0.211644
0.029168 0.069018 0.039527
-0.024058 0.050015 -0.249468
0.017142 0.098128 0.049221
0.031181 0.015800 0.036394
0.028099 0.120408 -0.017197
0.035198 0.115234 0.018738
0.035628 0.062813 -0.191480
-0.027236 0.104612 0.034809
0.030627 -0.004371 -0.177591
-0.019228 -0.001940 -0.171647
-0.005100 0.105394 -0.102731
-0.017254 0.110494 -0.067395
-0.017746 0.113553 -0.049575
-0.024362 0.105729 0.036297
-0.046854 0.091793 -0.008226
-0.014175 0.102873 0.042581
-0.044448 0.093074 0.016468
0.049875 -0.020209 -0.227164
-0.017212 0.076813 -0.058290
0.015475 0.100310 0.043058
-0.018031 0.082029 -0.193942
0.046807 -0.020154 -0.210613
-0.032864 0.119259 0.014609
0.054453 -0.000993 -0.239960
0.050637 -0.020806 -0.236789
0.030960 0.083972 -0.141257
-0.030051 0.105569 -0.043609
0.032153 -0.017837 -0.185996
-0.013554 0.116329 -0.044594
-0.008497 0.106011 -0.099889
-0.046498 -0.024747 -0.218531
0.040957 -0.021535 -0.196916
0.044266 -0.031294 -0.226247
-0.036027 0.043303 -0.241328
-0.037246 0.071707 0.030121
-0.037167 0.112155 -0.024083
0.043456 0.072492 -0.020163
0.042980 0.110448 0.011398
0.030773 0.105557 0.036231
0.012896 0.087497 -0.190089
0.027308 0.053609 -0.228997
-0.053755 -0.008572 -0.237803
0.008685 0.113844 0.040183
-0.030952 0.087740 -0.058032
-0.041580 0.100720 -0.019232
0.038732 0.011505 -0.178649
0.017901 0.097914 -0.131844
0.029546 0.047796 -0.243957
0.009098 0.096371 -0.149619
-0.039486 0.044299 -0.171297
-0.036837 0.116624 0.002615
-0.027319 0.080062 -0.189393
0.029360 0.074773 -0.192755
0.042721 0.098136 0.018040
-0.027588 0.066142 -0.039938
0.034179 -0.020089 -0.189113
0.000000 0.109012 0.042087
-0.026041 0.079693 -0.185822
0.025651 0.033934 -0.159772
-0.038578 0.116107 0.007489
0.027704 0.085934 -0.176964
0.000188 0.129610 -0.002707
0.028574 0.015994 -0.169238
-0.029994 0.046474 -0.250815
0.024928 0.122240 0.019182
0.033715 0.087088 -0.044245
-0.013844 0.104110 -0.103893
-0.014338 -0.036003 -0.192169
-0.047132 0.092546 0.005680
-0.005760 0.118720 -0.041243
-0.035288 0.081509 -0.038340
-0.036071 0.080411 -0.036359
0.002266 0.062617 -0.047986
-0.027670 0.090120 -0.128232
-0.034460 0.115100 -0.016766
0.024571 0.124031 -0.010996
0.047518 0.088336 -0.005694
-0.034276 0.104190 -0.034158
-0.040223 -0.020462 -0.195160
0.004649 -0.012747 -0.174876
-0.022273 0.019567 -0.164711
0.023560 -0.027901 -0.188555
0.000188 0.129610 -0.002707
-0.046216 0.087062 -0.017154
-0.016741 0.090995 -0.167862
0.037997 0.040455 -0.247440
0.053792 -0.005396 -0.234291
-0.041419 0.106327 0.013068
-0.028062 0.093463 -0.147312
0.047392 -0.023772 -0.220782
0.053368 0.007046 -0.231150
-0.048521 0.027005 -0.221717
-0.031416 0.111413 0.029450
0.023526 -0.047547 -0.219638
0.029772 0.084209 -0.134598
0.017189 0.107606 -0.083484
0.047654 0.105127 0.010554
0.031922 0.096985 -0.047550
-0.046175 0.090387 0.019976
0.053828 0.001628 -0.232709
-0.048597 -0.020855 -0.220820
-0.004624 -0.018675 -0.177863
-0.021931 0.077803 -0.196400
-0.032129 0.015800 -0.035561
-0.002359 0.074534 -0.054339
-0.052461 0.013557 -0.231115
-0.015458 0.103346 -0.109174
0.041123 0.108525 -0.010097
0.004180 -0.041478 -0.195957
-0.041936 0.015634 -0.181143
-0.027641 0.094086 0.038308
-0.041380 0.107452 0.011280
0.029351 0.084442 -0.057315
-0.040612 -0.036938 -0.231787
0.041532 -0.025067 -0.200997
-0.024241 -0.049388 -0.259000
-0.001468 -0.025215 -0.181624
-0.007056 -0.050658 -0.212520
-0.011456 0.106332 -0.093416
-0.018660 0.077597 -0.199265
0.001439 0.115880 -0.050467
0.028367 -0.013263 -0.180815
0.024729 -0.030544 -0.191546
-0.049227 -0.015384 -0.214662
-0.019742 0.116856 0.032704
-0.032463 0.056353 -0.213744
-0.004155 0.121749 -0.033178
0.046624 -0.025831 -0.221846
0.016861 0.126727 -0.010250
-0.027476 0.086463 -0.148960
-0.027330 -0.010763 -0.178883
-0.016038 -0.048644 -0.212284
0.018597 -0.047516 -0.211388
0.042977 0.041882 -0.201804
-0.004155 0.121749 -0.033178
0.040704 0.108628 -0.025120
0.001526 -0.044340 -0.199560
-0.012818 0.104555 -0.102322
0.018048 0.118389 0.030458
-0.051274 -0.019212 -0.237942
0.038364 0.105880 -0.022081
0.029720 0.109876 -0.036557
-0.030885 0.010946 -0.172471
-0.008733 0.081981 -0.198225
-0.034383 0.061133 -0.033378
0.049947 0.104104 -0.005117
-0.028171 0.110418 -0.039002
-0.048016 0.021055 -0.202669
-0.025545 0.101535 -0.082257
0.028396 -0.037021 -0.201302
0.032741 -0.040573 -0.214328
-0.024675 0.056812 -0.225071
-0.024149 0.046032 -0.152207
0.015877 -0.046200 -0.206693
-0.042646 0.034980 -0.251198
-0.033759 -0.041461 -0.220376
-0.035796 0.109562 0.021532
-0.043213 0.102750 -0.012296
0.028367 -0.013263 -0.180815
-0.043809 0.104654 0.005727
0.038459 -0.000785 -0.182049
-0.029376 0.054802 -0.222775
-0.013869 0.044709 -0.150758
0.016493 -0.052482 -0.249515
-0.040006 0.041600 -0.230543
-0.003828 0.115130 -0.052646
-0.042742 0.105219 0.010170
0.022904 0.092074 -0.163850
0.033625 0.070216 0.035796
0.015504 0.121150 0.028748
0.017259 0.110278 -0.068586
-0.013420 0.104875 -0.102590
-0.027260 0.123126 0.013222
-0.013427 0.092263 -0.165135
0.042907 0.039617 -0.221491
-0.014155 -0.017194 -0.178008
0.043587 0.039458 -0.197747
0.029353 0.123388 0.002326
0.011246 0.055307 -0.243797
0.035758 -0.035069 -0.206502
-0.029813 -0.002687 -0.176409
-0.014985 0.104020 -0.103279
-0.027918 0.087984 -0.137305
0.034556 0.118278 0.008180
0.036211 0.111437 -0.019347
-0.035859 0.091920 0.031237
-0.039319 0.101853 -0.024044
-0.025885 0.068290 0.041775
0.041361 0.099077 0.020400
0.005401 0.058040 -0.236170
0.032706 -0.044238 -0.255463
0.013178 -0.052928 -0.237828
0.046812 0.087246 -0.010136
0.000696 0.106875 0.043167
-0.047461 0.105026 -0.015587
0.013765 -0.052552 -0.234470
0.031181 0.061907 -0.036492
0.038323 -0.039217 -0.230524
-0.012340 0.061350 -0.046297
-0.015337 0.104087 -0.102548
0.013675 0.116623 0.035990
0.022370 0.087682 -0.171215
-0.042472 0.110321 0.013261
0.024477 0.092333 -0.141265
-0.012197 0.104440 -0.103495
0.031140 0.047101 -0.156479
0.028396 -0.037021 -0.201302
-0.045661 -0.005959 -0.192643
0.022390 0.055019 -0.232337
-0.001197 0.042275 -0.151577
0.040711 0.095607 -0.024769
-0.016599 0.039420 -0.154262
0.032864 -0.042887 -0.223856
0.035800 0.115752 0.011622
-0.027935 0.079601 -0.048382
0.041800 0.034733 -0.177821
-0.051771 -0.005930 -0.219084
-0.031363 0.077037 -0.135776
0.024090 0.052016 -0.147803
-0.048702 -0.024818 -0.233238
0.016938 0.051663 -0.145844
0.042137 0.106480 0.021523
0.026982 0.106465 -0.051773
-0.000017 0.122914 0.030652
0.047859 0.086132 -0.002173
-0.021533 -0.050431 -0.237724
-0.005757 -0.053882 -0.236202
0.034425 0.110530 -0.033973
0.032650 0.070316 -0.144480
0.012247 0.096463 -0.146735
-0.001519 0.075392 -0.057382
-0.028009 0.077582 -0.185560
-0.014277 0.104055 -0.103792
-0.029539 0.028778 -0.164606
0.011969 -0.025146 -0.182545
0.030969 0.052053 -0.226369
0.028780 0.007504 -0.172357
-0.047310 -0.003243 -0.195057
0.044900 0.029141 -0.191042
-0.051626 0.015619 -0.224901
0.004265 0.115140 -0.052518
-0.031852 0.105958 -0.037969
-0.047009 0.106984 0.007023
0.031928 0.116410 0.018908
-0.018815 0.065527 -0.123362
-0.020292 0.074358 -0.048077
-0.030486 0.105961 -0.041682
-0.011453 0.105825 -0.096279
0.033542 0.043716 -0.253820
0.010536 0.062022 -0.130880
0.002870 0.126974 -0.017163
-0.047508 0.028524 -0.210345
-0.045430 0.002865 -0.259000
0.032594 0.105856 -0.036212
0.029309 0.055129 -0.222147
-0.039140 -0.034596 -0.214726
-0.029871 0.085193 -0.125908
0.046153 -0.019712 -0.206983
-0.008620 -0.049857 -0.210827
0.038352 0.101714 0.024104
-0.036180 -0.041376 -0.232663
0.025462 0.079946 -0.053379
0.046041 0.030423 -0.249079
-0.036775 0.099154 0.027799
0.043242 0.106622 0.019162
-0.022510 0.066495 -0.125003
-0.005305 0.105181 -0.103855
0.043435 0.108512 -0.018524
-0.010271 0.074387 -0.051854
-0.028814 0.119673 -0.018042
0.027709 0.074069 -0.196929
-0.044682 -0.027493 -0.216791
0.029187 0.118068 0.020554
-0.053861 -0.000895 -0.232971
0.024212 0.039260 -0.156268
0.013118 -0.052022 -0.227692
0.017816 0.022696 -0.162093
0.031144 0.112332 -0.029201
-0.022098 0.052442 -0.241298
-0.002999 0.105368 -0.106512
0.031861 0.076300 -0.150931
0.041248 0.067420 -0.024389
-0.013596 0.104402 -0.102485
-0.014018 0.037632 -0.154921
-0.025370 0.101381 0.043414
-0.024254 -0.044458 -0.209648
-0.021604 0.062590 -0.133714
0.018383 0.124788 0.021095
0.012733 0.076405 -0.057690
-0.016934 0.062812 -0.130486
-0.017947 0.087555 -0.187086
-0.032123 -0.041294 -0.215099
0.004419 -0.046316 -0.202879
-0.018032 0.064956 -0.215775
-0.019204 0.090111 0.043712
-0.033922 0.106053 0.027336
0.020233 0.111138 0.035497
0.023680 0.066987 -0.042515
-0.042823 0.038078 -0.228930
-0.028745 0.123180 0.008948
0.013324 0.071856 -0.208415
0.026798 0.015800 0.039732
0.024511 -0.049305 -0.248418
0.043355 -0.033223 -0.229217
-0.014287 -0.048990 -0.211751
0.033719 0.000817 -0.177651
0.043063 0.105007 -0.009177
-0.034572 0.118507 0.007118
-0.026145 0.097839 -0.126095
-0.052921 -0.001969 -0.225028
0.045720 -0.025588 -0.216838
0.051161 0.020139 -0.239423
0.024504 0.048726 -0.150553
0.049985 0.102629 0.008610
0.040957 -0.021535 -0.196916
0.038556 0.046329 -0.168531
0.033658 0.104150 -0.035772
-0.031363 0.077037 -0.135776
-0.027728 0.108221 -0.060439
0.045590 0.099590 -0.005902
0.041844 -0.035776 -0.251620
-0.036275 0.060634 -0.164365
0.044040 0.109399 -0.013940
0.047243 0.011011 -0.194420
-0.045221 -0.030404 -0.228858
0.031510 0.029574 -0.165710
0.041655 0.044701 -0.207854
0.028682 0.082891 -0.053768
0.034981 0.025935 -0.170232
-0.045359 0.093403 -0.013595
-0.050334 0.103659 -0.000576
-0.049284 -0.005140 -0.204920
-0.023114 0.051194 -0.148024
0.028467 0.074492 -0.191719
0.031288 0.077490 -0.135114
-0.008497 0.106011 -0.099889
0.032376 0.071921 -0.142991
-0.030238 0.112098 -0.031487
0.024579 0.116110 -0.033578
0.028120 -0.003067 -0.175622
-0.008352 0.126452 -0.017622
-0.033576 0.069605 -0.035944
0.036920 -0.034694 -0.208483
-0.050511 -0.010417 -0.215442
-0.009318 0.129416 0.006794
0.025950 -0.046943 -0.222623
0.031388 0.088986 -0.055917
0.030387 0.076569 -0.042569
-0.008248 -0.051948 -0.221050
-0.031663 0.096851 -0.057890
-0.009682 -0.054130 -0.252329
-0.020491 -0.051048 -0.255578
-0.035320 0.091789 -0.038548
0.024359 0.106749 0.035728
-0.047938 -0.007310 -0.199846
0.000745 -0.047143 -0.203943
-0.013173 0.126407 0.020908
0.026554 0.068476 0.039869
-0.033029 0.072820 -0.167324
-0.010593 0.055379 -0.244017
0.006341 0.099893 0.050674
-0.033882 -0.043503 -0.239113
0.014249 0.076639 -0.056627
0.010609 0.090015 0.046555
0.034447 0.105793 0.032645
0.008303 0.072437 -0.208938
-0.041547 0.038396 -0.235985
0.034362 0.079734 -0.039312
-0.023156 -0.016653 -0.180337
-0.042529 -0.029950 -0.214204
-0.023924 0.057538 -0.142435
0.031029 0.072323 -0.188857
-0.011782 0.015800 0.046453
0.018063 0.057995 -0.229151
-0.040660 0.037796 -0.246265
-0.012581 0.104660 -0.101933
0.041532 -0.025067 -0.200997
0.008296 0.069345 -0.048693
-0.003001 0.105513 -0.105716
0.030875 0.079846 -0.142113
0.030642 -0.028426 -0.193456
-0.012862 0.117829 0.033526
0.045413 0.097022 0.010662
0.028737 0.063665 -0.140206
0.001341 -0.037595 -0.191483
0.049998 0.023076 -0.250464
0.009284 0.087457 -0.191522
0.015525 0.066353 -0.045872
0.016864 0.101100 -0.120315
-0.028623 0.110226 -0.047681
0.032913 0.056106 -0.153580
0.025515 -0.002621 -0.174173
-0.032717 0.116850 -0.017289
0.014090 0.028733 -0.159120
0.032202 0.071598 -0.185638
-0.022657 -0.031310 -0.191141
0.003524 0.128204 0.019250
0.032174 0.074697 -0.039556
-0.028272 0.011818 -0.170576
0.035717 0.001337 -0.178988
0.031615 0.089196 -0.054276
0.031157 0.077018 -0.179977
-0.046562 0.108326 -0.006435
-0.032093 0.075537 -0.151425
-0.033188 0.075166 -0.038640
-0.024926 0.094386 0.040073
-0.036632 -0.029852 -0.200369
-0.013098 0.113339 -0.054688
-0.002998 0.106982 -0.097184
0.040746 0.089871 0.024924
0.007633 -0.053374 -0.232416
0.026571 0.115985 -0.033417
0.046632 0.019990 -0.194458
0.031274 0.089517 -0.057270
-0.036071 0.080411 -0.036359
-0.040352 -0.023620 -0.198116
-0.028009 0.124004 0.006143
-0.047132 0.092546 0.005680
0.031388 0.088986 -0.055917
0.026526 0.077816 -0.047622
0.020897 0.064402 -0.129128
-0.006777 0.104978 -0.104225
0.009687 0.115754 -0.048612
-0.015459 0.100875 -0.120480
0.032717 0.066721 -0.146501
0.024788 -0.009555 -0.177059
-0.035938 0.048752 -0.222945
-0.045432 -0.002872 -0.259000
-0.034048 0.050414 -0.223654
-0.007609 0.054490 -0.256452
-0.044446 0.096698 -0.014407
-0.049936 -0.001221 -0.206588
0.007799 0.071716 -0.050038
-0.030068 0.098123 -0.055654
-0.039026 -0.038947 -0.237122
-0.046175 0.090387 0.019976
-0.012625 0.104631 -0.102062
-0.042369 0.101573 -0.016235
-0.024964 0.106800 -0.058815
-0.017339 0.114852 0.034193
0.019902 0.056936 -0.141221
-0.041207 0.040867 -0.227209
0.039196 0.110629 0.012542
0.025889 0.091341 -0.136813
0.035544 0.089701 0.031922
-0.030050 0.057415 -0.216175
-0.051771 -0.005930 -0.219084
-0.031381 -0.036677 -0.203521
-0.023370 0.113780 -0.041114
-0.023558 0.102451 -0.104181
-0.003326 -0.052349 -0.220920
0.005173 0.089447 0.047508
-0.034234 0.068578 -0.159748
0.015436 -0.033846 -0.190433
-0.029173 0.073193 -0.192542
-0.014098 0.053170 -0.259000
-0.025215 0.077320 -0.048241
-0.052690 0.011563 -0.229764
-0.017541 -0.052027 -0.242566
0.043834 0.095010 0.017170
-0.019712 0.077288 -0.053436
0.044160 0.104649 0.001024
-0.042000 0.101624 0.017044
0.038962 0.041467 -0.236164
0.052754 -0.012252 -0.233283
0.019644 -0.051396 -0.252829
-0.008425 0.096420 -0.149784
-0.024745 0.027765 -0.162334
-0.048051 -0.004939 -0.199062
0.016065 0.096161 -0.148730
0.030282 -0.037860 -0.204130
-0.031494 0.050402 -0.154948
-0.041861 0.042640 -0.185424
-0.015267 0.066081 -0.045904
-0.044816 0.110001 0.005036
0.024312 0.114833 -0.039955
-0.030786 0.087311 -0.058365
-0.046013 0.109219 -0.000337
0.034941 -0.042644 -0.246078
-0.013834 0.103309 -0.108395
-0.031618 0.076846 -0.142854
0.033935 0.085525 -0.043150
0.054054 0.004963 -0.237076
0.023414 0.050018 -0.252226
-0.001369 0.096884 0.046670
0.046187 0.086684 0.019179
-0.052120 0.015804 -0.232965
0.025769 0.085010 -0.167556
0.042693 0.106934 0.006231
-0.030434 -0.042469 -0.214960
0.025312 0.124266 0.017147
-0.006861 0.075838 -0.057622
0.019503 0.070447 -0.045731
-0.050800 0.006004 -0.210739
0.020779 0.077039 -0.198417
0.046059 -0.005573 -0.193096
0.033441 0.057617 -0.209053
-0.018359 0.061649 -0.133574
-0.019305 0.112447 0.035050
0.033412 0.111833 -0.025179
0.043283 0.036275 -0.234618
0.030811 -0.039765 -0.207825
0.014582 0.088416 -0.186242
0.032081 0.047127 -0.238948
0.004686 0.127446 -0.014920
0.025739 0.101776 -0.103997
0.002919 0.065168 -0.048274
-0.016582 0.042789 -0.152311
-0.036858 0.062100 -0.178648
0.050367 -0.022148 -0.253120
0.003047 0.119498 0.035754
0.032874 0.109173 0.030555
-0.032230 0.095093 -0.047698
0.011958 0.071726 -0.210542
-0.012667 0.072603 -0.207672
0.015004 0.098077 0.049937
-0.030736 0.080618 -0.137472
0.034733 0.059964 -0.201115
-0.054320 -0.005818 -0.241742
-0.006861 0.075838 -0.057622
-0.038680 0.006180 -0.180147
0.014751 0.126926 -0.011525
-0.020872 0.067403 0.044529
-0.026101 -0.048019 -0.231757
-0.033941 -0.031374 -0.199351
0.046091 -0.000746 -0.191414
0.041398 0.092185 0.023338
0.024689 0.072361 -0.044186
0.016264 -0.031434 -0.188526
-0.024310 0.106087 -0.065309
-0.026576 0.081124 -0.055200
0.034523 0.112653 0.024111
0.051224 -0.011591 -0.220972
-0.041636 -0.026432 -0.203108
0.009603 0.068458 -0.213987
0.001694 0.074066 -0.053611
-0.048118 0.028129 -0.226165
-0.008494 0.102487 -0.117295
0.038076 -0.005442 -0.183585
-0.040572 0.089645 0.025236
0.019382 0.062672 -0.132039
-0.040234 0.037522 -0.256003
0.044838 -0.027580 -0.217696
0.013115 0.076478 -0.055784
0.047392 -0.023772 -0.220782
-0.031173 0.088143 -0.056629
0.034324 0.069243 -0.175854
-0.039585 0.112636 0.004900
0.005947 -0.042666 -0.197692
-0.048975 0.105373 0.001567
0.039088 0.053487 -0.194241
-0.018527 0.111294 -0.056714
-0.032773 -0.028982 -0.195725
-0.023726 0.078553 -0.193123
-0.020288 0.065100 -0.214061
0.039666 -0.033679 -0.213918
-0.000349 0.107701 -0.094199
-0.019463 0.055480 -0.234519
0.051684 0.018865 -0.252930
0.044019 -0.004365 -0.189607
-0.038505 0.099766 0.034433
-0.017935 0.055101 -0.142709
-0.017585 0.121491 0.028569
-0.031606 0.089515 0.035845
0.004015 0.126976 0.023091
-0.031680 0.025107 -0.167745
-0.053246 -0.012393 -0.240003
-0.038125 0.039655 -0.259000
0.034574 0.061277 -0.033183
-0.052715 0.015720 -0.253245
-0.035899 0.115994 -0.016338
0.045317 -0.031262 -0.251212
0.013687 0.092708 -0.168549
0.035333 0.100263 0.029085
-0.024919 0.074329 -0.045396
0.048112 0.021586 -0.203720
-0.034392 0.046547 -0.234029
0.032577 0.113601 -0.023953
0.044647 0.018317 -0.185204
0.019433 0.082467 -0.191811
0.005640 0.064753 -0.047923
-0.041767 0.113597 0.003224
0.023602 0.091344 -0.150649
-0.023692 0.098682 -0.125691
0.040409 0.036683 -0.174066
-0.028749 0.106446 0.032477
0.017511 -0.038422 -0.196080
-0.006776 0.104801 -0.105236
-0.011614 0.076335 -0.056984
-0.028009 0.124004 0.006143
-0.025711 0.116841 -0.032636
-0.009593 -0.031627 -0.186963
-0.021222 0.111791 -0.050287
-0.052137 -0.011417 -0.226776
-0.049373 -0.024354 -0.247950
0.035926 -0.037777 -0.214209
-0.014392 0.089382 0.045576
-0.046305 -0.023592 -0.215061
-0.026028 0.110524 -0.043596
-0.005337 0.091097 -0.174294
0.005735 -0.054689 -0.254426
0.022243 0.096395 -0.141634
0.039198 0.113635 -0.001007
0.041634 0.037268 -0.241890
-0.044344 0.100704 0.025926
-0.012319 0.120727 0.030757
-0.033921 0.094874 0.032687
-0.048414 -0.026193 -0.250212
0.025476 0.076400 -0.194129
-0.016316 -0.028575 -0.186163
-0.017084 0.072145 -0.208150
-0.028814 0.119673 -0.018042
-0.011533 0.116100 0.035531
-0.033423 0.086313 -0.044972
-0.031494 0.050402 -0.154948
0.030235 0.096319 -0.058489
0.029146 -0.044416 -0.219067
-0.004343 0.128415 0.018162
0.018230 0.045197 -0.151026
-0.031449 0.082324 -0.046320
0.020800 0.065170 -0.126811
-0.035320 0.091789 -0.038548
-0.014981 0.085098 -0.189751
-0.022063 0.015800 0.042544
0.040009 0.112295 -0.002898
-0.003777 0.126390 0.024582
-0.044672 0.095388 0.014603
0.010282 -0.053351 -0.236202
0.034508 0.110240 -0.025268
-0.043753 -0.032333 -0.227445
0.030229 0.075083 -0.123957
