0.053751 -0.044967 -0.132604
0.026479 0.013943 -0.133479
-0.019103 0.049800 0.147319
-0.037384 0.004057 -0.140661
0.024822 0.088219 0.107330
0.002352 0.042425 -0.097710
0.019730 0.087152 0.087759
-0.038255 -0.076334 -0.124075
0.029576 0.010920 -0.137745
-0.054727 -0.033187 -0.145335
-0.011613 0.065337 -0.009778
0.035785 0.021419 -0.055882
-0.006770 0.068525 0.002367
-0.010004 0.024409 -0.121692
0.045776 -0.005213 -0.131543
-0.030836 0.082491 0.090279
0.018816 0.051256 -0.070805
-0.029718 0.069216 0.040081
-0.013900 0.018445 -0.135316
0.007808 0.034246 0.053362
0.051820 -0.023880 -0.119665
-0.015448 0.065426 -0.005696
0.045059 -0.065751 -0.117109
0.033127 0.070543 0.058028
0.010729 -0.087378 -0.108619
0.023333 0.014820 -0.136264
0.021711 0.024193 -0.115158
0.023077 0.029560 -0.105651
-0.012449 -0.079613 -0.095274
-0.022306 -0.077238 -0.097066
0.049743 -0.060732 -0.135438
0.026924 0.050169 -0.073508
-0.027410 0.026337 -0.034605
-0.023683 0.061212 -0.022290
-0.007351 0.017040 -0.155599
0.034113 0.056503 0.141732
-0.032549 0.028234 -0.043255
0.038411 0.072731 0.087706
0.037057 0.043270 0.136933
0.050300 0.066262 0.102010
-0.012044 0.048754 -0.084788
0.035173 0.008861 -0.128993
0.029170 0.015413 -0.124288
-0.025296 0.053128 -0.041170
-0.042186 0.059566 0.082995
-0.012305 0.090105 0.120985
-0.024268 0.054476 -0.040987
-0.032614 0.059023 0.051602
0.010108 0.052279 -0.079843
-0.043743 -0.001366 -0.087670
0.031762 -0.082317 -0.130310
0.015273 0.049859 0.148799
0.031797 0.081542 0.117605
0.037912 0.074690 0.089945
-0.054968 -0.035577 -0.155599
0.022525 0.074295 0.055497
-0.034364 -0.079110 -0.120074
-0.033462 0.054632 0.059052
0.031170 0.029162 -0.038532
-0.008485 0.062133 -0.029284
-0.000419 0.063399 0.148991
0.047783 -0.062220 -0.122056
-0.028765 0.035099 -0.020036
-0.010667 0.067241 0.000228
-0.012988 0.090975 0.115672
-0.036599 0.078660 0.110726
-0.004902 0.066921 -0.005194
0.012196 0.019713 -0.132371
0.054067 -0.027387 -0.148828
-0.037721 -0.071281 -0.105008
0.031489 0.050982 0.048746
-0.029794 0.085445 0.101174
0.044467 -0.005056 -0.152171
-0.011722 0.091688 0.107825
0.049870 -0.044949 -0.105896
0.014459 0.079526 0.061382
-0.017454 0.089830 0.097138
0.029728 -0.006469 -0.060294
-0.001977 -0.082748 -0.097581
0.012920 0.028960 0.150918
-0.017272 -0.087534 -0.117433
-0.017169 0.059027 -0.037397
-0.040100 0.005444 -0.070150
-0.026127 0.049285 -0.077929
0.044169 0.067179 0.104425
-0.023197 0.079511 0.133582
-0.040199 0.002996 -0.130776
-0.037197 0.066636 0.076389
0.016977 0.028156 -0.017833
-0.033868 0.032281 -0.076557
0.037620 0.078314 0.103217
-0.025162 0.049943 -0.076893
-0.041642 -0.021670 0.127106
-0.028514 -0.084533 -0.149973
0.018822 0.087677 0.123169
0.032726 0.029251 -0.043100
-0.016909 0.014872 -0.155599
0.004200 0.060623 -0.039931
-0.022507 0.024014 -0.032859
-0.043626 0.055496 0.121939
0.032868 0.012428 -0.124524
-0.025744 0.054839 -0.029366
0.022399 0.017549 -0.128936
0.012211 0.017820 -0.038149
0.045978 0.054413 0.091202
-0.050143 0.066426 0.100425
-0.005887 0.067033 -0.004037
-0.030581 0.063176 0.054281
-0.054399 -0.030492 -0.143263
-0.002874 0.090397 0.124003
-0.016594 0.027406 -0.020917
0.030300 0.040573 0.059544
0.030042 0.033537 0.063656
-0.003768 0.088920 0.127982
0.050598 -0.056955 -0.127395
0.008233 0.079719 0.058505
0.039139 -0.057291 -0.090058
0.027652 0.073444 0.133664
-0.010068 0.062594 -0.025922
0.049989 0.060396 0.108822
0.000827 0.030989 -0.111711
0.034844 0.020257 -0.101787
0.003841 0.044053 -0.103068
-0.028081 -0.084134 -0.125252
0.049118 -0.060192 -0.125100
-0.029152 0.027984 -0.100834
0.036208 -0.063187 -0.092260
-0.022427 -0.075197 -0.094503
-0.028301 0.085439 0.114886
-0.024354 -0.062709 -0.083398
0.026349 0.068692 0.048393
0.028978 -0.084340 -0.143149
0.022329 0.072199 0.048135
0.046855 0.058475 0.105362
0.036918 0.015986 -0.104243
-0.030479 0.084092 0.095311
-0.043765 0.037018 0.125811
-0.035234 0.059768 0.066240
-0.007223 -0.089835 -0.119800
0.011863 -0.087758 -0.111258
0.019108 0.089761 0.099812
-0.046817 -0.032241 -0.088634
0.032275 0.050034 0.053667
0.036350 0.077695 0.120092
-0.014089 0.015700 -0.155599
0.038022 0.012986 -0.063516
0.039822 -0.065258 -0.098313
-0.030046 0.033220 0.063795
0.041865 0.007518 -0.098507
-0.054349 -0.045893 -0.155599
-0.035541 0.061972 0.141016
0.041250 -0.000839 -0.148047
-0.042973 -0.061305 -0.098919
-0.037209 -0.048579 -0.082325
-0.024848 0.023379 -0.113500
0.041979 0.005117 -0.083036
-0.008343 0.088982 0.085779
-0.001360 0.059414 0.150071
0.029162 0.004430 -0.054218
0.046044 -0.006530 -0.139551
0.029369 0.037303 -0.089355
0.021962 0.053007 -0.068875
-0.018610 0.038579 0.052334
-0.037049 0.045068 0.068780
-0.049545 -0.019027 -0.106710
-0.035779 0.074804 0.126278
0.020074 0.017476 -0.040073
0.030157 0.066568 0.057531
-0.014723 0.072515 0.142250
0.027485 0.050002 -0.040525
-0.013495 0.066690 -0.000526
0.010408 0.034185 -0.106098
-0.008612 0.023308 -0.029776
0.040214 -0.065623 -0.099330
-0.028809 0.076110 0.132818
0.002496 0.025216 -0.024952
-0.010160 -0.087557 -0.108844
0.035342 0.062793 0.132486
-0.012504 0.067592 0.003672
-0.032643 0.053372 0.055297
0.028090 0.079590 0.126826
0.024568 0.086908 0.117843
-0.035005 -0.079916 -0.150414
-0.040336 0.057246 0.127763
-0.044776 -0.001735 -0.097229
-0.007223 -0.089835 -0.119800
-0.004360 -0.088937 -0.112136
0.028112 0.029270 -0.100572
-0.038395 0.072053 0.119899
-0.019723 0.085296 0.081729
0.046978 -0.045846 -0.092871
0.021600 0.048602 -0.075653
0.042975 -0.021670 0.082168
0.040530 -0.066011 -0.100710
-0.020042 0.024612 -0.030230
-0.027004 0.054126 -0.023016
0.043380 -0.071511 -0.137560
-0.009934 0.017076 -0.146747
-0.032382 0.069873 0.052839
-0.030633 0.043911 -0.027436
-0.044412 0.066028 0.107792
0.044088 0.069925 0.119202
-0.014723 0.072515 0.142250
-0.035640 0.033618 0.135395
-0.045250 0.070341 0.088533
0.028094 0.044028 0.051815
0.043256 -0.069075 -0.118437
0.047429 0.053662 0.108020
-0.044882 0.069224 0.118649
-0.004744 -0.092237 -0.149491
0.029136 0.009188 -0.155599
-0.006819 0.089981 0.124365
-0.029748 -0.083837 -0.144170
-0.024994 -0.021670 0.062528
0.012853 0.045875 -0.091402
-0.023076 0.035487 -0.100066
0.040380 -0.054012 -0.088892
0.045906 0.060344 0.096195
0.053110 -0.035658 -0.122633
-0.030160 0.069496 0.043257
0.027352 0.086433 0.113238
0.017093 0.027703 -0.019968
0.015764 0.046737 -0.088098
0.012635 0.048729 -0.084574
0.028533 0.086209 0.116111
0.007880 0.021391 -0.129554
-0.006106 0.022232 -0.127824
-0.002680 0.022534 -0.030732
-0.033020 0.035350 -0.063923
-0.040651 0.076690 0.094849
-0.026785 0.043560 0.049703
0.015484 0.062840 0.146459
0.041918 0.003511 -0.119293
-0.014363 0.017042 -0.140695
0.027877 0.064362 0.042531
0.021600 0.048602 -0.075653
0.035015 0.011801 -0.057132
0.029340 0.083244 0.089486
-0.011485 -0.083303 -0.100551
0.052360 -0.043884 -0.119836
-0.026296 0.032384 -0.019031
-0.027909 0.050514 -0.033904
-0.030663 0.020081 -0.111444
-0.008743 0.023883 0.056283
0.030534 0.044871 0.055328
0.049802 -0.029003 -0.102429
-0.013396 0.067458 0.003695
-0.005328 0.053627 -0.070893
0.033253 0.041781 0.062505
0.034268 0.080899 0.094488
-0.049299 0.054590 0.097114
0.020258 0.049725 -0.083044
-0.018961 0.052525 -0.065372
0.041370 0.072701 0.100969
0.036025 0.024579 0.071787
-0.024955 0.069330 0.044585
0.053329 -0.034347 -0.124824
-0.035961 -0.052047 -0.083362
-0.014887 0.030939 -0.108879
-0.036018 0.005834 -0.137927
-0.049391 -0.061703 -0.150038
-0.001671 0.080971 0.140376
0.027363 0.012702 -0.136120
0.047841 -0.064598 -0.135033
-0.047273 -0.065440 -0.133034
0.001911 0.057777 -0.054288
-0.002988 0.069468 0.008619
-0.004289 0.066080 0.147819
-0.042832 0.062540 0.087003
-0.042615 0.004694 -0.090199
-0.051840 -0.039284 -0.114124
0.034783 -0.078649 -0.119461
0.018992 0.038583 0.052522
-0.027073 0.057929 -0.035270
0.031323 0.038159 -0.029084
0.026817 0.054194 -0.024453
-0.026608 0.035575 -0.094036
-0.044783 -0.069409 -0.132526
0.037141 0.079109 0.114497
0.035597 0.021818 -0.096140
-0.039491 -0.074926 -0.123310
-0.031287 0.023138 -0.104798
0.017251 0.009619 -0.046146
-0.049196 0.042825 0.107411
-0.008483 0.016589 -0.039135
-0.022581 -0.083751 -0.109368
0.032347 0.059159 0.050082
-0.029107 0.043751 0.054358
0.038066 0.076517 0.095035
-0.013902 0.064249 -0.013872
0.046641 -0.017480 -0.091057
0.045978 0.054413 0.091202
-0.022852 0.087357 0.119153
-0.016732 0.053525 -0.064462
0.050869 -0.017235 -0.127170
0.009702 -0.090203 -0.125312
-0.005036 0.037685 0.048401
-0.034175 0.076661 0.084020
0.050074 -0.014371 -0.135163
0.037660 0.044848 0.070187
-0.015128 0.038451 0.050916
0.022234 0.040998 0.047812
0.007563 0.054326 -0.067402
-0.024978 -0.086231 -0.131043
-0.037962 0.020931 -0.079741
-0.032325 0.031634 -0.040005
0.019557 0.053686 -0.068504
-0.014719 0.091103 0.104162
-0.042562 0.005311 -0.102991
-0.008476 0.003431 -0.049260
0.031361 -0.081823 -0.122880
-0.013201 0.033157 0.055362
0.003346 0.090812 0.091972
-0.031498 0.037525 -0.031679
-0.024965 0.040462 0.054028
0.004903 0.065564 0.152367
-0.015530 0.053579 0.148445
0.037106 0.062137 0.139424
0.028928 -0.082809 -0.119463
0.031987 0.073482 0.129001
0.023953 0.061115 -0.022417
0.044088 0.069925 0.119202
0.052937 -0.050822 -0.134677
-0.034518 0.009821 -0.127805
0.037304 -0.056988 -0.087998
-0.012832 0.038808 0.044736
0.036691 -0.078648 -0.140962
0.039139 -0.057291 -0.090058
0.001504 -0.077803 -0.091026
-0.017030 0.065893 0.149271
-0.030070 0.046275 -0.027488
0.053837 -0.035842 -0.129308
-0.000799 0.018745 -0.141090
-0.002242 0.069970 0.149665
0.011424 -0.091085 -0.140783
0.027296 0.044168 0.042081
0.050024 -0.014512 -0.127403
-0.052088 -0.020527 -0.134855
0.009478 0.024378 -0.121939
-0.043134 0.065841 0.127858
0.035848 0.075157 0.125637
-0.024656 -0.086567 -0.134511
0.017746 0.076212 0.054245
-0.000427 0.021601 -0.130293
-0.033345 0.025379 -0.047264
-0.005832 -0.091945 -0.142604
-0.007095 0.091949 0.113700
-0.029094 0.015239 -0.124844
0.047501 0.055325 0.120218
0.052796 -0.029710 -0.122453
-0.049325 -0.012664 -0.124107
-0.034465 0.060699 0.134418
0.024512 -0.086440 -0.130872
-0.030037 0.041951 -0.060102
-0.020324 0.021190 -0.035804
0.019967 0.036336 0.055708
-0.010262 0.036917 0.051547
0.029864 0.044144 -0.047594
-0.040903 -0.003765 -0.072161
-0.014258 0.066970 0.001758
-0.034518 0.009821 -0.127805
0.036698 0.079369 0.101380
0.011719 0.016289 -0.152984
0.001703 0.036596 0.049789
0.043251 0.069152 0.122563
0.054389 -0.029166 -0.155599
-0.020317 -0.080592 -0.100732
0.013382 0.034263 0.054784
-0.036682 0.079036 0.108337
-0.036599 0.078660 0.110726
-0.020624 -0.068102 -0.086134
0.018441 -0.089290 -0.142765
-0.022654 0.086852 0.120982
0.026964 -0.084629 -0.124224
-0.012500 0.052956 -0.070003
-0.023005 0.028327 -0.024587
-0.041853 0.071534 0.098994
0.040327 0.005385 -0.121073
-0.019779 0.087182 0.123471
0.050585 -0.050508 -0.115459
0.027047 -0.085376 -0.134695
-0.052452 -0.023913 -0.127714
-0.015402 0.055872 0.148184
0.037012 0.017685 -0.099677
0.000889 -0.089121 -0.112447
0.000678 -0.091748 -0.134840
0.032850 -0.081393 -0.127946
0.004294 0.028387 0.151126
0.014760 0.077608 0.138603
-0.037384 0.004057 -0.140661
0.048419 0.058129 0.117726
-0.016419 0.045376 -0.090588
-0.053760 -0.025906 -0.149938
-0.041477 0.007727 -0.083823
0.002709 0.060615 0.149724
0.031758 0.036628 -0.034377
0.019410 -0.088753 -0.135749
-0.043857 0.065094 0.093405
-0.008832 0.055055 -0.063825
-0.004595 0.051797 -0.083262
0.002927 0.019484 -0.137298
-0.022088 0.020334 -0.122412
0.007642 -0.090844 -0.129016
-0.003982 0.088314 0.082185
-0.011185 -0.091221 -0.143541
0.018115 -0.085697 -0.109887
-0.031205 -0.082792 -0.132457
-0.010018 0.069034 0.009955
-0.011704 0.064008 -0.017181
-0.010345 0.086622 0.078887
-0.033343 -0.073992 -0.101915
0.034859 0.023406 -0.052315
0.031149 0.009631 -0.053078
-0.027968 0.086574 0.102220
-0.034733 -0.079822 -0.126767
-0.035374 -0.079756 -0.134561
0.031149 0.009631 -0.053078
0.039918 0.054694 0.129200
-0.032925 0.073257 0.127978
-0.016099 0.075474 0.049959
-0.024727 0.086471 0.092353
0.027877 0.064362 0.042531
-0.002990 0.068395 0.002393
-0.044323 -0.068356 -0.121639
-0.047791 -0.021670 0.100087
-0.025230 -0.086349 -0.151480
0.048128 -0.011530 -0.106665
0.008054 0.052816 -0.072912
0.027757 -0.081848 -0.112178
0.013582 0.091138 0.101548
0.010124 0.047403 -0.094892
0.051824 -0.045652 -0.117745
-0.029291 0.062801 -0.000618
0.020916 0.056531 -0.042187
0.012786 -0.090972 -0.152620
0.024580 0.013021 -0.141480
0.036959 0.016838 -0.102005
-0.019426 0.021160 -0.123097
-0.041991 0.064154 0.120445
0.036075 0.013057 -0.058666
-0.031234 0.059294 0.040656
0.004131 -0.092160 -0.144735
-0.031383 -0.048237 -0.077798
-0.016853 0.073934 0.044704
-0.001610 0.083914 0.137260
0.045981 -0.025442 -0.085769
-0.027001 0.007590 -0.050926
0.020809 0.027700 -0.023410
-0.012367 0.066919 -0.000232
-0.029083 0.046660 0.044721
0.015588 -0.021670 0.058080
-0.052345 -0.040113 -0.117742
0.014646 0.034913 -0.103856
0.053343 -0.043357 -0.126982
-0.019388 0.001240 -0.051679
0.005956 -0.080136 -0.094291
-0.005748 -0.091352 -0.132802
0.004656 0.072257 0.147730
-0.013379 0.049182 -0.089011
0.027538 0.085791 0.095148
-0.035548 -0.064240 -0.092660
-0.031597 0.052045 0.139246
-0.010179 0.088395 0.084540
-0.027256 0.019835 -0.041822
-0.004009 0.062333 0.154365
-0.030661 0.044643 -0.019820
-0.047579 -0.065196 -0.139345
-0.050101 -0.018730 -0.111349
-0.001920 0.083150 0.066837
-0.003848 0.067335 -0.003331
-0.035005 0.078422 0.089839
0.029295 0.041993 0.056957
-0.030837 0.060238 0.051693
-0.037016 0.068939 0.132512
-0.036100 0.061528 0.069310
-0.032577 0.011144 -0.128933
-0.046589 0.047677 0.092258
-0.027069 -0.076185 -0.099114
-0.021276 0.059221 -0.026850
0.031165 0.070545 0.052275
-0.036290 0.022210 -0.059918
-0.002992 0.068672 0.001317
0.049812 -0.014874 -0.117475
-0.038126 0.012267 -0.063814
0.031796 0.023037 -0.045206
0.030773 0.054757 0.040754
-0.027974 0.033429 0.062140
0.029833 0.050756 -0.046163
-0.010002 0.064999 -0.012941
0.053208 -0.024829 -0.136600
-0.013535 0.065046 -0.009729
0.016242 -0.090042 -0.155599
0.047967 -0.058341 -0.114028
0.017595 0.050839 -0.081390
-0.017573 0.090447 0.103177
0.030875 0.042709 -0.022721
-0.035053 -0.077200 -0.114547
-0.030991 0.036957 -0.027824
-0.010989 0.090754 0.119046
0.015370 0.086460 0.128407
0.035711 0.068725 0.128257
0.045326 -0.068732 -0.147811
-0.027073 0.057929 -0.035270
0.002247 0.023165 -0.029567
-0.005387 -0.080123 -0.094201
0.009312 0.026989 -0.117017
0.007440 0.062585 -0.028064
-0.012435 0.016836 -0.144630
-0.029849 0.055119 0.145141
-0.001623 0.037756 0.046951
0.029672 0.078557 0.078042
-0.021141 0.060344 -0.031325
-0.016245 0.066707 0.144693
-0.041687 -0.001882 -0.074314
-0.051547 -0.025052 -0.115701
0.017620 0.072488 0.039058
0.023002 0.072435 0.138041
-0.014569 -0.075626 -0.091152
-0.042722 0.002757 -0.116648
0.048704 -0.011809 -0.149684
-0.011722 0.091688 0.107825
-0.040912 0.009296 -0.101760
-0.030425 -0.079939 -0.111559
-0.022306 -0.077238 -0.097066
-0.020238 -0.087175 -0.121449
-0.042363 0.070882 0.105765
0.047070 0.056745 0.107259
-0.032345 0.024365 -0.045370
0.018622 0.064733 0.144520
0.000170 0.090440 0.124055
0.022899 -0.087289 -0.133139
0.048392 -0.010767 -0.140253
-0.047572 0.048306 0.090271
-0.016836 0.019243 -0.037166
0.014879 0.083669 0.133909
-0.028504 0.045530 0.048419
0.016245 -0.089676 -0.134696
0.038499 0.035278 0.073468
0.032848 0.077903 0.125654
-0.039528 0.034868 0.132571
0.017604 0.049243 -0.079536
-0.006181 0.088502 0.128402
-0.024037 0.051737 0.144725
-0.047306 0.055017 0.107383
-0.006858 0.025983 0.055831
-0.040322 0.028485 0.077527
-0.002438 -0.084699 -0.100816
0.028387 0.078094 0.074722
-0.005692 0.049408 -0.090639
-0.012541 0.067648 0.001419
0.004230 0.086466 0.132403
-0.023147 -0.054123 -0.076936
-0.038285 -0.077085 -0.132315
0.020820 -0.063580 -0.082451
0.053208 -0.024829 -0.136600
-0.018800 0.089753 0.099113
0.054862 -0.034943 -0.146096
0.003472 0.017942 -0.145932
0.007840 -0.091877 -0.148115
-0.006143 0.077707 0.140979
0.005476 0.045400 -0.093882
-0.040835 -0.000625 -0.155599
-0.018302 0.081587 0.070175
-0.026819 0.069711 0.053147
0.032162 -0.055306 -0.082595
0.024493 0.088352 0.105665
-0.046242 -0.067406 -0.137714
0.034988 -0.075320 -0.108453
0.028097 0.070881 0.044819
0.006383 -0.021670 0.150899
-0.036767 0.078730 0.097305
-0.048405 -0.063663 -0.146812
-0.046025 -0.003890 -0.116730
-0.023253 -0.084832 -0.114782
-0.007726 0.076320 0.047163
-0.000847 0.088217 0.081519
-0.013234 0.066987 0.000905
0.003046 0.052958 0.151021
0.054819 -0.033150 -0.149427
0.032046 0.067136 0.063935
0.025602 -0.082582 -0.110485
0.013638 0.089499 0.122216
-0.017602 -0.089545 -0.141699
-0.018348 0.084176 0.129773
-0.006768 0.068821 0.004106
0.043121 0.037280 0.124286
0.028409 0.050335 -0.029691
-0.036311 0.068206 0.127768
-0.000910 0.070566 0.011381
-0.044897 -0.053850 -0.094458
-0.025176 0.087453 0.098227
0.007421 0.029892 -0.112697
-0.013750 0.057063 -0.051297
0.051580 -0.036857 -0.111778
-0.036038 0.060324 0.068490
-0.014149 -0.088849 -0.120832
-0.000084 0.026211 -0.021844
-0.040810 0.076081 0.112159
0.027865 -0.057992 -0.081747
-0.020677 0.055007 -0.061108
0.000147 -0.053202 -0.072851
0.024900 0.072380 0.055372
0.034867 -0.027000 -0.072113
-0.043558 0.068372 0.100462
-0.030040 -0.083081 -0.126184
-0.046207 0.049592 0.086246
0.044070 -0.002875 -0.134519
0.022717 -0.072319 -0.091347
0.000714 0.089321 0.085378
0.033728 -0.036653 -0.074251
0.041660 -0.021670 0.127106
0.032932 -0.027511 -0.070813
0.033944 -0.080337 -0.125689
-0.017160 0.051874 -0.070733
-0.039131 -0.072066 -0.111325
0.002928 0.027699 0.055127
0.004601 0.049888 0.151075
-0.043100 0.004039 -0.098596
-0.018653 -0.077820 -0.095664
-0.049637 -0.013572 -0.144870
-0.008343 0.088982 0.085779
-0.024090 0.041423 0.050777
0.026535 0.043211 0.050215
-0.035141 0.007344 -0.134673
-0.004172 0.079105 0.055502
0.031814 0.027869 0.066896
0.047501 -0.008795 -0.136224
0.038177 0.075157 0.121624
-0.029317 -0.076233 -0.101147
-0.020475 -0.015514 -0.059709
-0.018036 0.060726 0.146102
-0.043134 0.065841 0.127858
-0.033912 0.057404 0.136088
0.033756 0.045175 0.061282
-0.031597 0.052045 0.139246
0.040530 -0.066011 -0.100710
-0.044929 0.064234 0.109104
-0.049865 0.058586 0.108856
0.032448 -0.075993 -0.104425
0.044018 -0.061126 -0.102296
-0.021473 -0.087081 -0.124199
-0.000340 0.070231 0.009202
-0.024598 0.045190 -0.077823
0.028837 0.071447 0.137962
-0.026472 0.069528 0.051283
-0.045949 -0.021670 0.116988
-0.029541 0.047981 -0.061819
0.012311 0.022794 -0.124199
-0.032324 0.013502 -0.052278
-0.035977 0.018555 -0.101579
0.011550 0.051281 -0.083056
0.030497 -0.083366 -0.143922
-0.032722 0.068888 0.137137
0.012244 0.054410 -0.069639
-0.027577 0.044562 0.048315
0.016431 -0.089389 -0.131272
-0.008485 0.066667 -0.007182
-0.010844 0.027595 -0.017763
-0.029409 0.038630 -0.081227
-0.042064 0.006876 -0.099392
0.034606 0.005509 -0.148932
0.032831 0.008138 -0.139884
0.012628 -0.058897 -0.076834
0.007285 0.032861 0.054042
0.020633 0.054575 -0.052600
-0.031547 0.051761 0.048718
0.011051 0.077319 0.052391
-0.020111 -0.088662 -0.155599
-0.013369 -0.047313 -0.070713
-0.022613 -0.005789 -0.056196
-0.012359 0.064114 -0.018626
-0.032666 0.076039 0.128700
-0.002705 0.085677 0.133653
-0.025729 0.071884 0.056136
0.026237 0.023251 -0.037166
0.046641 -0.017480 -0.091057
-0.032920 0.046356 0.058649
-0.004655 0.069815 0.008775
0.022004 0.033316 0.058625
-0.024818 0.079019 0.130908
-0.018454 0.086913 0.125301
0.010661 0.060475 0.154470
-0.032192 0.075020 0.076703
-0.020281 0.040272 0.047560
0.045222 -0.068800 -0.152334
-0.015994 0.088640 0.123035
-0.046941 0.069140 0.091064
-0.027796 0.083306 0.086776
-0.034163 0.072943 0.068575
-0.004655 0.069690 0.010722
-0.030216 0.037101 0.062005
0.024324 -0.081066 -0.104500
-0.031579 0.038406 -0.064750
0.039374 0.001142 -0.148824
0.050778 -0.055079 -0.124104
0.050376 -0.059618 -0.149719
-0.003184 0.023345 0.055590
-0.026567 0.043654 0.048201
0.042327 -0.071248 -0.121716
-0.000133 -0.091955 -0.137817
0.026192 0.031127 -0.023101
-0.031969 0.038404 -0.045812
0.021942 -0.043223 -0.070708
0.031857 0.083084 0.095005
-0.015448 0.061891 -0.027970
-0.020770 0.011244 -0.045728
-0.031654 0.051598 0.143297
-0.050444 -0.059384 -0.152724
-0.022997 0.074099 0.055929
0.016750 -0.089825 -0.142215
0.043554 -0.069130 -0.120128
0.040260 0.072042 0.123355
0.045801 0.049647 0.117448
-0.002656 0.010106 -0.044600
-0.035074 0.015855 -0.055669
0.024019 0.054918 -0.040201
0.031224 0.051961 0.143708
0.012131 0.089880 0.091595
0.029745 0.035443 -0.024182
-0.015530 0.053579 0.148445
0.023552 0.050944 -0.060960
-0.041849 0.005165 -0.112796
0.031414 0.017750 -0.114803
-0.014383 0.051912 0.148977
-0.046648 0.071009 0.099924
0.039711 -0.038617 -0.079977
-0.012817 0.054685 -0.068122
0.031346 0.085421 0.110152
0.031277 0.083102 0.093424
0.034864 0.014748 -0.113763
-0.024203 0.018282 -0.041086
0.042130 -0.066918 -0.108056
-0.026032 0.042223 -0.082422
0.049949 -0.048238 -0.109263
-0.045652 -0.043429 -0.089243
-0.048910 -0.061454 -0.128146
-0.028405 0.079614 0.128633
-0.031440 0.044854 0.057080
0.008664 0.035704 0.052409
0.031534 0.031425 -0.037386
-0.034922 0.072572 0.078797
0.013469 0.064528 0.151344
0.033897 0.040584 0.064183
-0.040597 -0.074691 -0.145933
-0.033651 0.028357 -0.046833
0.010101 -0.076628 -0.090886
-0.024329 0.030553 0.060943
-0.025305 0.068207 0.041881
0.002165 0.079735 0.057136
0.038538 0.062311 0.137806
-0.010322 0.035426 -0.104568
-0.032296 0.037332 -0.058560
0.020931 0.013412 -0.155599
0.046990 0.063872 0.123673
0.017477 0.051061 -0.073409
-0.043765 0.037018 0.125811
-0.004719 0.037292 0.049208
0.035329 0.059620 0.066394
-0.031714 0.039103 -0.052851
-0.041477 0.007727 -0.083823
0.033772 0.082573 0.102619
-0.006205 -0.091754 -0.139181
-0.024364 0.069597 0.043155
-0.010992 0.074146 0.142439
0.041660 -0.021670 0.127106
0.011542 0.074420 0.142096
0.015899 0.057017 -0.049381
-0.031597 0.052045 0.139246
-0.016582 0.014297 -0.042296
-0.009414 0.065944 0.151404
0.048128 -0.011530 -0.106665
0.046990 0.063872 0.123673
-0.002680 0.022534 -0.030732
-0.045802 0.062149 0.099670
0.040460 0.077597 0.105307
0.025485 0.038930 -0.090728
-0.002254 0.028357 0.152729
-0.023729 0.029349 -0.022836
-0.026351 0.031681 -0.021891
0.031272 0.071554 0.135713
-0.031714 0.039103 -0.052851
-0.039189 0.056882 0.129690
-0.029552 0.041750 -0.066407
0.012106 0.037649 -0.101505
-0.031045 0.070803 0.067160
-0.048508 -0.022846 -0.097992
-0.017985 0.074812 0.045221
0.034808 0.069715 0.059675
0.044941 -0.069355 -0.143571
0.041153 0.069896 0.115695
0.042788 -0.067465 -0.111865
-0.038258 0.069668 0.082679
0.009436 0.037649 0.050139
-0.036062 0.042942 0.067042
-0.052639 -0.052052 -0.134876
0.016698 0.058618 -0.040305
0.017746 0.039633 0.048194
0.022847 0.018220 -0.040392
-0.018651 0.040127 -0.095864
0.016795 0.060045 -0.032602
-0.035031 -0.079971 -0.132353
0.045838 0.052181 0.124085
-0.013898 -0.089276 -0.123727
0.014928 -0.088320 -0.118426
-0.035078 0.005309 -0.146743
-0.046148 0.055953 0.092832
-0.023105 0.013724 -0.044623
-0.033110 -0.081155 -0.127678
-0.034374 0.023663 0.070022
0.000272 -0.092386 -0.147569
0.044574 -0.069271 -0.127763
0.008099 0.090645 0.092768
-0.000078 0.053619 -0.076525
0.040918 -0.020865 -0.076198
-0.050671 -0.017054 -0.123943
-0.031973 0.043398 0.059373
0.012251 0.016373 -0.149180
0.035726 -0.036133 -0.075588
-0.009484 -0.059599 -0.076806
-0.006181 0.088502 0.128402
0.010434 0.091837 0.105965
-0.034057 0.055161 0.061271
0.024822 0.088219 0.107330
0.007903 0.044626 -0.094818
0.032347 0.059159 0.050082
-0.016246 -0.056155 -0.075933
-0.032577 0.011144 -0.128933
-0.053084 -0.023137 -0.147126
-0.005419 0.038179 0.044203
-0.044465 0.064775 0.095863
0.018159 -0.062841 -0.080903
0.031260 0.082893 0.092578
-0.042407 -0.028397 -0.080039
0.006558 -0.088017 -0.108537
0.021778 -0.088010 -0.141078
-0.031071 0.050015 0.047536
-0.054784 -0.039081 -0.143126
-0.034075 0.078909 0.121911
-0.047589 0.050315 0.108601
0.028347 0.061194 0.139937
0.011149 0.022495 -0.125435
0.035712 0.071551 0.079075
-0.030792 0.021877 -0.107879
-0.027850 0.043247 0.052997
0.021989 0.087411 0.091710
0.015458 0.026761 0.057855
0.020346 0.052960 0.146564
0.023274 0.027315 -0.108681
-0.046648 0.071009 0.099924
-0.026388 0.067522 0.019575
0.018722 -0.052257 -0.074319
-0.037868 0.005426 -0.131669
-0.043010 0.074478 0.095335
0.034715 -0.076657 -0.111739
0.027086 0.003663 -0.053261
-0.043788 -0.003917 -0.084842
0.008065 0.046212 -0.092001
-0.002990 0.070401 0.011376
-0.022431 -0.040025 -0.069486
-0.012391 0.090806 0.117497
-0.022997 0.074099 0.055929
-0.012664 0.044953 -0.093168
0.000688 0.089801 0.126035
-0.010456 0.028751 0.151551
-0.046524 -0.020608 -0.089320
-0.020542 0.082135 0.130795
-0.008684 -0.071280 -0.085278
-0.023498 -0.087024 -0.133156
0.044169 0.067179 0.104425
0.002352 0.042425 -0.097710
-0.029228 0.085118 0.096567
-0.017590 0.079523 0.137181
0.002414 -0.088545 -0.109282
-0.046922 0.039394 0.118308
0.015712 0.061309 -0.027358
-0.050239 -0.022642 -0.108078
-0.004522 0.068694 0.004849
0.042294 -0.000060 -0.132675
0.042488 0.004071 -0.112617
-0.012133 0.023150 -0.123502
-0.032183 0.083889 0.106200
-0.054998 -0.037881 -0.155599
-0.051031 -0.056072 -0.128924
-0.038691 0.070264 0.121585
-0.002988 0.068085 -0.002041
0.022704 0.085025 0.124743
0.026641 0.053377 -0.030320
-0.002989 0.069195 0.007031
0.036610 0.007868 -0.127597
0.029757 0.022460 -0.108643
0.046646 -0.006995 -0.133785
0.029136 0.009188 -0.155599
-0.031387 0.051620 0.047449
0.034510 0.006426 -0.058683
0.012755 0.047547 -0.093699
-0.012664 0.044953 -0.093168
-0.038740 0.034884 0.131563
0.039112 0.046473 0.073556
0.023385 0.086875 0.119872
-0.022653 -0.044585 -0.071593
0.017579 0.087671 0.127157
-0.045957 0.052249 0.116410
0.049428 -0.047240 -0.105567
-0.008812 0.090045 0.123296
-0.031654 0.051598 0.143297
-0.014044 0.086280 0.129445
-0.039404 0.011465 -0.105155
-0.010069 0.063041 -0.025999
-0.007385 0.078197 0.053517
-0.013234 0.066987 0.000905
-0.047291 -0.007168 -0.120175
0.047899 0.049575 0.103880
-0.042562 0.005311 -0.102991
-0.032643 0.053372 0.055297
0.030163 0.012316 -0.050429
0.044854 -0.021435 -0.082373
-0.034057 0.055161 0.061271
-0.002990 0.069953 0.011453
0.029360 0.046972 0.046085
-0.048715 -0.012360 -0.111025
-0.010739 0.034446 0.053930
0.027214 0.012250 -0.048028
-0.024509 0.069758 0.044552
0.014009 0.056301 -0.054604
0.019979 -0.088752 -0.146128
0.052954 -0.027746 -0.126365
-0.030756 0.061811 0.053329
-0.030648 0.037956 -0.022926
-0.011571 0.091278 0.099791
0.039116 0.040893 0.073710
-0.037929 0.079415 0.096260
-0.039068 0.062459 0.127426
-0.005563 -0.092111 -0.146645
0.016580 0.021970 -0.033374
0.023977 0.052531 -0.052015
-0.025224 0.042666 0.045343
0.005991 -0.091905 -0.141918
-0.049484 -0.061487 -0.155599
-0.011695 0.088782 0.086771
-0.013311 0.045755 -0.097786
0.021938 0.020162 -0.122953
0.026519 0.063252 0.140531
-0.008391 0.049221 -0.090573
-0.022088 0.020334 -0.122412
-0.027032 0.086747 0.112361
-0.024974 0.030672 0.144271
-0.039476 0.072492 0.124001
-0.010466 0.022438 -0.125874
-0.012191 0.066190 -0.007150
-0.011534 0.054953 -0.062562
-0.028680 0.062088 0.040363
-0.044671 -0.002453 -0.094000
0.039301 -0.008944 -0.070784
-0.014329 -0.073473 -0.088768
-0.039620 -0.075692 -0.131271
-0.050610 -0.057799 -0.130745
-0.052030 -0.022787 -0.124796
0.006068 0.089312 0.086222
-0.053668 -0.030304 -0.131464
-0.029031 0.066906 0.054361
0.020767 0.043866 -0.088769
0.044941 -0.069355 -0.143571
0.004257 -0.091318 -0.130939
-0.021182 0.014068 -0.144417
0.048077 -0.009410 -0.127145
0.048419 0.058129 0.117726
0.010825 0.091270 0.098766
-0.037556 0.075970 0.121208
0.028852 -0.064444 -0.087447
0.039038 0.049097 0.135311
0.018675 0.089946 0.113567
-0.003368 0.075783 0.043643
-0.006333 -0.078041 -0.091743
-0.032092 0.045703 0.057456
-0.012321 -0.090879 -0.140104
0.033548 0.032225 -0.049656
0.032215 0.083899 0.105874
-0.002052 0.078488 0.140813
-0.032927 0.083114 0.100088
0.028118 0.076403 0.066859
0.028688 0.074620 0.062614
-0.051615 -0.036136 -0.112022
-0.042832 0.062540 0.087003
-0.038969 0.000034 -0.067807
0.025795 -0.085589 -0.127707
-0.008738 0.051982 0.150388
-0.033092 0.063544 0.062819
0.037823 -0.021670 0.073961
-0.035135 0.064925 0.138740
-0.016158 0.015336 -0.149039
-0.030903 0.053630 0.041482
0.029890 0.078693 0.075855
-0.049333 0.049877 0.098804
0.043770 0.053389 0.122319
-0.033202 0.024914 -0.097666
-0.035749 -0.079471 -0.138854
-0.031078 0.040459 -0.055289
-0.021968 0.082048 0.075142
-0.018785 0.013496 -0.043444
-0.037906 0.008203 -0.063814
-0.023565 0.057202 -0.030214
0.029302 -0.015691 -0.064022
-0.031142 0.025777 0.066709
0.003531 -0.092343 -0.151192
0.034802 0.048452 0.062623
0.050926 -0.055362 -0.125815
-0.022092 0.087140 0.090788
-0.006416 0.074535 0.038950
-0.031074 -0.082855 -0.151792
0.033062 0.013490 -0.121285
0.042954 -0.071841 -0.153449
-0.025391 0.087969 0.105832
0.030394 0.045255 -0.026339
-0.026395 0.051827 -0.067583
0.032937 0.050815 0.056115
-0.047045 -0.066067 -0.145798
-0.042088 0.066686 0.089335
-0.034100 0.058152 0.057545
-0.052907 -0.042932 -0.123285
0.041578 -0.000896 -0.144446
0.053499 -0.037528 -0.125953
0.013127 -0.089492 -0.124291
-0.049955 -0.054004 -0.117086
0.021088 0.027772 0.059954
0.025427 0.087887 0.103530
0.023738 0.041716 0.046068
0.043817 -0.065474 -0.110962
0.047361 0.055618 0.105452
0.028626 0.068039 0.055257
-0.004902 0.066921 -0.005194
-0.035157 0.009092 -0.058535
-0.013507 0.046012 -0.090856
0.028180 -0.084238 -0.126675
0.032442 0.057645 0.056561
0.023274 0.027315 -0.108681
0.048678 -0.059807 -0.121099
0.052087 -0.024122 -0.122306
-0.014278 -0.086460 -0.108351
-0.019206 0.075462 0.053577
0.001469 -0.067600 -0.081631
-0.029979 -0.066471 -0.090119
-0.021282 0.061711 -0.022828
0.041167 0.003332 -0.124348
0.018189 0.017118 -0.135545
-0.030903 0.053630 0.041482
0.042121 0.052378 0.125945
-0.021570 0.040445 0.044421
0.039648 0.074823 0.119226
-0.023652 0.030093 -0.020054
-0.032070 0.085084 0.107612
-0.049670 -0.040944 -0.155599
-0.036100 0.061528 0.069310
-0.046519 0.047652 0.121323
0.028414 0.045507 0.047805
-0.013814 0.088176 0.085970
0.030992 -0.083077 -0.140445
0.031241 -0.080834 -0.117104
0.003029 0.092263 0.102866
-0.008489 0.069438 0.011314
-0.024069 0.086558 0.119715
-0.027627 0.042600 0.053839
0.018876 0.048221 -0.088745
-0.040243 0.011803 -0.096713
0.036199 0.057275 0.067856
-0.008921 -0.091464 -0.139920
0.028043 0.086139 0.112491
-0.037226 0.062755 0.130060
-0.047787 -0.062349 -0.122515
0.029963 0.069376 0.041814
0.004294 0.028387 0.151126
-0.004446 0.032636 0.053688
-0.031522 0.069827 0.049771
-0.031355 0.057720 0.051488
-0.024769 0.076174 0.133786
-0.046941 0.069140 0.091064
-0.027909 0.050514 -0.033904
-0.011185 -0.091221 -0.143541
-0.000910 0.070566 0.011381
-0.026951 0.030919 -0.025642
-0.035850 0.054451 0.134637
-0.029027 0.047282 -0.039175
-0.017306 -0.053615 -0.074705
-0.007077 0.032095 0.054378
0.037039 0.069367 0.064878
0.013143 -0.077877 -0.093280
0.028409 0.053014 -0.058436
-0.039585 -0.069980 -0.107197
-0.002780 -0.006799 -0.054185
-0.014087 0.066903 0.001223
-0.035311 0.054319 0.064853
0.021696 0.039961 0.051657
-0.000540 0.040649 -0.099570
-0.026367 0.049582 0.143384
0.038447 0.078558 0.111830
-0.048763 0.067917 0.107026
-0.026789 -0.021670 0.143133
0.016593 0.037007 0.053620
-0.013903 0.064021 -0.015158
0.014879 0.083669 0.133909
0.025896 0.052293 -0.041305
-0.020357 0.047433 -0.081612
0.044668 -0.067772 -0.121379
0.052749 -0.048380 -0.127430
-0.013396 0.076203 0.142323
0.002153 0.059698 -0.045055
0.044335 -0.001052 -0.121343
-0.031665 0.081602 0.120792
-0.001504 0.061942 -0.032501
0.022022 -0.024530 -0.063715
-0.000658 0.092052 0.115758
0.029475 0.047207 0.042435
-0.022753 0.049070 -0.071036
0.018271 0.056785 -0.046945
-0.021714 0.075658 0.057913
-0.040993 -0.074316 -0.134092
-0.046426 -0.066670 -0.130570
-0.039054 -0.067642 -0.100329
-0.034537 0.061442 0.065251
-0.043558 0.068372 0.100462
0.027759 0.040056 0.057329
-0.010528 -0.052443 -0.072901
0.031535 0.077723 0.124742
0.024950 0.042492 0.046104
0.000197 0.092140 0.100694
-0.033255 0.081687 0.093947
0.027712 0.054560 0.142045
0.005947 0.052753 -0.073927
0.031508 -0.021008 -0.067549
-0.046817 -0.032241 -0.088634
-0.022447 0.066829 0.141622
-0.022985 0.058932 0.144149
-0.008044 0.088777 0.127202
-0.016329 0.081062 0.067076
0.044012 -0.003922 -0.143861
-0.020863 0.029933 0.147929
0.031795 0.082453 0.115283
-0.016626 0.052454 -0.076019
-0.036308 -0.077684 -0.121306
0.038125 0.057062 0.072339
0.023274 0.027315 -0.108681
-0.032728 0.034920 -0.074460
0.040915 -0.067370 -0.105013
-0.017306 -0.053615 -0.074705
-0.018403 0.029517 0.058447
-0.013146 0.053998 0.149158
0.007903 0.044626 -0.094818
-0.039405 0.005075 -0.067682
0.051028 -0.027905 -0.109789
0.032373 0.051918 0.138569
0.013519 -0.086679 -0.108384
-0.031129 -0.032894 -0.071338
-0.044772 -0.004148 -0.135898
0.027344 -0.060785 -0.083505
-0.023596 0.087808 0.116005
-0.046115 -0.003908 -0.112093
-0.020359 -0.054827 -0.076328
0.023918 0.077731 0.066600
-0.004655 0.069690 0.010722
-0.050995 -0.016749 -0.140328
-0.043828 0.049860 0.122698
-0.012191 0.066190 -0.007150
0.031419 0.024884 -0.101675
-0.027857 0.051640 -0.065718
0.019849 -0.010374 -0.057372
-0.011526 0.076569 0.140573
0.025828 -0.086105 -0.138114
0.036079 0.049810 0.066254
0.032741 0.083341 0.100707
0.005182 0.051977 0.150908
0.024304 -0.043718 -0.071834
0.027538 0.085791 0.095148
-0.036043 0.076036 0.123830
-0.041077 -0.064136 -0.098822
-0.011105 0.088427 0.126762
0.011993 0.078871 0.057853
0.028043 0.086139 0.112491
0.018723 0.023081 0.059293
0.005170 -0.053886 -0.073301
0.029975 -0.045326 -0.075427
0.020079 0.040178 0.048108
0.051185 -0.020187 -0.119807
-0.031495 0.050732 0.049202
0.015157 0.051872 -0.079212
-0.046133 0.060047 0.109425
0.016977 0.026092 -0.025225
0.037077 0.075601 0.117351
0.012853 0.045875 -0.091402
-0.010174 0.091667 0.102006
-0.007862 0.038213 0.043474
-0.044015 0.054026 0.085226
0.022726 0.040972 0.049789
0.013531 -0.089163 -0.122291
0.004197 -0.091930 -0.139575
-0.051739 -0.055739 -0.138067
-0.026214 0.065424 0.006960
0.046664 -0.062111 -0.115638
-0.040861 0.008501 -0.106038
0.042396 0.005271 -0.088534
-0.034317 0.027100 0.069550
-0.033750 -0.078931 -0.116976
-0.022171 0.040931 0.046300
0.044103 0.001131 -0.110027
-0.010711 0.044428 -0.101356
-0.024364 0.069597 0.043155
-0.041280 0.000786 -0.135076
-0.031177 0.042829 -0.058363
0.028729 -0.054627 -0.079976
-0.010849 0.091768 0.109840
0.054981 -0.036475 -0.150603
0.010523 0.054324 -0.065831
0.032741 0.083341 0.100707
0.025623 0.079576 0.073591
-0.004763 0.067847 0.000056
0.011228 0.032665 0.055050
0.009651 0.033872 0.054012
-0.031970 0.035951 -0.076421
0.018120 0.024778 -0.116881
0.051206 -0.040929 -0.110808
0.015273 0.049859 0.148799
0.042916 0.002148 -0.118091
-0.023595 -0.030710 -0.066593
-0.028400 -0.021670 0.064819
0.003141 0.062993 -0.027583
-0.029358 0.066039 0.053936
0.023145 -0.087416 -0.147335
-0.001420 0.045486 -0.094060
-0.016590 0.001950 -0.050861
0.045719 -0.030972 -0.085522
0.019776 0.046984 -0.083758
0.018357 0.015430 -0.142738
0.024452 0.072260 0.043593
-0.000008 0.085444 0.134052
0.027180 0.038847 0.057990
-0.030880 0.042495 -0.022172
0.033466 0.061172 0.062096
-0.045140 0.072508 0.106021
-0.019195 0.052641 0.147113
0.028254 0.069443 0.036387
0.032901 0.046485 0.058458
0.025898 0.053871 -0.033413
0.046187 0.039937 0.116174
-0.006852 0.038368 0.045779
-0.021962 0.035458 -0.099090
0.021415 0.080885 0.133270
-0.050976 -0.057735 -0.136439
-0.023864 0.038488 0.055755
0.052923 -0.026095 -0.128757
-0.047994 -0.053478 -0.105993
0.031759 0.033069 0.065319
0.007308 0.049892 0.150736
0.028809 0.016643 -0.121895
-0.006770 0.067465 -0.003712
0.030186 0.048563 0.043773
0.000678 -0.091748 -0.134840
0.035557 0.004893 -0.146867
0.030666 0.059215 0.049159
-0.034387 -0.045074 -0.078209
-0.054874 -0.033923 -0.151081
0.005472 0.059024 -0.047526
-0.008489 0.068791 0.004895
-0.032355 0.079237 0.121067
-0.012321 -0.090879 -0.140104
0.038144 0.018070 -0.069276
-0.022627 0.022727 -0.034877
-0.028959 -0.071711 -0.094901
0.042101 0.071161 0.107431
-0.012310 0.083257 0.134157
-0.001420 0.045486 -0.094060
0.033459 0.047662 0.059071
0.043770 0.053389 0.122319
-0.033092 0.063544 0.062819
0.022010 0.077656 0.060776
-0.025316 0.056497 -0.023131
-0.010414 0.059373 -0.042964
0.038369 0.005569 -0.129084
0.014009 0.056301 -0.054604
0.023963 0.020533 -0.119971
0.005915 0.017371 -0.149878
-0.050499 -0.015581 -0.147521
-0.040264 0.005510 -0.120855
-0.010047 0.012671 -0.042947
0.030418 0.056707 0.040415
-0.039436 0.066379 0.081681
0.006158 0.056336 0.150286
0.008865 0.079006 0.139377
0.025370 0.079735 0.129576
-0.035687 0.050133 0.135329
0.030665 0.018064 -0.047079
0.032032 0.061857 0.058130
-0.051947 -0.031007 -0.114808
-0.039293 0.012652 -0.101812
-0.024095 0.053994 -0.044356
-0.019120 -0.086747 -0.116252
-0.046056 0.059917 0.096646
0.030291 -0.075330 -0.100730
-0.049470 -0.027791 -0.101114
-0.018606 0.052810 -0.073097
-0.036120 0.080879 0.111324
0.036075 0.013057 -0.058666
0.023955 0.071220 0.035652
0.027462 0.073645 0.064249
-0.036740 0.072750 0.122468
-0.020923 0.023612 0.060291
-0.004095 0.017453 -0.151327
-0.001046 0.087277 0.078548
-0.027455 0.032607 -0.022650
0.049590 0.064897 0.114512
0.005294 0.087951 0.129736
-0.031114 0.039519 -0.025656
-0.054887 -0.040917 -0.155599
-0.026594 0.061160 0.148056
-0.043788 -0.003917 -0.084842
-0.006814 0.090656 0.121939
-0.020112 0.074537 0.051879
-0.039068 0.062459 0.127426
-0.023135 0.017160 -0.129013
0.013826 -0.065287 -0.081468
0.023670 0.028229 -0.025799
0.024033 -0.073906 -0.093948
0.007829 0.083825 0.136354
0.024975 0.056526 -0.047399
0.027128 -0.071855 -0.093662
-0.047220 0.056477 0.105226
-0.045834 0.054559 0.115974
0.030678 0.049613 0.041168
-0.024743 0.086546 0.118672
0.038560 -0.053806 -0.086871
-0.047519 -0.007765 -0.113836
0.025251 0.074198 0.137927
0.004678 0.017769 -0.037563
-0.036563 0.052285 0.134131
0.036241 0.028059 0.071632
0.016532 0.038222 0.051961
0.048340 0.067594 0.111269
0.018441 -0.089290 -0.142765
0.018430 0.029572 0.149018
0.049085 0.049355 0.111424
-0.029237 0.046763 0.046585
0.036959 0.016838 -0.102005
0.000449 0.037328 -0.103337
-0.029263 -0.084169 -0.139292
-0.044143 -0.023374 -0.081358
-0.036144 0.007559 -0.130220
-0.009705 0.082791 0.135567
0.031788 0.083077 0.113338
-0.033378 0.050031 0.057968
-0.031355 0.057720 0.051488
-0.018269 0.020772 -0.035608
0.039228 0.005705 -0.124936
-0.034935 0.079167 0.119758
-0.009815 0.074774 0.041995
-0.050667 -0.022481 -0.111246
0.023950 0.053453 -0.047780
0.015672 0.023957 0.058114
-0.032606 0.084758 0.105149
-0.037158 0.074685 0.079318
-0.029893 0.028268 0.065224
-0.036302 0.024867 -0.064695
0.030042 0.033537 0.063656
0.045978 0.054413 0.091202
-0.013146 0.053998 0.149158
-0.024245 -0.081928 -0.106247
0.028485 0.080020 0.127964
-0.025672 0.046966 -0.067020
0.033332 0.044440 0.060899
-0.020991 0.051722 -0.075185
0.032398 0.064071 0.061286
-0.027180 0.077942 0.072324
-0.031761 0.063700 0.049005
0.024851 0.081205 0.130032
-0.017422 0.073866 0.040313
0.054425 -0.043650 -0.140867
0.003467 0.074768 0.145868
0.009654 -0.085611 -0.104138
0.032081 0.082024 0.119086
0.038125 -0.068720 -0.100386
-0.004383 0.044463 -0.095443
-0.045129 0.071641 0.092733
-0.029792 0.080184 0.123701
0.047855 -0.021670 0.100672
-0.008485 0.065017 -0.013894
-0.042081 0.071527 0.102868
-0.003949 0.077039 0.143860
0.032260 0.072623 0.072848
-0.010280 -0.089945 -0.123828
-0.030190 0.041619 0.058500
-0.000291 0.048319 -0.088195
-0.020196 0.089031 0.096814
-0.006242 0.077901 0.142730
-0.020488 0.055503 0.146157
0.050417 -0.055162 -0.121804
-0.045119 -0.001466 -0.104989
-0.008489 0.063171 -0.023924
-0.028047 0.080911 0.080631
0.038362 0.070077 0.122490
0.000911 0.091465 0.119683
-0.015448 0.061891 -0.027970
-0.039131 -0.072066 -0.111325
-0.025744 0.054839 -0.029366
-0.026567 0.043654 0.048201
0.029976 0.058595 0.040796
0.046231 0.063683 0.125471
-0.033912 0.057404 0.136088
0.032713 0.007343 -0.145346
-0.022431 -0.040025 -0.069486
0.046100 -0.038216 -0.088013
0.038742 -0.074716 -0.118554
0.049812 -0.014874 -0.117475
0.005845 -0.002941 -0.052490
0.032486 0.036759 -0.061621
0.036540 0.041551 0.068379
0.040779 0.003340 -0.126382
-0.014942 0.071283 0.023993
-0.008845 0.072480 0.143999
-0.041735 -0.065264 -0.102968
0.051233 -0.049061 -0.117572
-0.005119 0.069780 0.011481
0.026013 -0.083177 -0.113443
-0.026129 0.056397 -0.045903
-0.016760 0.035423 0.055139
0.016869 0.089257 0.093151
-0.041642 -0.021670 0.127106
-0.036191 0.078391 0.093383
0.043918 0.055198 0.085313
0.016275 0.055887 -0.054382
0.018594 0.028262 -0.018836
-0.036340 0.017368 -0.058098
-0.025199 0.016628 -0.127566
0.040918 -0.020865 -0.076198
-0.002438 -0.084699 -0.100816
0.031063 0.040370 -0.023942
0.031075 0.044491 -0.049112
-0.000101 0.014508 -0.040874
-0.020074 -0.044675 -0.070782
-0.004930 0.068068 0.001420
-0.002457 -0.092364 -0.148608
0.019058 -0.088973 -0.138256
0.040725 0.072283 0.112261
-0.020648 0.013143 -0.044215
-0.036050 0.026264 -0.081579
0.020547 0.071189 0.038747
0.040037 0.027645 0.077063
0.035279 0.066140 0.071082
0.009635 0.073963 0.037879
0.032260 0.072623 0.072848
-0.017454 0.089830 0.097138
0.047223 -0.021670 0.111625
0.035491 -0.059954 -0.088721
-0.032823 0.004661 -0.057464
0.042788 -0.067465 -0.111865
-0.043269 0.060440 0.086502
0.025719 0.029712 0.061995
-0.033567 0.032135 0.067457
0.026237 0.025544 -0.034086
-0.045785 0.062577 0.105282
-0.021922 0.040333 -0.093000
0.024981 -0.075670 -0.096796
-0.029849 0.055119 0.145141
0.003292 0.092376 0.105474
0.018057 0.074438 0.048374
0.038214 0.025768 0.074482
-0.046004 0.071749 0.103064
0.015474 0.019771 -0.129812
0.042396 0.005271 -0.088534
0.032413 0.083768 0.103481
-0.026951 0.030919 -0.025642
-0.041318 -0.036113 -0.080846
-0.017600 0.061826 -0.026326
-0.034267 0.066720 0.069243
-0.025296 0.053128 -0.041170
-0.010679 0.064563 0.147308
-0.005486 -0.070616 -0.084261
-0.003460 -0.010284 -0.055703
0.034006 0.032237 -0.075102
-0.032455 0.018884 -0.110344
0.019007 0.045803 -0.095091
0.027186 0.010891 -0.146053
-0.030092 0.073575 0.062013
0.019048 0.074242 0.049085
0.003186 0.086076 0.133085
0.009176 -0.006770 -0.054444
0.019108 0.089761 0.099812
-0.011612 0.016551 -0.148656
0.047235 -0.021670 0.095249
-0.024929 0.006006 -0.050772
0.043124 -0.060968 -0.098727
-0.004412 0.089737 0.125750
-0.013391 0.073850 0.040482
0.030452 0.038123 -0.084534
-0.040698 0.073891 0.102814
-0.048289 -0.056946 -0.113159
0.044070 -0.002875 -0.134519
0.014867 0.031080 0.056731
-0.029868 0.038405 -0.079836
-0.035533 0.082093 0.106110
-0.049929 -0.058193 -0.125586
-0.016703 0.018087 -0.133837
0.054633 -0.043801 -0.149938
-0.011322 0.067588 0.002693
-0.004691 0.050815 -0.086606
0.018203 -0.071062 -0.087840
-0.040311 -0.016484 -0.074260
-0.016667 0.045236 -0.097607
-0.009815 0.045522 -0.099299
0.048506 0.068714 0.101279
0.001381 0.080864 0.138832
-0.029188 0.086054 0.114948
0.036152 -0.019523 -0.070754
-0.031062 0.035850 -0.029997
0.028387 0.078094 0.074722
-0.006593 0.091671 0.116711
0.042104 -0.072132 -0.124582
-0.025876 0.030820 0.145175
-0.024601 -0.043540 -0.071881
-0.026946 0.050186 -0.073304
0.012235 0.090037 0.121284
-0.045776 0.051611 0.089607
0.035004 -0.078818 -0.121232
0.022329 0.072199 0.048135
0.031219 0.059259 0.040005
0.045946 -0.005365 -0.099701
0.037557 0.080389 0.104215
-0.040046 0.069808 0.087671
0.041203 0.036474 0.078411
0.026580 0.078515 0.069984
0.039795 0.065838 0.081970
-0.036066 0.056788 0.063398
-0.047202 0.052129 0.096020
-0.024778 0.081139 0.076341
-0.020359 -0.054827 -0.076328
0.005744 -0.092158 -0.151026
-0.048814 -0.062501 -0.133141
-0.028439 0.086107 0.111024
-0.009502 0.053730 -0.073842
-0.018509 0.007612 -0.047750
0.019967 0.036336 0.055708
0.020227 -0.054632 -0.076154
-0.023697 -0.086683 -0.129309
0.022144 0.064346 0.148178
-0.019386 0.053995 -0.058073
-0.018435 0.075310 0.047882
0.031783 0.039184 0.062264
-0.035354 0.028787 0.070410
0.042421 0.058678 0.123310
-0.010683 0.069893 0.144989
0.020643 0.008537 -0.047615
-0.010262 0.036917 0.051547
0.026925 0.079909 0.073963
-0.030439 0.025675 -0.040392
0.034783 -0.078649 -0.119461
0.031701 0.038497 -0.036805
0.033551 0.006246 -0.150419
-0.014528 0.090116 0.118917
0.004678 0.017769 -0.037563
-0.025143 0.059410 -0.008340
0.009651 0.033872 0.054012
-0.006770 0.068205 0.003197
-0.017372 0.056659 0.147338
0.027712 0.054560 0.142045
-0.016523 0.089505 0.094018
0.027478 0.024937 -0.036460
0.048036 0.067433 0.089577
0.023488 0.077236 0.135986
-0.030535 -0.083358 -0.140746
-0.013362 0.061597 -0.028765
0.044467 -0.005056 -0.152171
0.046633 -0.063301 -0.118446
-0.006770 0.070084 0.011427
0.025194 0.042653 0.047532
-0.028765 0.035099 -0.020036
-0.027146 0.079270 0.075225
-0.033084 0.061072 0.060960
-0.004700 0.050648 -0.081316
0.030238 0.037613 -0.020556
-0.031260 0.041278 -0.066994
0.045502 0.063509 0.127067
-0.032509 0.051109 0.054352
-0.019060 -0.089084 -0.148018
0.024059 0.071018 0.048439
-0.029057 0.070271 0.061233
-0.030107 0.046233 0.052210
-0.026069 -0.085975 -0.145651
0.030238 0.037613 -0.020556
-0.046299 -0.064958 -0.121429
0.029649 0.041224 0.058208
0.000819 -0.009108 -0.055174
0.016474 0.050381 -0.076942
0.020257 0.072467 0.036798
-0.029228 0.085118 0.096567
-0.008485 0.065216 -0.015360
0.026237 0.025544 -0.034086
0.034309 0.058029 0.058178
0.036669 0.020239 -0.095127
0.011404 -0.080920 -0.096739
-0.021511 -0.086496 -0.119992
0.015654 0.087012 0.083389
0.019987 0.072322 0.043025
-0.002757 -0.085706 -0.102713
0.019108 0.089761 0.099812
-0.008489 -0.013880 -0.057384
-0.028740 0.068976 0.135878
0.031631 0.083782 0.097696
-0.026810 -0.081317 -0.108584
0.039005 -0.076456 -0.141527
0.032997 0.039314 0.063652
0.012950 0.053546 0.149263
0.027363 0.012702 -0.136120
-0.030663 -0.083028 -0.130212
0.017030 0.020079 -0.127733
-0.006537 0.085422 0.073973
-0.030373 0.045449 -0.024769
-0.028162 0.072948 0.064399
0.047736 -0.064807 -0.155599
-0.008485 0.062133 -0.029284
-0.017218 -0.089275 -0.132818
-0.036992 0.021312 -0.064370
0.046196 0.049214 0.122580
-0.043101 0.073222 0.113588
-0.031387 0.051620 0.047449
-0.003140 0.018428 -0.142504
-0.019797 0.049922 -0.074231
-0.000101 0.014508 -0.040874
0.041809 -0.002737 -0.074420
0.005036 0.034158 0.052850
-0.048693 -0.062288 -0.129837
-0.000760 0.052651 -0.075213
-0.041740 0.059805 0.124067
-0.036972 -0.076656 -0.119272
0.018115 -0.085697 -0.109887
-0.023532 0.054850 -0.042653
0.019936 -0.072704 -0.090277
0.004024 0.089506 0.126491
-0.039089 0.006135 -0.123998
0.034544 0.071860 0.131948
0.041473 0.063724 0.122070
-0.045964 -0.026564 -0.085632
-0.012486 -0.087782 -0.112048
-0.018509 0.007612 -0.047750
0.004327 0.027777 -0.116620
0.037077 0.075601 0.117351
-0.011406 0.068196 0.003569
-0.045381 0.049922 0.118687
0.047600 0.052619 0.107167
-0.049929 -0.058193 -0.125586
-0.039456 -0.037974 -0.079507
0.022863 0.030026 -0.018197
0.026535 0.040346 0.055779
-0.000143 -0.089557 -0.115248
-0.009584 -0.069096 -0.083562
0.045222 -0.068800 -0.152334
-0.002989 0.069143 0.004051
-0.042904 0.004271 -0.093914
0.039852 0.050201 0.129972
0.039374 0.042124 0.074162
0.035273 0.027620 -0.059382
0.016198 0.090886 0.107990
0.042272 -0.005867 -0.075468
0.042359 0.005885 -0.102654
-0.025927 0.023391 0.063102
-0.018282 -0.015855 -0.059205
0.010546 0.006638 -0.047445
0.045604 0.063133 0.100888
0.031170 0.029162 -0.038532
-0.047870 -0.016670 0.102401
-0.020007 -0.052010 -0.074568
0.027187 0.034233 0.061191
0.004741 0.026108 -0.022446
-0.031088 0.041565 -0.037893
0.004283 0.049162 -0.091527
0.047422 0.051470 0.109618
0.009654 -0.085611 -0.104138
0.038450 0.076975 0.099591
-0.044335 0.063235 0.129326
0.023071 -0.087411 -0.155598
-0.031035 0.051070 0.043848
0.019103 -0.079632 -0.098470
-0.025256 0.075738 0.064279
-0.028752 0.052828 0.141491
-0.005966 0.069395 0.006994
0.025091 0.086099 0.119411
-0.020274 0.018018 -0.039572
-0.017656 0.017225 -0.135795
0.006068 0.089312 0.086222
0.006708 0.057355 -0.054863
-0.028761 -0.033415 -0.070091
0.016795 0.036368 0.054343
-0.006582 0.029121 -0.114078
-0.037145 -0.070549 -0.101789
0.047310 -0.007848 -0.108288
-0.034075 0.078909 0.121911
0.005846 0.014671 -0.040874
0.027759 0.040056 0.057329
