-0.059576 -0.005784 0.012933
-0.026543 0.022564 -0.048491
0.002940 0.043267 -0.016145
-0.074822 -0.067718 -0.042796
-0.013137 0.023329 -0.007162
0.056265 0.061007 0.073899
0.003423 0.069382 0.029418
0.015544 0.068573 0.061474
0.074438 0.071874 0.022683
0.001954 0.063494 0.012972
-0.026358 0.018011 0.000174
-0.041465 -0.082768 -0.075833
-0.015200 -0.059446 0.002873
-0.092878 -0.038347 -0.048292
-0.049843 -0.059644 0.010576
0.071853 0.036879 0.075780
-0.085821 -0.005188 -0.029762
-0.017758 -0.044921 0.027403
-0.022395 -0.024489 0.025314
0.012927 0.032372 -0.011670
0.035549 0.024842 0.084024
0.013555 0.013119 -0.026819
-0.067483 -0.065088 -0.006466
-0.005665 -0.055553 -0.005149
-0.036414 -0.051260 0.015418
-0.012388 0.037830 -0.014708
0.013741 0.070067 0.008041
0.004193 -0.025147 -0.088001
0.068106 -0.027526 -0.015018
-0.051102 -0.034027 0.019186
0.091724 0.030452 0.034599
-0.011096 0.037447 -0.015262
-0.065726 -0.059120 0.004475
-0.033006 0.018955 -0.012275
-0.021955 -0.052593 0.011556
0.026345 -0.041929 -0.024517
-0.018261 0.026084 0.028493
0.090342 -0.010561 0.009009
0.025464 -0.027525 -0.027029
0.014197 -0.021074 -0.051241
0.091855 0.003813 0.014983
0.002494 0.058934 -0.003329
0.030166 0.033936 -0.015782
0.002262 0.027024 -0.011222
0.080636 0.017069 0.067494
0.024568 0.080647 0.031253
-0.005296 0.034464 0.053650
-0.060608 -0.078513 -0.063644
0.088084 0.059462 0.023295
-0.080059 -0.032219 0.005103
0.001554 0.039139 -0.014630
-0.075045 -0.056093 -0.002534
0.095802 -0.010554 0.036193
0.021267 -0.046388 -0.027676
-0.091255 -0.011473 -0.048489
0.016626 0.050746 -0.017943
0.028498 0.015735 -0.021323
-0.056750 0.013921 -0.004435
-0.093464 -0.029195 -0.044669
0.004817 0.014459 -0.030159
-0.021903 0.021743 0.016238
0.070137 0.073840 0.046618
-0.061184 -0.045687 0.014069
0.007485 -0.036148 -0.013521
0.011392 0.064763 0.003505
0.056730 0.079581 0.020225
-0.048795 -0.081516 -0.062922
-0.082025 -0.039063 0.000681
-0.009585 0.055884 0.036814
-0.079583 0.005955 -0.037165
-0.055281 0.011830 0.000685
-0.072955 -0.019285 0.010490
0.012814 0.075683 0.037390
-0.002038 0.066637 0.023056
-0.012589 -0.053678 0.005736
-0.065152 -0.013858 0.013485
-0.011559 0.024450 -0.006437
-0.017159 -0.029380 0.030805
0.002362 0.029540 -0.011697
0.001738 0.019580 -0.022500
0.010650 0.002209 -0.038260
0.062530 0.059966 0.071574
-0.009056 0.036215 0.003202
0.006677 0.000471 -0.050185
-0.015808 0.018816 -0.050105
-0.044883 -0.061729 0.009794
-0.023466 -0.079981 -0.081192
0.080803 0.035074 0.063488
0.095087 -0.024006 0.021750
-0.029212 0.006556 0.013569
0.076496 0.070578 0.024275
0.021338 -0.040320 -0.030961
-0.000212 0.013835 -0.035179
-0.015353 0.022733 -0.006087
-0.037315 0.009489 0.007108
-0.095360 -0.023394 -0.067265
-0.089328 -0.052649 -0.062945
0.008664 0.073334 0.030534
0.031379 0.063163 0.074231
0.047856 -0.027526 0.087607
0.065404 0.072352 0.008871
0.027405 0.027411 -0.018485
0.039923 0.083032 0.032999
0.021866 0.079367 0.040190
0.020963 0.027548 -0.017619
-0.039815 0.026802 -0.078838
-0.032333 0.024019 -0.049550
0.052662 0.015080 0.084339
0.061801 0.048831 0.075393
-0.005656 0.013362 -0.072124
-0.051904 0.011774 0.002301
0.005505 0.054971 0.061555
0.058163 0.080270 0.039195
0.040490 0.082227 0.023220
0.069126 0.073304 0.015758
0.066531 0.076881 0.025085
-0.014921 0.041355 0.029364
0.000032 0.042005 0.058647
0.066267 0.063799 -0.000753
-0.032920 -0.067420 0.003611
-0.066531 -0.011368 0.012108
0.011518 0.064441 0.062111
-0.018054 -0.077861 -0.084493
-0.070251 -0.062954 -0.006468
-0.095398 -0.034421 -0.071145
-0.089068 -0.043847 -0.031578
0.008220 0.072912 0.017021
-0.027978 -0.080869 -0.070244
0.058163 0.080270 0.026803
0.023391 0.030238 -0.015287
0.033645 0.039322 0.081395
-0.059564 0.004884 0.006577
0.003617 0.043857 -0.015630
-0.030974 0.015507 0.001561
0.029088 0.071835 0.065614
0.013736 -0.031461 -0.017531
-0.013461 0.019660 0.043275
0.061387 0.073865 0.008278
-0.048361 0.019622 -0.019173
-0.089696 -0.003247 -0.069122
-0.002038 0.066637 0.023056
-0.005336 0.030262 -0.007132
-0.014503 0.028498 0.002565
0.058168 0.080601 0.032635
0.008957 0.056979 0.064585
-0.049266 0.025446 -0.063605
-0.080292 0.007403 -0.048846
-0.054975 0.023936 -0.059372
0.071060 0.015546 -0.010264
-0.032696 0.022055 -0.032340
0.088744 0.037643 0.046168
-0.068148 0.019754 -0.078496
-0.064084 -0.073293 -0.033656
0.037450 0.021621 -0.018818
-0.016973 0.035971 0.026394
0.011933 -0.041057 -0.075881
-0.050295 -0.030950 0.019558
0.058927 0.050582 0.076264
0.063059 0.062176 -0.008215
0.062150 -0.010683 -0.017493
-0.043571 -0.015541 0.018964
-0.019425 0.025823 0.008244
0.005613 0.016304 -0.027087
-0.055033 0.025237 -0.088001
-0.029992 0.010471 0.010235
0.015627 0.035085 0.076182
-0.006962 0.046961 0.008361
0.044371 0.035575 -0.018035
-0.024980 -0.079217 -0.059026
-0.078946 0.009860 -0.055937
0.013691 -0.029021 -0.083004
-0.045938 -0.071362 -0.001768
0.087761 0.050595 0.037586
0.039472 0.035185 0.082860
-0.073090 0.015658 -0.063471
-0.020688 0.042636 0.016719
-0.002955 -0.050539 -0.003623
-0.017496 0.036953 0.007154
-0.024000 0.042561 0.012890
0.057294 0.071924 0.002237
-0.026232 0.024363 -0.070429
-0.090718 -0.046323 -0.049075
0.084458 0.059897 0.041722
-0.015344 0.021135 -0.013158
0.061025 0.014369 -0.015814
-0.018551 0.021391 -0.005736
-0.017990 -0.027527 0.030658
-0.019832 0.020472 -0.049611
-0.014071 0.042746 -0.002484
0.060092 -0.001488 0.083725
0.006559 0.036138 0.070917
0.045874 0.058448 0.077432
0.066120 -0.014458 0.081823
-0.001346 0.060624 0.045016
0.013687 0.069464 0.002100
-0.078226 -0.067950 -0.069122
-0.005219 -0.058476 -0.014168
0.083284 0.036780 0.064508
-0.001301 0.064343 0.023974
-0.024485 -0.010870 0.021738
0.011969 -0.000812 -0.039022
0.096143 -0.017934 0.032045
-0.005182 0.036834 -0.004209
0.067874 0.034060 0.075203
0.020902 0.079489 0.032999
-0.001292 0.026376 -0.013785
0.032806 0.021457 -0.018935
0.093459 0.010708 0.023499
0.030838 0.059189 0.076134
-0.025494 0.017224 0.008274
-0.087527 -0.051174 -0.040895
-0.049813 -0.082276 -0.082080
-0.067429 0.013517 -0.024125
-0.065648 0.021189 -0.082449
-0.066117 -0.070369 -0.024118
-0.004190 0.011531 -0.054798
-0.029987 -0.021964 0.021313
0.001732 -0.053750 -0.029804
-0.083533 -0.019439 -0.000930
0.058603 -0.006938 0.084618
0.035786 0.060747 0.080020
-0.026489 0.023627 -0.059008
-0.055206 -0.069684 -0.002534
-0.095448 -0.031974 -0.067791
0.029119 0.055063 -0.011097
-0.007208 0.013904 -0.053155
0.006898 -0.054499 -0.082907
0.013614 0.056880 -0.003434
0.070928 0.072901 0.054536
0.019482 -0.010047 -0.032656
0.085902 0.003761 0.062862
0.086886 0.049216 0.044424
-0.089685 -0.018264 -0.025864
0.032373 0.051978 -0.012575
0.091724 0.030452 0.034599
0.014537 0.035088 0.075516
-0.018208 0.026264 0.000679
-0.007960 0.043309 -0.006184
-0.026453 0.008072 0.015491
-0.028179 0.000893 0.016563
0.034873 0.046788 -0.014108
-0.069621 0.015246 -0.040925
0.008329 0.055380 -0.000660
-0.094700 -0.040690 -0.082646
-0.007003 0.053365 0.047215
-0.044135 -0.074563 -0.011651
-0.078805 -0.061992 -0.033283
-0.028056 -0.073526 -0.015124
0.006397 -0.045297 -0.033443
0.018822 0.035829 -0.012377
-0.052349 0.006479 0.007902
-0.014053 0.035652 0.036930
0.003984 0.017526 -0.025833
-0.004465 0.031155 -0.004296
-0.077976 0.005977 -0.029606
-0.027428 0.020547 -0.019735
0.033586 0.009978 0.085584
0.015533 0.025082 -0.016148
-0.071616 -0.029319 0.012049
0.053408 0.037927 0.080709
0.024567 -0.046337 -0.022684
-0.010428 0.025469 -0.007804
0.083669 0.054904 0.015785
0.085068 0.065661 0.044367
-0.005138 0.012171 -0.058879
-0.004910 -0.028431 -0.000281
-0.029273 -0.081673 -0.084481
0.065404 0.072352 0.008871
-0.005376 0.019131 -0.025304
0.028513 -0.000174 -0.024236
0.014658 0.065546 0.063992
0.055798 -0.010693 -0.019673
0.025523 0.059317 0.074435
-0.003974 0.025457 -0.011957
-0.022662 -0.059726 0.007460
-0.012179 0.017012 -0.053285
0.076382 0.071177 0.027146
0.017376 -0.022535 -0.038885
-0.085056 -0.031302 -0.002534
-0.030911 -0.045832 0.018570
-0.040215 -0.067181 0.004945
-0.020804 -0.028709 0.017277
-0.017151 0.042804 -0.004365
0.074924 -0.010893 -0.010051
0.007491 -0.049837 -0.055395
-0.053513 0.019289 -0.022859
0.076455 0.067379 0.015243
0.047411 0.080742 0.048257
0.010523 0.040277 -0.007667
-0.002837 0.044072 0.053531
0.020052 -0.027525 -0.033455
0.006175 0.036888 0.072145
-0.088306 -0.042996 -0.025683
-0.064385 0.015697 -0.026134
0.066631 0.007247 0.079992
0.020267 0.056978 0.073004
-0.086533 -0.002499 -0.042798
0.011504 -0.013439 -0.065408
0.000103 0.035925 -0.004096
-0.028428 -0.078135 -0.040731
0.060112 0.073196 0.006008
0.082924 -0.027526 -0.002922
0.011969 -0.000812 -0.039022
0.048806 0.026758 0.083488
-0.093464 -0.029195 -0.044669
0.087957 0.050572 0.034858
0.021616 0.062828 0.070796
-0.038475 -0.070375 0.000363
0.084458 0.059897 0.041722
0.049546 0.041931 -0.014777
0.094408 -0.027524 0.018785
-0.089166 -0.045329 -0.035312
-0.067223 0.019060 -0.059688
-0.051625 0.002869 0.010680
-0.019338 0.029719 0.018289
-0.023556 0.042796 0.012787
0.043501 0.078851 0.011099
0.055179 0.055005 -0.010581
0.079661 0.059420 0.055041
-0.013673 0.025640 -0.002291
-0.068252 -0.057479 0.003991
0.037855 0.032414 0.083070
0.065531 0.036858 0.079650
0.055179 0.055005 -0.010581
0.012430 -0.028129 -0.053121
0.011907 -0.015093 -0.067802
0.028903 0.070776 -0.000915
-0.044883 -0.061729 0.009794
-0.002135 0.013862 -0.037310
0.096143 -0.017934 0.032045
-0.003075 0.020934 -0.019615
-0.011234 -0.021502 0.049714
0.070470 -0.013912 -0.013330
0.020963 0.027548 -0.017619
0.017507 -0.043112 -0.019494
0.031432 0.081595 0.024385
0.032410 0.036903 0.084846
-0.006805 0.033716 -0.000645
-0.076503 -0.025689 0.008677
-0.012064 0.043041 -0.001136
0.020433 0.021178 -0.019239
0.090580 0.035000 0.042008
-0.001126 0.020091 -0.021719
-0.017183 -0.044888 0.027624
-0.054139 0.014796 -0.004435
-0.061014 0.013508 -0.008765
0.013555 0.013119 -0.026819
0.080933 0.037686 0.003781
-0.003777 0.062084 0.031254
-0.085972 -0.028022 -0.004432
-0.068980 -0.030726 0.013457
-0.028474 0.014067 0.007882
0.005893 -0.056012 -0.077795
-0.053819 -0.001139 0.012455
-0.009863 0.049569 0.037004
0.074219 0.055476 0.064557
-0.026728 -0.071246 -0.007083
0.086462 0.055404 0.039385
0.022580 0.021578 -0.018948
-0.047452 0.017169 -0.007183
0.017725 0.069190 0.003409
-0.073456 -0.067833 -0.037054
0.013472 -0.022242 -0.088001
-0.007912 -0.015398 0.057366
-0.023466 -0.079981 -0.081192
-0.023341 0.005696 0.019934
0.017080 0.024841 0.078294
-0.038648 -0.067765 0.004150
0.079363 0.055006 0.007680
0.004465 -0.024851 -0.088001
0.035507 0.067664 -0.008835
-0.002706 0.032817 -0.004224
0.006806 -0.036836 -0.022673
-0.042784 -0.004297 0.015412
0.043188 0.055496 -0.012593
0.060092 -0.001488 0.083725
0.037084 -0.010326 -0.021915
-0.026473 0.017021 0.005308
0.083247 0.034239 0.006092
0.019507 0.032662 -0.013574
0.024644 0.066958 0.069127
0.028774 -0.027525 -0.023739
-0.056457 -0.003068 0.012724
-0.014570 -0.075485 -0.069362
0.094105 -0.010557 0.019136
0.009034 -0.006587 -0.073226
-0.074403 -0.068918 -0.048236
0.052789 0.017404 -0.018026
0.064293 0.023355 -0.013101
0.013315 0.039630 -0.009132
-0.003923 0.048624 0.006035
-0.005400 0.029173 -0.005308
0.056599 0.035022 0.080765
-0.065852 -0.076472 -0.067587
0.065736 0.066617 0.001328
0.073329 0.072905 0.015234
0.017957 0.003163 -0.030079
0.055025 0.076693 0.009915
-0.060814 -0.002050 0.010741
-0.020926 0.024056 0.010052
0.041255 -0.027526 0.088001
0.007143 -0.028221 -0.017667
-0.079580 -0.060108 -0.029208
0.038168 -0.004805 0.087247
-0.084233 0.002394 -0.048371
-0.091551 -0.008258 -0.063334
0.030022 0.065990 -0.009932
-0.020641 -0.056672 0.008726
0.066405 0.048260 -0.006980
-0.020654 -0.029751 0.027049
-0.074327 -0.069974 -0.055762
-0.080731 -0.060226 -0.035308
0.091724 0.030452 0.034599
-0.032412 0.022876 -0.040110
0.003055 0.026340 -0.015221
-0.063622 -0.065433 -0.001768
0.025661 0.021571 -0.018940
-0.011997 0.021918 -0.012431
-0.007429 -0.006174 0.057696
0.089987 0.024830 0.049124
0.054670 0.079177 0.049422
0.064448 0.002892 -0.015529
-0.030991 -0.045885 0.016868
-0.069327 -0.044705 0.010642
-0.013190 0.018763 -0.071491
0.084324 0.064405 0.017203
0.027423 0.069835 -0.001433
0.009646 -0.008036 -0.064264
-0.084476 -0.042573 -0.007171
-0.045831 0.014422 -0.000057
-0.013486 0.043800 0.038122
-0.009566 -0.072930 -0.083050
0.066770 0.062174 0.067566
-0.023228 0.019729 -0.001413
-0.041213 -0.079233 -0.037044
-0.004713 0.052368 0.009855
0.013650 -0.027525 -0.061240
-0.007960 0.043309 -0.006184
-0.055206 -0.069684 -0.002534
0.021710 0.055133 0.074335
0.034836 -0.027525 -0.022642
0.014177 0.076358 0.028108
0.013523 -0.028110 -0.076361
0.080619 0.067374 0.030958
-0.015960 -0.074353 -0.049405
0.083271 -0.017921 -0.002328
-0.020555 0.028228 0.010620
0.043826 0.035043 0.083101
-0.044751 -0.079660 -0.040908
0.005228 -0.057444 -0.088001
-0.048294 -0.047628 0.016589
-0.044967 -0.046357 0.017328
0.018325 0.031411 -0.015497
0.021938 -0.036409 -0.031055
0.080355 0.065165 0.045755
0.004588 -0.056069 -0.059218
0.088637 0.045109 0.039871
-0.038312 -0.054873 0.013897
0.075371 0.019852 0.072246
0.008711 0.023697 -0.016223
-0.011627 0.046234 0.035586
0.007248 0.072905 0.046650
-0.072896 -0.000043 0.000681
-0.042022 -0.082945 -0.082181
0.000716 0.033811 -0.005645
-0.080064 -0.003575 -0.008283
-0.071628 0.013814 -0.040606
-0.089174 -0.050913 -0.052545
0.091443 0.014027 0.049116
0.053832 0.080711 0.043742
0.015420 0.072905 0.059014
0.010501 -0.035534 -0.045121
-0.063219 0.019095 -0.042792
-0.051904 0.011774 0.002301
-0.047133 -0.081115 -0.055610
0.000861 0.066616 0.024771
-0.015721 0.011820 0.038953
-0.029638 0.018828 -0.010123
0.094469 -0.018426 0.019448
0.035390 0.059189 0.076985
0.025166 -0.009791 -0.026998
-0.005604 0.029630 0.054207
0.031428 0.081956 0.027367
-0.041067 -0.082417 -0.068486
0.066529 0.075437 0.018322
-0.022213 0.020587 -0.024001
0.091731 0.008828 0.049981
0.013538 -0.040800 -0.017519
-0.038122 -0.001258 0.014138
-0.095853 -0.028266 -0.072897
0.068901 0.075472 0.023636
-0.058151 -0.053106 0.012128
-0.022764 0.004511 0.020925
0.047411 0.082385 0.039420
-0.005004 0.042749 -0.013720
0.000462 0.033238 -0.008077
0.071612 0.010883 0.076497
0.014313 0.064536 -0.005673
0.000349 0.020826 -0.019909
0.005841 0.000998 -0.052620
0.040490 0.080945 0.017320
0.066531 0.076881 0.025085
-0.019302 0.017953 0.027022
-0.070008 0.012190 -0.025988
0.035193 0.081008 0.047261
0.084281 0.055491 0.017813
0.092737 0.023645 0.031729
-0.021140 -0.079067 -0.079369
0.013838 0.021758 -0.018668
0.005596 0.002527 0.073306
0.035549 0.024842 0.084024
-0.024571 -0.042746 0.016049
-0.025760 -0.004825 0.019626
-0.017303 0.020882 0.033202
-0.002185 -0.066762 -0.088001
-0.031469 -0.018207 0.020426
0.000725 0.042716 -0.017566
0.005443 -0.028251 -0.011857
0.019731 -0.003061 -0.030732
0.085224 0.035014 0.057123
0.025846 -0.039556 -0.025976
-0.084910 0.004597 -0.070682
0.041991 0.071919 -0.001696
-0.068376 0.019772 -0.084221
0.060163 0.079876 0.029473
-0.075161 -0.022883 0.009491
-0.047934 -0.053997 0.013983
-0.055752 -0.078658 -0.048426
0.033139 -0.027525 -0.023060
0.080191 -0.006885 -0.005066
-0.025253 -0.068080 -0.000870
0.027730 0.036968 -0.014633
-0.007018 0.038769 -0.014592
0.037227 0.059712 0.076960
0.085049 0.036990 0.062167
0.068265 0.036853 -0.012125
0.014059 -0.046217 -0.017594
0.041237 -0.009296 -0.021570
0.011205 -0.044089 -0.079205
0.045867 0.078257 0.056024
0.034162 0.039721 -0.015382
-0.036608 -0.077409 -0.026907
-0.000727 -0.028358 -0.006161
0.082279 0.026385 0.063485
0.030300 0.064799 -0.006890
0.026967 0.077794 0.052933
-0.001131 0.011521 0.064777
0.064182 0.000560 0.081853
-0.077957 -0.068758 -0.078500
-0.078136 -0.002749 -0.004435
0.007855 0.072759 0.035987
0.063291 0.069700 0.002957
0.004734 -0.046378 -0.011483
-0.022714 0.042541 0.007332
0.014023 0.073129 0.051688
-0.034094 -0.059449 0.010927
-0.085098 -0.016271 -0.006468
-0.013443 -0.046240 0.015499
-0.067356 -0.073331 -0.045186
0.019724 0.078848 0.028386
-0.014424 0.018426 -0.057945
0.012724 0.068193 0.006240
0.085439 0.026394 0.058685
-0.028904 0.012675 0.009198
-0.001720 0.036438 0.057946
-0.009221 0.045055 0.009872
0.000255 -0.046941 -0.007175
0.049431 0.078354 0.011250
0.090343 0.030312 0.021068
-0.039494 0.013669 0.001621
0.079934 0.026756 -0.000324
-0.012813 0.016350 0.045185
-0.069842 -0.020022 0.012453
-0.001881 -0.051395 -0.007827
0.012485 0.051191 -0.016167
-0.055544 -0.037601 0.017802
-0.038166 0.012311 0.003709
0.039754 0.069596 0.070339
0.079366 0.065655 0.047483
0.083814 0.059668 0.021176
-0.029742 -0.046400 0.016476
0.029684 0.073363 0.063551
0.053389 0.057413 -0.010379
-0.002503 0.037431 -0.023235
0.053153 0.061917 0.078401
0.077752 0.007115 0.071999
0.055399 0.066952 -0.004163
0.029016 0.055781 0.076864
-0.002079 0.027682 -0.008662
0.070646 0.035569 -0.008548
0.017614 0.074980 0.051538
0.010464 0.035062 0.072548
-0.018964 -0.057603 0.007190
-0.032390 -0.006228 0.017141
0.066148 0.070505 0.059554
-0.037132 -0.066405 0.005584
0.017291 -0.004941 0.081759
-0.004297 0.026598 -0.008591
-0.085098 -0.016271 -0.006468
-0.033530 -0.041389 0.018290
0.057097 0.060061 0.077910
-0.001384 0.064771 0.027793
0.045973 0.070520 -0.003063
-0.040442 -0.041920 0.018673
-0.046130 -0.073165 -0.006468
0.031221 0.075124 0.004934
0.001729 0.066438 0.041766
-0.039702 -0.082042 -0.063101
0.019725 0.078217 0.042553
0.060941 0.057928 0.073303
-0.016551 -0.029007 0.030578
-0.029230 -0.036728 0.021169
0.086941 -0.024120 0.063620
-0.022401 -0.067521 -0.002119
-0.067737 -0.060943 0.000685
-0.030388 -0.041281 0.017814
-0.076679 0.007421 -0.030010
0.005583 0.045356 -0.003141
0.003617 0.043857 -0.015630
0.088868 0.060024 0.034126
-0.088238 -0.003369 -0.052109
-0.036390 0.005725 0.010439
-0.060746 -0.079129 -0.074784
0.067646 0.056892 0.069709
-0.051903 -0.080379 -0.055768
-0.013027 0.036294 0.008104
0.000692 0.027859 -0.012626
-0.026543 0.022564 -0.048491
0.081324 0.048385 0.008048
0.076867 -0.016149 0.074713
-0.090559 -0.024874 -0.025865
-0.012904 -0.002856 0.046294
0.075279 0.071934 0.026260
0.041255 -0.027526 0.088001
0.058125 0.045582 0.077699
-0.042784 -0.004297 0.015412
-0.028878 -0.065810 0.004240
0.016786 0.043657 -0.021706
-0.011969 -0.046389 0.011124
-0.059334 -0.075333 -0.033318
-0.018407 0.024541 0.003088
0.092064 -0.027525 0.011892
0.011251 -0.008692 -0.050821
-0.015628 0.024559 -0.001644
0.008990 0.069124 0.052738
0.066657 0.004081 -0.014295
0.005028 0.012921 -0.032162
0.011295 0.066195 0.005105
-0.091588 -0.010050 -0.056064
0.045410 -0.005008 -0.021181
0.054559 0.064302 -0.006520
0.084857 0.050591 0.049816
0.043229 0.058445 -0.015698
0.013373 -0.017994 -0.053995
-0.081262 0.005531 -0.044675
0.028438 -0.016451 -0.024965
-0.021447 -0.063480 0.003137
-0.007139 0.015488 -0.040216
-0.012813 0.016350 0.045185
0.095087 -0.024006 0.021750
0.062881 -0.027524 0.083592
0.092721 0.007295 0.047246
0.021680 0.059215 0.072806
-0.085729 -0.059555 -0.071009
-0.022263 -0.045001 0.022699
0.002613 0.037391 -0.026553
-0.019416 -0.004723 0.027434
0.080619 0.067374 0.030958
0.030570 0.064174 0.077712
0.027862 0.035038 0.081327
0.056939 0.036880 0.083214
0.042325 0.044984 -0.014886
0.036565 0.046655 0.080330
0.084926 0.010836 0.063115
-0.071383 -0.008702 0.008293
-0.013978 0.041185 0.014814
-0.000166 -0.051547 -0.014969
-0.026754 0.017578 0.001617
0.079912 -0.027525 -0.006151
-0.094092 -0.033118 -0.052360
-0.091024 -0.040129 -0.037178
0.023904 0.042865 -0.012242
-0.016551 -0.029007 0.030578
-0.088119 -0.030387 -0.013093
0.072325 0.036962 -0.009462
0.015812 -0.046394 -0.018652
-0.013190 0.018763 -0.071491
-0.040883 0.026988 -0.088000
-0.061642 0.022043 -0.063469
-0.032415 0.015937 -0.000604
-0.090202 -0.043978 -0.039047
0.053354 0.030889 0.081945
-0.083886 0.006447 -0.078496
0.021375 -0.002709 -0.029209
0.001029 0.039120 -0.016957
0.091714 0.024831 0.042418
-0.012997 0.033123 0.043514
0.029437 0.026879 -0.017194
-0.024797 0.018556 0.005202
-0.060669 -0.069571 -0.008176
0.010486 0.072935 0.046771
0.077751 0.054874 0.005359
-0.076080 -0.067506 -0.048255
-0.017855 -0.037016 0.029804
0.095770 -0.017727 0.039407
-0.011919 0.030493 0.043522
0.013614 0.056880 -0.003434
0.059515 0.035510 -0.014480
0.006028 0.071400 0.036636
0.062540 0.069459 0.063884
0.070033 0.069856 0.009581
-0.023370 -0.023902 0.024533
0.040687 0.056849 0.078215
-0.090944 -0.033638 -0.029371
0.012681 -0.018758 -0.072118
-0.007818 0.031010 0.050365
0.054952 0.010712 0.084262
0.012150 -0.034958 -0.060543
0.095772 -0.027526 0.025668
0.037849 0.057404 0.077918
-0.010548 0.037653 0.005908
-0.024383 0.022687 -0.055938
0.083271 -0.017921 -0.002328
0.025497 0.080201 0.042145
0.008459 -0.004806 -0.079535
0.076509 -0.006582 -0.008478
0.010971 -0.045374 -0.088001
-0.068117 -0.075222 -0.067239
-0.053437 -0.064392 0.005842
0.089547 0.000263 0.008857
0.013719 0.045644 -0.007421
-0.055281 0.011830 0.000685
-0.020629 0.021831 0.001273
0.034388 -0.019538 -0.022675
0.053637 0.047129 0.082211
0.005845 -0.028244 -0.011592
0.071608 0.072578 0.047913
0.009943 -0.000778 -0.042750
0.012158 -0.014809 -0.088000
-0.032920 -0.067420 0.003611
-0.015353 0.022733 -0.006087
-0.052355 -0.028397 0.019270
-0.000602 0.038729 -0.019028
0.087957 0.050572 0.034858
-0.035362 0.014469 0.001082
0.036533 0.008361 -0.020736
-0.080597 -0.023761 0.004464
0.005505 0.054971 0.061555
-0.027169 -0.074843 -0.022922
-0.087674 -0.015166 -0.019166
-0.063088 -0.044111 0.013833
-0.013546 0.021134 -0.015978
0.001618 0.005513 -0.059548
-0.035818 -0.073455 -0.007739
0.040490 0.082227 0.042778
0.008983 -0.040479 -0.040925
0.014469 0.036787 0.078167
0.069865 0.075447 0.039009
0.026314 -0.004937 0.085249
-0.014074 0.038342 -0.002213
-0.022263 0.013019 0.020216
-0.015195 0.042115 0.024539
-0.047931 -0.040427 0.018632
-0.030645 0.016051 0.000483
-0.019338 0.029719 0.018289
-0.006935 -0.069337 -0.058848
0.000222 0.059829 0.049514
0.004122 0.035075 0.066688
-0.055851 0.005083 0.007966
0.023579 0.004775 -0.026035
0.076171 0.065653 0.054060
0.008473 0.003625 -0.040009
-0.095021 -0.037968 -0.074603
0.010968 0.073240 0.045762
-0.027891 -0.027526 0.019324
0.044663 0.030372 -0.017383
0.001297 0.031958 0.063461
-0.023011 0.020056 0.012877
0.007285 -0.001630 -0.054036
0.042137 0.036847 0.085588
0.053451 0.056899 0.080019
0.006902 0.035236 0.069145
0.007156 -0.002888 -0.067920
0.079661 0.059420 0.055041
0.085155 0.055056 0.011123
0.076496 0.070578 0.024275
-0.082603 -0.064221 -0.084233
0.009705 0.016838 0.074826
0.031721 0.008247 -0.022055
0.004131 -0.058381 -0.072220
0.081896 0.064044 0.011346
0.076534 0.063861 0.055740
0.013311 -0.028114 -0.071629
0.008328 -0.049530 -0.063098
0.086073 0.054866 0.042354
-0.026278 0.019317 -0.010723
0.067226 0.030375 -0.010315
0.013675 -0.027526 0.080590
-0.015927 0.036305 0.030924
-0.013804 0.017903 -0.053915
0.014226 -0.044576 -0.043037
-0.053275 -0.079518 -0.050295
0.000607 0.058559 0.051566
-0.014552 0.023958 -0.004215
0.042375 0.058911 -0.011471
-0.096070 -0.023681 -0.088001
0.078175 -0.003096 0.072716
-0.014666 0.035522 0.039127
0.084895 0.010880 0.002851
-0.042333 -0.011792 0.018056
-0.074671 0.014917 -0.069124
-0.094402 -0.022853 -0.055604
0.006934 0.069265 0.048562
0.014851 0.076812 0.036415
0.078506 0.063580 0.005632
-0.065115 0.006832 0.000681
0.003693 0.002676 -0.064022
0.053871 -0.022540 0.086519
-0.096058 -0.029164 -0.078377
0.042033 0.081256 0.047511
0.065687 0.071067 0.006898
0.094170 0.011243 0.036135
-0.008726 -0.057280 -0.002079
0.020039 -0.004940 0.083022
-0.078755 -0.021857 0.006214
-0.019427 0.020080 0.026204
0.023517 0.036254 -0.013697
0.047411 0.080742 0.048257
-0.005399 0.020631 0.056788
0.054067 0.068202 0.069515
-0.003953 0.003796 0.062047
-0.061014 0.013508 -0.008765
0.085310 0.044938 0.051845
-0.017076 -0.046319 0.027016
0.018691 -0.044703 -0.033042
-0.095566 -0.019301 -0.088001
-0.007616 -0.028479 0.003820
-0.017944 -0.075618 -0.051287
0.008842 0.018622 -0.022850
-0.003348 -0.020186 0.065082
-0.038979 0.016159 -0.003023
0.000255 -0.046941 -0.007175
-0.084255 -0.046051 -0.011685
-0.086907 -0.017138 -0.013113
-0.012997 0.033123 0.043514
0.010186 0.063160 0.061840
-0.007430 0.052353 0.040337
0.059224 0.018673 0.081964
-0.010632 -0.000495 0.051292
0.045867 0.078257 0.056024
-0.021241 -0.022060 0.026214
-0.006110 -0.070085 -0.077452
0.026968 0.079877 0.020159
-0.011096 0.037447 -0.015262
-0.000908 -0.065050 -0.076124
-0.029714 -0.033621 0.018923
-0.007474 -0.063091 -0.021823
0.004639 0.062120 0.061819
0.025515 0.040363 -0.013310
-0.092766 -0.013656 -0.056422
-0.010428 0.028160 0.046901
0.040594 0.072598 0.066779
-0.083595 0.000829 -0.037316
-0.063532 -0.078127 -0.078559
-0.064385 0.015697 -0.026134
-0.005824 0.042641 -0.013596
-0.047419 -0.078600 -0.035316
0.091392 0.035007 0.031557
0.009746 0.036998 -0.029757
-0.023762 -0.079385 -0.066249
0.021223 -0.017399 -0.031349
0.070611 0.035019 -0.007570
0.018746 -0.046405 -0.031497
-0.004238 0.039266 -0.012607
0.084949 0.035153 0.057076
0.037460 0.078764 0.011090
0.024250 0.035138 0.079941
-0.025100 -0.007016 0.020534
0.051751 0.081686 0.025827
-0.015123 0.007377 0.040749
-0.016213 0.043748 0.012168
0.075861 0.071594 0.038984
-0.020473 0.022258 0.021872
0.009085 0.073163 0.040247
-0.004923 -0.053109 -0.002986
-0.000046 0.066083 0.034559
-0.028060 -0.046313 0.019144
-0.094631 -0.015112 -0.082084
-0.001570 0.018571 0.062810
0.020520 0.036261 0.080426
0.086886 0.049216 0.044424
0.042325 0.044984 -0.014886
-0.072985 -0.072359 -0.070981
-0.081042 -0.000870 -0.019160
0.091539 0.026977 0.024365
-0.000499 0.018089 -0.026385
0.078557 0.013852 0.070266
0.083284 0.036780 0.064508
0.024037 0.078384 0.048491
0.001904 0.051821 -0.008831
0.049433 0.076871 0.058216
-0.049538 -0.081812 -0.069122
0.036705 0.081315 0.019442
-0.058515 -0.071692 -0.013160
0.054123 0.043273 -0.013483
-0.059334 -0.075333 -0.033318
0.074290 -0.012409 0.076622
0.042427 -0.024207 0.087985
-0.092900 -0.035751 -0.044672
0.011680 0.012670 -0.028137
-0.019056 -0.078374 -0.088001
-0.033399 -0.077402 -0.029249
-0.058305 -0.078072 -0.050301
-0.010608 0.036902 0.048940
0.011587 -0.041098 -0.069061
0.044702 0.045104 -0.014749
0.061713 0.075676 0.053303
-0.020465 -0.005764 0.025469
0.001646 0.025560 -0.012436
-0.027090 -0.069434 -0.002128
0.089455 -0.003139 0.008130
-0.077299 -0.060769 -0.021926
0.014545 -0.046369 -0.040354
0.064094 0.016597 -0.014175
0.046896 0.066153 -0.007013
-0.017239 -0.051532 0.010005
0.021292 0.055367 -0.008104
-0.026873 -0.080856 -0.076125
0.010048 -0.039040 -0.046524
0.073357 0.039602 -0.003924
-0.017529 0.043100 0.029077
-0.004949 -0.024230 0.062825
0.010298 -0.045685 -0.070255
-0.040442 -0.041920 0.018673
-0.096093 -0.032331 -0.088001
0.066657 0.004081 -0.014295
0.006935 0.064839 0.056051
-0.004799 0.010174 0.059768
-0.016055 -0.046265 0.026620
0.092709 0.023227 0.036223
-0.015628 0.024559 -0.001644
-0.015494 0.018772 -0.043776
0.026914 0.032222 0.081108
-0.067355 -0.047741 0.010613
-0.040675 -0.081470 -0.055991
0.060151 0.010583 -0.016596
-0.003213 0.023954 -0.012671
0.075206 0.065650 0.010427
-0.047637 -0.077748 -0.030043
0.071659 0.065881 0.066430
-0.032268 0.014429 0.002805
-0.030651 0.013352 0.006154
-0.017596 -0.006527 0.031951
-0.086928 0.002292 -0.078424
-0.018233 -0.036067 0.029728
-0.049843 -0.059644 0.010576
-0.072643 0.016559 -0.071192
-0.017773 0.043268 0.017316
-0.030913 0.010896 0.008981
0.000693 0.042763 -0.018512
-0.032519 -0.032159 0.019538
0.041242 -0.002926 -0.021203
0.029660 0.081898 0.034493
-0.020629 0.021831 0.001273
-0.027787 -0.000792 0.017319
0.031094 0.028512 -0.018659
0.085049 0.036990 0.062167
-0.047349 0.026596 -0.084200
-0.000213 0.021391 -0.018592
-0.047554 0.022868 -0.037556
-0.026134 -0.012288 0.021027
-0.074318 0.003079 -0.006468
-0.076151 -0.011514 0.005568
0.025846 -0.039556 -0.025976
-0.013352 0.045742 0.029402
0.089833 0.041306 0.031073
-0.063741 0.009692 -0.002494
-0.014623 -0.069028 -0.022888
0.022586 0.079094 0.043431
-0.010597 -0.027526 0.009521
-0.011107 -0.060748 -0.003801
-0.056353 0.018377 -0.022462
0.066854 0.024830 -0.011491
0.001805 0.042899 -0.016400
0.076192 0.014046 0.072457
0.023446 -0.005416 -0.027957
0.031395 0.016829 0.084446
-0.008615 -0.018170 0.056040
0.011555 0.006050 -0.033785
0.013700 -0.020304 -0.054413
-0.074879 -0.051832 0.002306
0.083461 0.060459 0.044808
0.095401 -0.021463 0.042494
-0.091941 -0.019028 -0.039052
-0.020555 0.028228 0.010620
0.003898 -0.019996 0.073292
-0.032412 0.022876 -0.040110
0.018842 -0.027525 -0.035708
0.050905 0.080637 0.019217
0.008355 -0.004234 -0.088001
-0.014748 0.041212 0.017224
-0.050840 0.022867 -0.041227
-0.001452 0.029948 -0.007043
0.083410 0.063484 0.030762
0.034220 0.082038 0.024704
0.002507 0.010995 -0.037552
-0.009265 -0.071459 -0.061786
-0.087147 -0.028024 -0.008396
-0.034506 -0.000270 0.014289
0.003637 0.035224 0.065753
0.082002 0.050544 0.055910
0.078441 -0.006881 -0.006783
-0.003245 0.043048 -0.011955
-0.032853 0.001111 0.014169
0.054758 0.078193 0.052391
-0.083972 -0.062518 -0.081519
-0.022395 -0.024489 0.025314
-0.016216 0.033010 0.032229
-0.015507 -0.046402 0.023267
0.083814 0.059668 0.021176
0.083627 0.058298 0.018662
0.078516 0.057033 0.007457
-0.012432 0.018661 -0.079394
0.016275 0.033339 -0.012363
-0.029729 0.024426 -0.058849
-0.031277 -0.072714 -0.007863
-0.016628 -0.077005 -0.077967
-0.020902 0.027037 0.022795
0.028446 0.077025 0.055825
-0.015344 0.021135 -0.013158
-0.030344 0.020833 -0.023128
-0.039828 0.026320 -0.068108
0.001306 0.064064 0.015213
0.065480 -0.021446 0.082343
-0.052523 -0.067660 0.002306
0.027599 -0.037973 -0.023520
0.044239 0.082966 0.032242
0.019875 0.057692 -0.006583
-0.000046 0.066083 0.034559
0.076634 0.063522 0.010009
-0.043638 -0.081235 -0.054057
0.005073 -0.045482 -0.026323
0.066528 0.076265 0.044311
0.066420 0.035014 0.076371
0.078576 0.062141 0.054320
0.089317 0.014764 0.011560
-0.053804 0.018194 -0.017711
-0.025797 0.020698 -0.022853
0.016786 0.021273 -0.019192
0.046355 0.067376 0.072085
-0.028723 0.004268 0.014988
0.028319 -0.034261 -0.023721
0.072964 0.072596 0.044691
0.026032 0.078266 0.015152
-0.042788 0.007292 0.008663
-0.015351 0.019510 -0.030568
0.014815 0.029021 -0.013750
0.020963 0.027548 -0.017619
0.006934 0.069265 0.048562
-0.021051 0.037445 0.007278
-0.052406 0.021427 -0.033621
-0.016694 0.020703 -0.020121
0.009016 0.070718 0.015738
-0.078464 -0.013479 0.003991
-0.074750 0.001593 -0.004435
0.044382 0.000107 0.086911
-0.033331 -0.008215 0.017582
-0.093957 -0.037015 -0.056270
0.020148 0.000334 -0.029418
0.033452 -0.013531 -0.022799
-0.020158 0.026479 0.020992
0.025723 -0.027526 -0.022274
-0.017137 0.036355 0.019277
0.090301 0.010708 0.012746
-0.007658 0.039129 -0.008881
0.064820 -0.027526 0.082702
-0.032012 -0.044630 0.018582
-0.063276 -0.010317 0.013240
-0.002992 0.010385 -0.065194
0.001800 -0.062265 -0.088001
-0.014344 -0.002823 0.042487
-0.008750 -0.066157 -0.029851
-0.027562 -0.031489 0.022301
0.037929 0.070825 0.068880
0.028449 0.081386 0.027423
0.011269 0.037571 -0.025327
0.053389 0.057413 -0.010379
-0.039947 0.007262 0.008745
0.019275 0.028270 -0.015119
0.013373 -0.017994 -0.053995
0.086327 0.041432 0.014860
-0.020499 0.023083 0.005128
0.007521 0.027594 -0.015050
0.026087 0.080982 0.036590
-0.009471 -0.059180 -0.003834
-0.043454 -0.019294 0.019630
-0.077136 0.008490 -0.037014
-0.023869 -0.013575 0.022703
-0.071220 -0.074089 -0.084186
0.082421 0.018181 0.065127
-0.017478 -0.033395 0.030466
0.019266 -0.017704 -0.034281
0.002432 0.024701 0.066610
0.090713 0.022234 0.017951
0.062367 0.071238 0.061596
-0.029343 0.018083 -0.005711
0.079926 0.034073 0.001459
-0.011473 -0.042601 0.010320
-0.003415 0.062434 0.026796
0.091921 -0.007200 0.053002
0.066528 0.076265 0.044311
0.083814 0.059668 0.021176
-0.046628 0.010643 0.005104
-0.014186 0.043328 0.036861
-0.074879 -0.051832 0.002306
-0.083599 -0.045030 -0.007276
-0.010725 0.026401 -0.008380
-0.034007 0.026307 -0.077746
-0.010612 0.020803 -0.019876
0.065634 0.054710 -0.009572
-0.036234 0.015978 -0.002208
0.011847 -0.014614 -0.075773
0.085559 0.038109 0.054399
-0.017647 -0.061519 0.002649
0.090637 -0.027526 0.008767
0.009572 -0.027526 -0.031093
-0.059105 0.015658 -0.014280
0.069181 0.074526 0.020000
-0.004967 0.014101 -0.041343
-0.055182 -0.061004 0.008296
0.044641 0.060959 -0.010449
-0.080065 -0.052474 -0.008283
-0.075652 -0.053268 -0.000025
-0.086117 -0.059861 -0.088001
-0.061788 0.011697 -0.004435
0.026914 0.032222 0.081108
0.008574 0.072255 0.043243
-0.055182 -0.061004 0.008296
0.071896 0.035917 0.071980
0.013545 0.042800 -0.023364
0.028702 -0.027526 -0.024591
-0.010797 0.016279 -0.050495
0.085453 0.058537 0.039237
0.035145 0.069838 -0.003606
0.020808 0.069688 0.001837
0.016615 0.005258 -0.030062
-0.003401 0.062178 0.024762
-0.023628 0.042376 0.021974
-0.044740 -0.060656 0.010543
-0.094227 -0.031124 -0.052182
-0.095303 -0.028019 -0.063470
-0.016198 0.023062 -0.004059
0.047179 0.065033 0.078196
0.016014 0.074537 0.015268
0.086828 0.048504 0.020764
-0.058364 0.021763 -0.048249
0.008847 -0.001092 -0.045907
-0.021830 -0.013322 0.024468
0.001869 0.067199 0.039704
0.083524 0.056895 0.049068
0.016496 -0.037123 -0.019082
0.082844 0.062882 0.053950
0.069197 0.057812 0.068146
-0.058305 -0.078072 -0.050301
-0.064475 -0.038494 0.014645
0.069362 0.002032 -0.012936
-0.023496 -0.010444 0.022424
-0.010001 -0.060895 -0.006269
-0.047423 -0.072318 -0.004436
0.087029 -0.001482 0.061863
0.088224 -0.018461 0.004555
-0.012542 0.026939 0.043405
0.048854 -0.010557 -0.021102
0.086183 0.044527 0.057700
0.006175 0.036888 0.072145
0.013557 0.066807 0.003823
0.061773 0.067033 -0.000998
0.034437 0.082587 0.030348
0.003984 0.017526 -0.025833
-0.051102 -0.034027 0.019186
-0.042954 0.026270 -0.067340
0.029933 0.076076 0.058661
0.086701 0.063745 0.041136
0.041255 -0.027526 0.088001
-0.065140 -0.075826 -0.055941
0.008957 0.056979 0.064585
0.012642 0.059714 0.066621
0.000107 0.052804 0.054370
0.083410 0.063484 0.030762
-0.066478 0.016595 -0.037373
0.093657 -0.006771 0.018227
0.070241 0.050035 0.073906
-0.011099 -0.072898 -0.063421
0.060051 0.061819 0.071845
0.023655 0.071834 0.063030
0.091753 0.046484 0.039153
-0.069218 0.003634 0.000681
0.021574 -0.044542 -0.028667
0.086281 0.056893 0.037098
0.064670 0.076437 0.047167
-0.088315 -0.000934 -0.067240
0.052371 0.076744 0.008669
-0.035186 -0.080423 -0.049112
-0.056079 0.024896 -0.084208
0.011805 0.035138 0.073296
0.007179 0.001300 -0.046362
0.007494 0.043342 -0.018739
0.090581 0.011040 0.052470
-0.078696 -0.001492 -0.008380
-0.026511 -0.028809 0.018985
-0.047101 -0.079344 -0.040187
0.081858 0.065767 0.030456
0.011587 -0.041098 -0.069061
0.065442 0.037757 0.075914
-0.010608 0.036902 0.048940
-0.038127 -0.081202 -0.054077
-0.061277 -0.066740 -0.001769
0.012133 -0.003914 -0.041552
-0.012614 -0.069594 -0.032178
0.088637 0.045109 0.039871
-0.004267 0.016396 -0.032888
0.068835 0.035018 0.074902
0.086942 0.037252 0.051668
-0.046453 -0.030682 0.020024
0.028449 0.081386 0.027423
0.004465 -0.024851 -0.088001
-0.004556 0.036061 0.056475
-0.014541 0.022469 -0.007857
-0.013930 0.043370 0.004067
0.026589 0.024841 0.082203
0.012063 0.038013 -0.022400
0.030162 0.032222 0.081959
0.076534 0.063861 0.055740
0.059139 -0.027524 -0.019032
-0.044684 -0.072615 -0.004435
0.068070 -0.003173 -0.014135
0.053832 0.080091 0.019344
0.012485 0.051191 -0.016167
0.013538 -0.040800 -0.017519
-0.065347 -0.072268 -0.031644
-0.093098 -0.046148 -0.082265
-0.078136 -0.002749 -0.004435
-0.023253 0.014061 0.017903
0.055798 -0.010693 -0.019673
0.051751 0.081686 0.025827
-0.064191 -0.071826 -0.026042
-0.056513 0.020208 -0.032947
0.015384 -0.024841 -0.046179
0.046202 0.071924 -0.001337
-0.047417 0.016268 -0.004435
-0.053230 -0.006248 0.014926
-0.020334 0.025867 0.019213
-0.022634 0.007458 0.020662
-0.019748 -0.046274 0.024346
0.053871 -0.022540 0.086519
0.024031 0.077296 0.051973
0.063687 0.050544 0.074011
-0.022540 -0.001214 0.021999
0.023086 -0.010417 -0.028791
-0.020282 0.020382 -0.034183
0.059576 0.028531 -0.014365
-0.014071 0.042746 -0.002484
-0.037315 0.009489 0.007108
-0.079347 -0.046327 0.000645
0.087802 -0.023993 0.003696
-0.086514 -0.031459 -0.006462
-0.076289 -0.045004 0.005213
0.048739 0.068200 0.070963
-0.038046 -0.082485 -0.071487
-0.002135 0.013862 -0.037310
0.047241 0.073382 0.000898
0.038197 0.002655 0.086719
-0.075161 -0.022883 0.009491
-0.015700 -0.066623 -0.010088
0.012847 -0.012414 0.079750
0.075248 0.048829 0.065620
-0.045222 -0.064742 0.007273
-0.072498 -0.070396 -0.048206
-0.066072 0.004862 0.002306
0.077573 -0.014279 -0.008020
-0.065451 0.002169 0.005481
0.003820 0.011442 -0.035349
0.013472 -0.022242 -0.088001
-0.005556 0.034737 0.055232
0.008803 -0.050888 -0.088001
0.013595 0.024978 -0.015904
0.080385 -0.000104 0.070238
-0.094908 -0.037041 -0.069125
-0.021054 -0.040720 0.015380
-0.042954 0.026270 -0.067340
0.051913 0.059967 0.075742
-0.010305 0.021922 -0.013792
-0.015000 0.041616 0.019119
-0.003672 0.036507 0.058995
0.086462 0.055404 0.039385
-0.033147 -0.014978 0.019455
0.042302 0.068168 -0.005714
-0.038479 -0.062791 0.009047
-0.044754 -0.080569 -0.048296
-0.012406 -0.033693 0.012628
0.019926 0.078475 0.024462
0.068106 -0.027526 -0.015018
-0.080356 -0.043932 0.000720
0.058927 0.050582 0.076264
-0.001570 0.018571 0.062810
0.087137 -0.012414 0.062803
0.044131 -0.014457 0.087712
-0.028949 -0.027525 0.021878
0.026032 0.080666 0.039897
0.027013 0.059368 0.078702
0.089916 -0.018090 0.007566
-0.032411 -0.001415 0.015400
-0.045827 -0.005485 0.015740
-0.024456 0.018977 0.003419
-0.034488 -0.034183 0.019617
-0.020529 -0.068840 -0.007817
-0.070293 0.017575 -0.063457
0.061773 0.067033 -0.000998
0.083960 0.049182 0.052730
0.044238 0.081422 0.019470
-0.007736 0.051286 0.013526
0.093499 0.013850 0.025867
0.009617 0.008659 -0.033267
0.010912 -0.003656 -0.044100
-0.084784 -0.009930 -0.014076
0.071927 0.074511 0.036272
0.020520 0.036261 0.080426
0.051333 0.057579 -0.014349
-0.031568 -0.028897 0.019516
0.006695 0.037020 -0.028486
0.007761 0.064351 0.006502
0.068632 -0.010356 0.080276
-0.082003 0.007396 -0.062574
0.045452 0.063918 0.074727
-0.066516 -0.024233 0.014602
0.009943 -0.000778 -0.042750
-0.016426 0.027814 0.004667
0.093031 0.010526 0.021308
0.027758 0.074115 0.061449
-0.026240 -0.080803 -0.079537
0.080122 0.019027 -0.001714
-0.088315 -0.000934 -0.067240
-0.003655 0.012870 -0.043053
0.020324 0.069192 0.064420
0.019869 0.067560 0.065926
0.066259 -0.006824 -0.015370
0.013496 -0.028110 -0.065871
0.037268 0.042216 -0.021791
0.023265 0.008550 -0.025096
-0.073973 0.007327 -0.019177
-0.076243 0.000915 -0.006509
0.019724 0.078848 0.028386
-0.030651 0.013352 0.006154
-0.008473 0.054499 0.021014
0.091909 0.029345 0.031859
-0.066512 -0.027685 0.014728
0.088966 0.047153 0.015691
0.086942 0.037252 0.051668
-0.069171 -0.066388 -0.015527
-0.067355 -0.047741 0.010613
-0.009391 -0.056073 0.000363
0.005994 0.059156 -0.006433
-0.070859 0.017513 -0.067374
-0.040399 -0.073805 -0.007877
0.011544 0.008944 -0.031417
0.018250 -0.008142 -0.033831
-0.017944 -0.075618 -0.051287
0.005404 0.000815 -0.078798
0.019482 -0.010047 -0.032656
0.007508 0.042492 -0.026502
0.080729 0.067307 0.033391
0.004196 0.035892 0.068108
-0.023392 -0.004011 0.021445
-0.074650 0.005814 -0.016049
-0.081262 0.005531 -0.044675
-0.013316 0.042199 0.040261
0.091869 0.036859 0.018621
-0.079851 -0.028806 0.005568
0.055357 0.035507 -0.015919
0.093624 0.013712 0.039263
-0.037254 -0.047804 0.016842
0.047562 0.062044 -0.009571
0.061982 0.059820 0.075954
-0.078132 -0.046390 0.002306
0.025591 0.008062 -0.024296
0.041759 0.054843 0.078784
-0.019900 0.023074 0.003219
0.006326 0.069614 0.018110
-0.031422 -0.004292 0.016767
0.016228 0.037785 -0.018896
0.096024 -0.018270 0.036858
-0.075548 -0.006036 0.002962
-0.010956 0.048859 0.017634
-0.015479 0.041216 0.021513
0.063227 0.030376 0.078470
0.026987 0.070251 -0.004403
-0.035899 -0.082724 -0.083506
0.047418 0.079391 0.052663
-0.026473 0.017021 0.005308
-0.082196 -0.000345 -0.025925
0.032806 0.021457 -0.018935
-0.012057 0.047973 0.019828
-0.006233 -0.064313 -0.031879
-0.054870 -0.081237 -0.082085
-0.020465 -0.005764 0.025469
0.095110 -0.006880 0.024940
0.077959 0.063712 0.053555
-0.048581 -0.066448 0.005003
0.013281 -0.029840 -0.071520
0.057876 -0.006776 -0.018847
0.011823 0.022693 -0.017627
0.005106 0.056326 0.002377
0.022274 0.045112 -0.011134
-0.025494 0.017224 0.008274
-0.017446 0.020778 -0.018983
0.088018 0.045465 0.042920
0.082021 0.065649 0.032876
0.051811 -0.014135 0.086756
-0.012542 0.026939 0.043405
0.055201 0.072520 0.063891
0.066259 -0.006824 -0.015370
-0.038645 -0.060811 0.010505
0.064446 0.054697 0.072527
-0.019508 -0.048055 0.012533
-0.029729 0.024426 -0.058849
-0.063867 -0.069235 -0.013414
-0.059303 0.012887 -0.004435
0.027304 0.070360 0.066772
0.077173 -0.027526 -0.008662
0.009459 0.044264 -0.018447
-0.060526 -0.079458 -0.082084
-0.032232 -0.043740 0.018859
-0.000971 -0.048607 -0.005885
0.026760 -0.032055 -0.026332
0.035254 0.061359 -0.009960
0.022831 0.077518 0.015864
0.070499 0.074542 0.023411
0.080366 0.066601 0.024381
-0.057134 0.000675 0.010554
-0.054870 -0.081237 -0.082085
-0.026543 0.022564 -0.048491
-0.046120 0.021173 -0.025997
0.010591 -0.046408 -0.055423
-0.089450 -0.022674 -0.020837
0.047612 0.030304 0.083109
0.012916 0.002340 -0.035240
-0.009372 -0.069929 -0.048186
0.064252 0.064298 0.067788
-0.003064 0.010990 -0.050945
-0.065284 -0.056382 0.007053
0.010284 0.029023 -0.012474
0.010057 0.026996 -0.013713
0.081047 0.048592 0.058315
-0.084350 -0.030014 -0.000930
-0.016138 -0.027527 0.030172
-0.038640 0.024536 -0.048022
-0.019748 -0.046274 0.024346
-0.089174 -0.050913 -0.052545
-0.032146 0.005578 0.012175
-0.020293 -0.001305 0.025540
-0.024485 -0.010870 0.021738
0.042343 0.048795 0.080106
-0.011074 -0.044562 0.009412
0.021195 -0.027526 -0.020807
0.029935 0.078404 0.053154
0.007138 -0.019804 0.076052
0.016706 -0.025325 -0.041153
0.082844 0.062882 0.053950
0.027407 0.045116 0.082243
-0.034811 -0.022149 0.020393
0.056265 0.061007 0.073899
0.017276 -0.019434 -0.038586
0.020897 0.006345 -0.026933
-0.088268 -0.004810 -0.046479
-0.090354 -0.007946 -0.051962
0.079725 0.039601 0.063231
0.087176 0.034177 0.013518
-0.021010 0.020368 -0.006201
0.043504 0.080782 0.049133
-0.038164 0.009063 0.007356
-0.030334 -0.081953 -0.088001
-0.086689 -0.011927 -0.019348
0.009326 -0.046057 -0.056507
-0.086510 -0.022371 -0.007172
0.080464 0.047991 0.064914
0.006238 0.035081 0.068908
0.059501 0.059924 0.073098
-0.010011 -0.072770 -0.071704
0.036748 0.072168 -0.001076
0.027311 -0.039126 -0.024724
-0.048581 -0.066448 0.005003
0.001241 -0.027526 0.070743
0.088637 0.045109 0.039871
0.000255 -0.046941 -0.007175
-0.060746 -0.079129 -0.074784
-0.055498 -0.076944 -0.035308
0.074048 0.072915 0.049397
-0.017944 -0.075618 -0.051287
-0.086794 -0.033238 -0.008148
-0.008913 0.015088 -0.052103
-0.025655 0.000119 0.018614
-0.012602 -0.031765 0.013134
0.024546 -0.018701 -0.027779
0.063793 0.050573 -0.007945
-0.036829 0.026362 -0.071825
-0.045909 -0.038122 0.019276
0.059860 0.066955 0.068156
0.078051 0.069774 0.038295
0.059481 0.066440 -0.002802
0.025661 0.021571 -0.018940
-0.079347 -0.046327 0.000645
0.018850 0.070271 -0.000452
0.012927 0.032372 -0.011670
-0.011603 0.035840 0.002929
0.002099 -0.051951 -0.026387
0.015141 0.007293 -0.029980
-0.008975 -0.053577 0.002370
0.026012 0.019062 -0.020230
0.043497 0.082559 0.025798
0.013923 0.063572 0.065096
0.013968 -0.018535 -0.050452
0.024979 0.074705 0.007175
0.051751 0.081686 0.025827
-0.060734 0.008282 0.002306
-0.003351 0.057328 0.013092
-0.005610 -0.069937 -0.088000
-0.008825 0.038885 -0.007524
0.095294 -0.003636 0.037877
0.028447 0.075798 0.007463
-0.015565 0.042450 -0.007994
0.009746 0.036998 -0.029757
-0.085821 -0.005188 -0.029762
0.050278 0.063944 -0.007948
0.020285 -0.018666 -0.032732
0.015892 -0.027526 -0.018520
0.024566 0.066254 -0.008421
-0.003078 0.015587 0.061293
-0.052406 0.021427 -0.033621
-0.005601 0.039483 0.051017
-0.013181 0.042788 -0.001439
-0.058007 -0.077532 -0.044976
0.035377 0.043215 -0.021729
-0.034334 0.016034 -0.001776
-0.011762 0.020481 -0.021458
-0.017850 0.042645 0.004336
-0.026246 -0.080060 -0.064829
-0.076243 0.000915 -0.006509
0.005764 0.025178 -0.014095
0.068119 0.068897 0.006028
-0.020292 0.025465 0.008398
-0.015344 0.021135 -0.013158
-0.013930 0.043370 0.004067
-0.018295 0.029791 0.031706
0.013846 -0.041475 -0.047295
0.088041 0.020219 0.010391
-0.017442 0.019870 -0.056320
0.079681 -0.012411 -0.005947
-0.046449 -0.050598 0.015659
-0.070044 -0.054471 0.005021
-0.092782 -0.032673 -0.040927
-0.088012 0.000600 -0.078559
0.005066 0.019152 -0.022757
-0.044679 0.016564 -0.004436
0.056427 0.063282 0.072525
-0.009472 0.036753 0.045700
0.012212 0.017870 -0.023016
0.073476 0.035223 -0.005039
0.088019 0.056083 0.046890
-0.009297 0.019408 0.050951
-0.000630 0.052251 0.005050
-0.013139 0.022653 0.043311
-0.004254 0.030952 -0.007134
0.064252 0.064298 0.067788
-0.012173 -0.027526 0.013317
0.062720 0.061901 0.070379
-0.032944 0.014974 0.001269
-0.029714 -0.033621 0.018923
-0.034488 -0.044731 0.017548
-0.029548 -0.068150 0.001425
0.012700 -0.017716 -0.061426
0.026463 -0.029422 -0.026448
0.020382 0.035717 -0.014639
-0.088171 -0.020060 -0.016291
-0.066518 -0.064920 -0.004435
-0.027822 -0.042093 0.017070
0.066476 0.057930 -0.004097
-0.015438 -0.034417 0.023092
-0.034609 0.018202 -0.009014
0.006195 0.032178 -0.009230
0.016982 0.002522 0.081023
-0.084233 0.002394 -0.048371
-0.083022 -0.058599 -0.041102
0.079934 0.026756 -0.000324
0.054559 0.064302 -0.006520
-0.042830 0.026642 -0.074593
0.032153 0.064833 0.073320
0.022640 0.071076 0.002505
0.090132 0.034989 0.021951
0.000788 0.057622 0.007594
0.070033 0.069856 0.009581
0.012379 -0.017188 -0.069201
0.027038 -0.027525 -0.025872
-0.036196 0.026762 -0.088001
0.008721 0.070582 0.009690
0.078978 0.003764 0.071233
0.053106 0.075149 0.060291
0.085721 0.028528 0.008469
0.052467 0.054873 -0.011387
-0.075756 -0.057537 -0.006463
0.003291 -0.044635 -0.015941
-0.018652 0.027429 0.008861
0.010307 0.072334 0.018131
0.046493 0.057295 0.081184
-0.028266 0.024625 -0.065797
-0.060669 -0.069571 -0.008176
0.083953 0.064169 0.050090
0.032840 0.059258 -0.010538
-0.033330 -0.003181 0.015820
-0.012671 -0.046270 0.013212
0.096244 -0.027526 0.031569
0.028306 -0.027526 -0.025084
0.030922 0.004246 -0.022766
0.040490 0.082227 0.042778
-0.021127 -0.042961 0.024385
-0.022263 -0.045001 0.022699
0.011205 -0.044089 -0.079205
0.027423 0.069835 -0.001433
0.080624 0.037006 0.067936
0.074150 0.072583 0.025199
0.008081 -0.052223 -0.082701
-0.011203 -0.049299 0.007396
0.035786 0.060747 0.080020
0.089551 -0.024039 0.006698
-0.089258 -0.016148 -0.026127
-0.032333 0.024019 -0.049550
0.005939 0.059720 0.059501
0.029016 0.055781 0.076864
0.023414 0.012988 -0.023420
0.042299 0.071217 0.068546
0.027758 0.074115 0.061449
-0.036359 -0.072730 -0.005089
0.068346 0.017301 0.077759
-0.013923 -0.013233 0.042374
0.017276 -0.019434 -0.038586
0.006317 -0.001406 -0.066379
-0.029488 0.000242 0.016028
0.026032 0.078266 0.015152
0.030163 0.036570 -0.019595
0.047411 0.082385 0.039420
-0.034506 -0.000270 0.014289
-0.061347 -0.062836 0.003684
-0.058217 -0.073124 -0.019208
0.000607 0.058559 0.051566
0.030974 0.045287 -0.013717
0.037250 -0.020800 -0.022193
0.005830 -0.027526 -0.011568
-0.023496 -0.010444 0.022424
-0.007818 0.031010 0.050365
0.006281 0.050438 -0.013109
0.060146 0.036739 0.082006
-0.027253 0.006371 0.015368
0.021739 0.024830 0.080479
-0.040665 -0.071028 -0.000648
0.011387 0.037407 -0.030250
-0.035272 -0.028962 0.020005
-0.020994 0.024482 0.012180
0.084689 0.060992 0.036327
0.012283 0.072799 0.015874
0.029042 0.080972 0.023256
-0.011945 0.012110 0.047539
0.078175 -0.003096 0.072716
0.029702 0.043373 -0.022651
0.021501 0.000724 -0.028313
0.015571 -0.038425 -0.043544
0.067646 0.056892 0.069709
-0.045759 -0.081613 -0.059775
0.060112 0.073196 0.006008
-0.024856 0.015884 0.012977
-0.075504 -0.009797 0.005357
-0.037736 0.014049 0.001216
0.084452 0.060807 0.039320
0.043501 0.078851 0.011099
0.074815 0.072769 0.032807
-0.004220 0.033761 -0.002572
-0.004465 0.031155 -0.004296
-0.074452 -0.015738 0.008614
0.052409 0.072900 0.068000
-0.075045 -0.056093 -0.002534
-0.007854 0.020488 -0.021069
-0.076723 -0.053909 -0.002494
0.006559 0.036138 0.070917
-0.002076 0.010616 -0.088001
-0.001723 -0.028376 -0.004324
