0.013767 -0.035495 0.039813
0.100939 0.070884 -0.030974
0.082408 0.075401 0.031846
0.051859 0.060639 -0.020919
0.122223 -0.033993 0.021527
0.041171 0.033700 0.039178
-0.014268 0.029205 0.046720
0.041772 -0.026826 -0.017021
0.031656 0.051010 -0.014217
0.113671 0.071446 0.000203
0.105686 0.069718 -0.028463
0.063721 0.080518 0.015886
0.079658 0.075041 0.032917
0.010033 0.050331 -0.011554
0.103788 0.074485 0.003050
-0.025524 0.022489 0.044493
0.087221 0.077244 0.026609
0.057261 0.073763 0.025227
0.058595 0.022515 0.044270
0.071828 0.080362 -0.010331
0.089440 0.076319 -0.028249
0.111851 0.058760 -0.030295
-0.041827 -0.020958 0.028946
0.121432 0.064308 -0.001537
0.051619 -0.001233 0.050087
0.000508 0.050160 -0.006174
0.088296 0.073333 -0.033876
0.114044 0.066913 -0.000000
0.114036 -0.027801 -0.030357
0.064352 -0.010808 0.040951
0.060720 0.025526 0.040085
0.066692 -0.018920 -0.035112
0.045028 -0.040876 0.018234
0.040610 0.061993 -0.014481
-0.007906 -0.043802 0.032779
-0.014060 0.039721 0.032136
0.082483 0.036926 0.041764
0.123606 -0.049370 -0.025816
0.045742 0.014895 0.054631
0.098710 -0.016597 0.040293
0.066457 0.076148 0.029058
0.123830 -0.008063 -0.025353
0.086026 -0.050600 -0.041126
0.071043 0.079003 -0.022719
0.131613 -0.048519 0.005217
0.017989 -0.044064 0.017897
0.053576 -0.040193 0.028760
0.055812 -0.050600 -0.000000
0.065654 -0.013385 0.039661
-0.009580 0.047076 0.014513
0.006185 0.049556 -0.011810
0.081022 -0.018939 -0.040471
0.005163 -0.046006 0.025862
0.087505 0.005533 -0.043911
0.077630 -0.005139 0.042931
0.104497 0.074698 -0.012176
0.114317 0.046820 0.031540
0.077526 0.076924 0.028648
-0.012645 -0.045881 0.017943
0.063737 0.078166 0.023611
0.041858 -0.038551 0.020593
0.033233 0.063003 -0.008647
0.130660 -0.010585 -0.008482
0.013368 -0.029905 0.050129
0.075083 0.075915 -0.031429
0.122061 0.062064 0.011645
0.130992 -0.044694 0.004865
0.064364 0.071637 0.031793
0.005883 0.007793 0.053348
0.070335 0.080483 -0.008204
0.054022 -0.036513 0.032007
0.128006 -0.051200 0.009711
0.125430 0.059349 -0.000600
0.098517 0.075814 -0.000862
0.016679 0.052520 0.023426
0.046954 -0.034055 0.038987
0.093355 0.060655 -0.038283
0.104865 0.074233 0.010219
0.080395 0.078932 0.009022
0.035634 0.033668 -0.000000
0.061158 -0.010627 0.044473
0.050308 -0.023093 -0.015631
0.062546 -0.007474 0.041989
0.013302 0.047540 -0.013510
0.044804 -0.044357 -0.010786
-0.003996 -0.027539 0.048345
0.050176 -0.044940 0.022758
-0.034683 -0.026590 0.029785
0.109449 0.064473 0.029925
0.124259 0.061252 0.002261
0.059768 0.028108 0.038947
0.128582 -0.037399 0.006476
0.046699 -0.044414 -0.016588
0.131030 -0.049344 -0.009083
-0.047400 0.006903 -0.005300
0.105681 0.068076 -0.030855
0.128714 -0.035922 0.002362
0.051600 -0.039222 0.028327
0.072818 0.065303 0.036765
0.082284 0.078288 0.015106
0.108791 0.069341 -0.026019
0.086641 0.070666 0.036660
0.037626 -0.019463 0.055557
0.117186 0.067366 -0.014271
-0.025524 0.022489 0.044493
0.085038 0.077339 -0.002474
0.048356 -0.015072 -0.018653
0.006280 0.042346 0.035506
0.056043 -0.034436 0.034066
0.102314 -0.027824 -0.037346
0.042071 -0.041673 0.005177
0.076421 0.079305 -0.011019
0.131952 -0.005874 -0.002129
0.070878 -0.004109 0.041410
0.012429 0.049605 0.026344
0.105772 0.074482 -0.007298
-0.040007 -0.024152 0.029088
0.037471 0.067098 0.006661
0.079247 -0.051200 -0.043146
0.075286 -0.033380 -0.038304
0.095571 0.076417 0.016885
0.045801 -0.041833 -0.017796
0.116053 -0.022603 -0.029044
0.017518 0.045779 -0.013509
-0.003206 -0.028093 0.051147
0.111503 0.071141 0.017394
0.112548 -0.006130 0.036514
0.086249 -0.021982 -0.040424
0.050942 -0.004832 -0.021067
0.120659 0.065836 -0.004199
0.122927 -0.042957 0.024701
0.070476 0.080362 0.008474
-0.031788 -0.034709 0.024404
0.064355 0.010294 0.041014
0.038502 0.033205 -0.015071
0.073102 -0.017820 -0.038569
0.130988 0.019040 0.000000
0.077023 0.079850 -0.010066
0.046325 0.008409 0.053161
0.001257 0.049199 -0.007736
0.091651 0.076174 -0.001334
0.090392 0.077602 0.014611
0.007815 0.042893 0.034549
0.077393 0.079620 0.014838
0.061200 0.025023 0.039864
0.085200 -0.034499 0.040373
0.058645 0.078088 -0.018413
0.053591 0.078980 -0.000000
0.096841 0.075688 -0.012973
0.048057 -0.009645 -0.019175
0.001070 0.046270 0.027851
0.060443 0.078680 -0.019835
-0.016707 0.015004 0.050963
0.088189 0.024699 -0.043036
0.102382 0.069627 -0.000000
0.081159 0.078366 0.014495
0.086509 0.029792 0.042628
0.038125 0.037864 -0.015240
-0.024655 0.016736 0.047620
0.086077 0.065006 -0.038041
0.104757 0.070213 0.028877
0.052548 -0.005158 -0.022827
0.061526 -0.051200 0.035142
0.069146 -0.048778 0.039211
0.064717 -0.008854 0.040613
-0.019898 0.016925 0.048391
0.049447 -0.005109 -0.017541
0.076699 0.079677 -0.016343
0.125003 -0.042793 -0.021369
0.053462 0.001938 0.051111
0.051047 0.000950 -0.014800
0.126789 -0.037597 -0.013722
0.087340 0.077325 0.008854
0.113232 0.069382 0.017849
0.112543 0.068159 -0.023232
-0.015215 -0.018113 0.050580
0.085195 0.073975 -0.033762
0.074817 0.068946 0.036482
0.102077 -0.012647 0.040593
-0.045144 -0.010355 0.029778
-0.033581 0.010694 0.042664
-0.041120 0.023279 0.024299
0.113333 0.069566 -0.018149
0.045215 -0.039706 -0.014808
0.050489 0.026610 0.045945
-0.009865 -0.013009 0.051644
0.130140 -0.010665 -0.010689
0.055237 -0.030206 0.039992
0.097277 -0.016299 -0.040722
0.088969 0.077814 -0.012075
0.058732 0.080308 -0.007869
0.111273 -0.022785 -0.032970
-0.000388 0.049013 0.003800
0.040534 0.043977 0.034351
0.093465 0.074021 -0.030033
0.034865 0.057727 0.024532
-0.014060 0.039721 0.032136
0.049822 0.055237 -0.020402
-0.047563 -0.001956 0.018300
0.022856 -0.040371 0.034317
0.126911 0.050116 0.009969
0.055884 0.015055 0.046055
0.109313 0.051336 0.034097
-0.047763 -0.002699 0.003800
-0.035688 0.029686 0.029631
0.099891 0.070021 -0.000000
0.048356 -0.015072 -0.018653
0.076344 0.078258 0.027055
0.063710 0.065906 -0.030449
0.044956 -0.043612 -0.012633
-0.047056 -0.000478 0.028368
0.057306 -0.051200 0.027425
0.041135 -0.040988 -0.002949
0.104183 0.054906 -0.036077
0.094439 -0.031892 -0.039669
0.065225 0.017589 0.039741
0.126731 -0.037844 0.014069
0.119043 0.051089 0.025802
-0.028328 0.023686 0.038557
0.075009 0.039516 0.040480
-0.028222 0.007252 0.047347
0.049536 -0.033057 0.039305
0.104995 -0.027439 -0.036227
0.033706 0.036267 -0.014745
0.065246 0.000656 0.040561
0.063508 0.018652 0.040214
0.055912 -0.050500 -0.000000
-0.006753 0.023304 0.051116
0.079333 0.079205 -0.017121
0.108099 0.073883 -0.013665
0.074920 0.077510 -0.027758
0.063577 0.016742 0.040869
-0.038627 0.028222 0.003800
0.101262 0.063224 -0.035434
0.129645 -0.049370 -0.014141
0.114147 0.063240 0.025893
0.062345 -0.007147 0.042336
0.115994 0.068073 -0.015416
0.005108 0.049050 -0.011288
0.063053 -0.019241 0.040896
-0.037644 0.026210 0.030153
0.053947 0.040508 -0.025328
0.091900 -0.039531 -0.041488
0.075077 0.079552 0.017478
0.013214 0.045746 0.030388
0.052353 -0.045421 0.025476
0.057824 0.029279 0.038941
0.060948 0.019882 0.041309
0.064834 0.008698 0.040433
0.062888 -0.046278 0.034822
0.051301 -0.005756 -0.024538
0.021544 -0.042464 0.016802
0.105981 0.054579 0.035276
-0.011058 -0.040295 0.036747
-0.047899 0.001000 -0.009800
0.059217 0.080884 0.006776
0.086985 0.077810 0.019348
0.120028 -0.033106 -0.024488
0.066161 0.073749 -0.029834
-0.039785 0.008589 0.033672
0.116369 0.067847 0.015017
0.086505 0.069778 0.036973
0.029405 0.022607 0.051961
0.077563 -0.007167 -0.042682
0.062038 0.080539 0.014043
0.120795 -0.046041 -0.028682
0.093957 0.076231 -0.015108
0.089275 -0.051200 -0.040980
0.111064 -0.039874 0.034820
-0.035761 -0.028525 0.030756
0.097274 0.076148 0.000556
0.098123 0.073110 -0.028654
0.075321 0.079808 0.018138
0.123465 -0.033992 0.019411
0.045658 -0.011014 0.053262
0.003021 0.043616 0.033925
0.031212 0.058455 -0.011918
-0.016291 0.044508 0.020594
0.078018 -0.034859 -0.039320
0.037952 -0.024411 0.047996
0.050886 -0.000624 0.050201
0.040071 -0.039055 -0.017279
0.038488 -0.030715 -0.017154
-0.004626 0.024020 0.054395
-0.022534 0.032706 0.035386
0.108870 0.068601 -0.027329
0.075160 0.077467 0.027867
0.030094 -0.038588 0.037139
0.051075 -0.033368 -0.019712
0.099407 0.009748 0.042302
0.015531 0.040790 0.036518
0.091083 0.076716 0.008961
-0.033887 0.020353 0.035376
0.057524 -0.046203 0.030667
0.095593 0.071583 0.033592
0.085228 0.077367 -0.004096
0.089078 -0.037594 -0.041136
0.073239 -0.020455 -0.037968
-0.009779 -0.002010 0.051655
0.069914 -0.012370 0.040180
0.131886 0.003669 -0.002813
0.090137 0.077624 0.020146
0.070398 -0.046211 -0.039893
0.088043 0.076720 0.000525
0.074187 0.078582 -0.026105
0.092488 0.076924 -0.018805
0.087038 0.012920 -0.043671
0.088390 0.073312 0.033878
0.103568 -0.046802 0.040849
0.100376 0.000119 -0.042219
0.094351 -0.051200 0.040505
0.127946 0.050392 0.004754
0.095171 0.023110 -0.042554
0.055814 0.021090 0.044421
0.054024 -0.044513 0.027399
0.075948 0.077996 0.027330
0.109794 0.069173 -0.025113
0.026850 0.039644 0.035665
0.015875 0.051056 -0.011754
0.129729 0.035774 -0.006983
0.055998 -0.028884 0.040117
-0.000993 0.041207 0.037496
0.053810 0.028942 0.039868
0.065648 -0.007328 0.040293
0.069863 -0.031898 -0.035854
0.063215 0.075263 0.028417
-0.030437 -0.002388 0.043870
0.100530 -0.049394 0.042151
0.065404 0.076759 -0.026434
0.000644 0.049625 -0.006948
0.076482 0.080054 0.008570
0.053427 0.079388 0.005510
0.124864 -0.034880 -0.016946
0.087440 0.078019 0.012085
0.049764 0.000569 -0.018420
0.084411 0.075733 -0.030366
0.042835 -0.040068 -0.017062
0.123285 0.062202 0.004385
0.076170 -0.008463 -0.042183
0.063614 -0.050600 -0.033175
0.059526 0.074827 -0.023663
0.112510 0.022237 0.035826
-0.036138 0.030986 0.017996
0.058909 0.078115 -0.019909
0.123823 -0.045383 -0.024572
0.065586 0.002986 0.040353
0.119835 -0.036537 -0.025679
-0.020713 -0.042393 0.022508
0.023235 0.022867 0.056237
0.068789 -0.027681 -0.035081
0.102401 -0.034300 -0.037838
0.044167 -0.042055 -0.013526
0.121137 0.064455 0.004782
-0.010191 -0.046499 0.017757
0.129491 0.014826 0.013242
0.064435 -0.008835 0.041059
0.058230 0.080436 -0.005911
0.066671 0.010741 0.040141
0.067373 -0.042972 0.036813
-0.044701 -0.014887 0.027403
0.128148 -0.037837 0.009272
-0.013967 -0.032635 0.043899
0.107573 -0.051200 -0.036026
0.060422 0.062648 -0.028530
0.127313 -0.044595 0.018022
-0.026885 0.039297 0.017237
-0.004905 0.044319 0.031283
0.080292 -0.021619 0.039908
0.075824 -0.035441 -0.038815
0.074741 0.080017 0.007273
0.054947 0.030688 0.039171
0.051055 0.000940 -0.019550
0.004314 0.015777 0.053223
0.048227 -0.009050 -0.019579
0.043988 0.017529 0.051865
0.063104 0.073621 -0.027633
-0.017831 0.043265 0.024706
0.116648 0.068574 0.013350
0.114307 0.067885 0.020574
0.126567 -0.049359 0.021134
0.103471 0.074880 -0.000047
-0.042885 0.017139 0.029979
0.076482 0.080054 0.008570
0.058546 0.079108 -0.016702
0.049916 0.030618 0.040193
0.094760 -0.016107 -0.041273
0.030094 -0.038588 0.037139
0.062815 0.079410 0.018601
0.031726 -0.039190 0.003800
0.047759 0.015400 0.050993
0.063031 -0.010242 -0.035641
0.003682 -0.047448 0.017941
0.065071 0.077568 0.025281
0.119802 -0.008880 0.030103
0.013029 0.047287 -0.013121
0.119321 0.065841 -0.011897
0.080371 -0.049332 -0.043307
0.059716 -0.022758 0.040542
0.029771 0.036638 0.037732
0.120019 0.023309 -0.029562
0.056118 -0.029813 0.039393
0.048385 -0.012277 -0.015313
0.119509 0.052849 -0.024538
0.084332 0.060327 -0.038817
0.071425 0.080221 -0.011466
0.078028 0.079459 -0.017147
0.005369 0.049516 -0.011500
0.064724 0.078617 -0.022612
0.040638 -0.028340 -0.017114
0.119794 -0.026687 -0.024308
-0.035232 -0.030223 0.029664
0.051057 0.012375 -0.023164
0.058547 -0.026669 -0.023458
-0.041951 -0.020827 0.028894
0.077600 -0.008871 0.042513
0.120755 0.065530 0.004840
-0.006969 0.014765 0.052531
0.077563 -0.007167 -0.042682
0.114290 0.069977 -0.015850
0.077807 0.079517 0.016358
-0.024481 0.040752 0.019207
0.061036 0.024648 0.040679
0.073511 0.078077 -0.026303
0.047505 -0.004112 -0.014800
0.043962 -0.039681 0.002678
0.111335 0.008211 0.037204
-0.026096 0.007096 0.046739
-0.035614 0.028697 0.030384
0.091017 -0.024598 0.040040
0.064369 -0.014175 0.040178
-0.039982 0.004674 0.034190
0.114030 0.068807 0.018928
0.091402 0.076549 -0.015758
-0.023875 -0.040819 0.021891
0.115422 0.063460 0.024139
0.046071 -0.031309 0.038986
0.127181 0.039346 0.014329
0.081530 0.025268 -0.042527
0.130164 -0.013350 -0.000600
0.087064 0.077902 -0.018273
0.106396 0.044344 -0.036900
0.086187 0.059958 -0.038939
0.111376 0.070865 0.018176
0.102103 0.074670 -0.018688
0.048250 -0.032029 -0.014812
0.123070 0.059803 0.013520
0.055743 -0.030167 -0.024410
-0.043678 0.018869 0.019317
0.073102 -0.017820 -0.038569
0.056852 0.029225 0.040064
0.035611 -0.020050 0.055719
0.088701 0.061749 0.038586
0.064575 0.008081 0.041006
0.104395 0.074672 -0.011321
-0.042446 0.019770 0.028873
0.078823 -0.028269 0.039025
0.086588 0.074607 0.032260
-0.047018 0.009218 0.003700
0.040422 -0.038390 0.019801
0.047539 -0.023618 0.046068
0.000541 0.050291 -0.005826
0.010142 -0.046111 0.021680
0.118263 -0.018756 0.027820
-0.035490 -0.031686 0.018731
0.053162 0.079481 -0.002073
0.114742 -0.051200 0.034957
0.076552 -0.050500 0.039549
0.049793 -0.046199 -0.016317
0.048590 -0.045691 -0.019863
0.113081 0.071805 -0.000754
-0.018542 0.041258 0.031603
0.070532 0.080909 -0.012484
0.066650 -0.051200 -0.035002
0.007559 0.048512 -0.012041
-0.007368 -0.004632 0.052015
0.083652 -0.017306 0.041276
0.126022 -0.037241 0.015479
0.055910 0.080315 0.001207
0.111263 -0.018726 0.033911
0.062456 -0.033599 0.035552
0.046460 -0.021123 -0.016859
0.111193 0.072875 -0.002204
0.032588 0.047303 0.032058
0.104132 0.056281 0.035806
0.067968 0.080436 -0.014790
0.116639 0.065819 -0.000000
0.091191 0.065649 0.037625
0.044035 -0.051200 -0.002043
0.059439 0.077759 -0.021053
0.016534 0.030138 0.046615
0.122544 -0.012727 -0.025474
0.087942 0.077299 0.015682
0.016323 -0.001254 0.053915
0.059527 -0.047757 0.032648
0.045731 0.032426 0.041493
0.091711 -0.000031 -0.043840
0.057223 0.079363 -0.014080
0.025411 -0.039893 0.032457
0.076482 0.080054 0.008570
0.087932 0.077743 0.019273
0.119830 -0.006826 -0.030360
0.128670 -0.050600 -0.006350
0.015724 -0.026260 0.050083
0.058956 0.023995 0.041303
0.125003 -0.042793 -0.021369
-0.038598 -0.002144 0.036033
0.026827 0.046888 -0.014002
0.066797 0.079676 -0.019152
-0.040377 -0.009698 0.036509
0.122524 0.061399 0.013097
0.005679 0.050964 -0.009076
-0.012724 -0.020909 0.053122
0.076542 0.079165 0.011043
0.127355 -0.006100 -0.019694
0.063253 -0.042804 -0.034828
0.115701 0.063605 -0.023673
0.051075 0.000879 0.050440
0.017518 0.045779 -0.013509
0.131145 0.025691 -0.002505
0.039455 -0.037345 0.027671
-0.009614 -0.005069 0.051979
0.060959 0.018588 0.043437
0.054691 -0.048179 -0.028584
0.077747 0.079259 -0.003413
-0.000510 0.050080 -0.002604
0.098193 0.075793 0.011767
0.015117 0.006254 0.054370
0.047843 -0.012274 -0.014978
-0.041289 0.021896 0.029017
-0.027901 -0.022482 0.039723
-0.042354 -0.012792 0.028912
-0.039328 0.023774 0.030406
0.095150 -0.051200 -0.043440
0.051268 -0.029434 0.039578
0.048884 0.074299 -0.006696
0.022733 0.058294 -0.006901
0.043190 -0.031437 -0.017036
0.107334 0.068630 -0.027927
-0.007816 0.041047 0.032847
0.033632 -0.039195 0.016700
0.120064 -0.042964 0.028322
0.121782 0.059443 -0.016969
0.000496 0.047760 0.024964
0.054376 0.079946 0.003023
0.045914 -0.039888 -0.014952
0.099415 0.072762 -0.028032
0.108870 0.068601 -0.027329
0.105872 0.074372 -0.007265
0.130382 -0.008445 0.011228
0.078617 -0.046928 -0.042723
0.059248 0.078968 0.017922
0.095444 0.074760 0.028464
0.045492 0.067473 0.019335
0.062336 0.011369 0.040839
0.104063 0.072138 0.025543
0.048993 0.000833 -0.015955
0.064510 0.008876 0.041003
0.045201 0.018966 -0.016791
0.078486 0.079242 -0.016755
0.081188 0.077291 0.028862
0.076697 -0.037882 0.039450
0.080918 0.074437 -0.033964
0.078972 -0.018649 0.040368
0.076402 0.079648 0.000995
0.086802 0.077487 -0.016168
0.088475 0.027499 0.042830
0.119641 0.047247 0.026249
0.108962 0.066390 0.029274
0.098355 0.075908 -0.011480
0.064295 -0.051200 0.033651
-0.018856 0.041212 0.031515
0.072200 0.080036 -0.000684
0.096286 0.063298 0.037121
0.121540 0.064344 0.001895
0.069671 0.076312 -0.029959
0.121049 0.045682 -0.024788
-0.008361 -0.036017 0.042494
0.043036 -0.043372 0.000988
-0.026392 0.036578 0.031817
0.025725 0.061215 -0.000600
0.111370 0.065210 0.027707
0.092562 -0.029537 -0.039774
0.061666 -0.022649 -0.027184
0.103866 -0.024598 0.036886
0.126405 -0.051200 -0.014355
-0.015673 -0.004595 0.051173
0.126198 0.056050 -0.000600
0.068861 -0.046115 -0.039160
-0.034164 0.000663 0.040667
0.020879 0.044485 -0.014023
-0.044012 -0.014258 0.028722
0.128034 -0.029844 0.000000
-0.038633 0.011902 0.034064
0.093034 0.076991 0.019495
0.040483 -0.038961 -0.017370
0.059718 -0.028707 -0.028316
0.026904 0.058746 0.017763
0.001536 -0.022097 0.053476
0.095886 0.073515 0.029360
0.087788 0.075111 0.030599
0.054456 0.079693 -0.005347
0.008000 0.022045 0.053999
0.106870 0.021750 -0.039008
0.093464 0.015672 -0.043236
0.060114 -0.015309 -0.027934
0.098811 0.003099 0.042625
0.020156 0.055316 0.019846
0.047085 0.070591 -0.012179
0.101107 0.074263 -0.024610
0.014043 0.052260 0.022414
0.070506 0.069561 -0.033594
0.047505 -0.004112 -0.014800
0.122279 -0.037588 -0.022752
0.118738 0.038444 -0.029161
0.062148 0.076367 0.026330
0.066265 -0.006974 0.040238
0.056586 -0.023237 -0.022009
0.057252 -0.025822 0.040263
0.130516 0.033225 -0.003129
-0.008063 0.046056 0.024033
0.063788 -0.016150 0.040493
0.125071 0.022801 -0.022588
0.110577 0.071197 0.018856
0.094756 0.076875 -0.019297
0.105715 0.074432 0.012762
0.063999 -0.012881 0.041017
-0.007163 0.040962 0.037017
0.077888 -0.044184 0.041521
0.022061 0.044312 -0.014327
0.055735 -0.036447 0.032538
0.082174 -0.035049 0.040089
0.049656 0.031005 0.039394
0.039468 0.036880 0.036846
0.051221 0.049191 -0.021964
0.040665 0.069596 0.000000
0.096481 0.076305 -0.018189
0.100036 0.075491 0.000981
0.071227 0.078301 -0.025007
0.047328 0.063414 0.025304
0.040688 -0.038381 0.013330
0.001993 0.005810 0.053316
0.115078 -0.006212 0.034685
-0.032410 0.032903 0.030024
-0.016029 -0.002954 0.050601
0.047759 0.015400 0.050993
0.055400 0.052638 -0.025288
-0.010591 -0.022800 0.050166
-0.024074 -0.016305 0.045865
0.004457 0.049387 -0.011042
0.070549 0.081068 0.011888
0.078983 0.076690 0.029167
0.014860 -0.040937 0.036412
0.074741 0.080362 0.005319
0.099392 0.076126 -0.017812
0.017626 0.023753 0.056204
0.072366 0.077857 -0.026162
0.113597 0.068209 0.021218
0.088639 -0.006071 0.043997
0.066671 0.010741 0.040141
0.051704 0.077131 0.000000
0.110049 0.040226 0.035551
0.044453 0.034813 0.038778
0.040071 -0.039055 -0.017279
-0.020830 -0.012952 0.051376
0.113058 0.071052 0.014779
0.087857 0.077740 -0.012751
0.075799 0.079842 -0.000658
0.039926 -0.036867 0.032819
0.108082 -0.049361 -0.039121
0.089531 0.076473 -0.000305
-0.042590 0.007480 0.034412
0.047163 -0.013384 -0.017635
0.038857 0.067553 -0.006548
0.107018 -0.018327 -0.036576
0.090465 0.038653 -0.041728
0.037163 0.062636 -0.012174
0.113156 0.070513 -0.017061
-0.046397 0.001172 0.028451
0.120859 0.064701 0.007004
-0.039973 -0.019759 0.032651
0.107720 0.074288 -0.005738
0.104323 0.074778 0.010992
0.007361 0.005021 0.053454
0.124309 -0.015431 -0.021214
0.131143 0.008388 -0.007874
0.049294 -0.023322 -0.015044
0.066776 -0.006809 -0.038497
0.049871 0.049569 -0.020944
0.021974 0.043919 -0.014044
0.070260 0.081075 -0.012119
-0.019726 0.032724 0.037306
0.120379 0.064451 -0.013713
0.081251 0.051269 0.039984
0.019142 0.041800 0.033786
0.048823 0.062060 -0.018671
0.107868 0.066233 -0.030309
0.085219 0.024544 -0.042974
0.016080 0.054542 0.017965
0.028150 0.038785 -0.014800
-0.047323 0.002865 0.023852
0.052599 0.072749 -0.016648
-0.001093 0.045764 0.028164
0.072625 0.079433 -0.021626
0.103851 0.073655 -0.022580
0.059220 -0.045827 0.032027
0.043095 0.026175 -0.016112
0.051229 -0.019264 0.047267
0.047238 -0.045699 0.016797
0.129667 0.042179 0.000000
0.099784 -0.022718 -0.038612
0.095519 -0.029536 -0.039313
0.053747 0.031133 0.039758
0.126731 -0.037844 0.014069
0.108784 0.071625 -0.020797
0.034758 0.050932 -0.014860
-0.030835 -0.036225 0.018764
0.088059 0.077146 0.016114
-0.024256 0.002524 0.050432
-0.022011 0.010784 0.051076
0.104812 -0.034141 -0.036802
0.110266 0.059493 0.031302
0.053110 -0.051200 0.021533
0.039538 0.036296 0.038198
0.104456 0.072213 -0.024663
0.107573 -0.051200 -0.036026
0.065431 -0.015756 0.039346
0.060286 0.080025 0.012328
0.092740 0.072143 -0.034183
0.038502 0.033205 -0.015071
0.110404 -0.047557 -0.037658
0.053801 0.079634 -0.004891
0.120475 0.064950 0.008792
0.055787 0.006503 0.049304
-0.002345 -0.001297 0.052574
0.077344 -0.046777 0.042003
0.018575 -0.043297 0.023422
0.053790 -0.022767 -0.022898
0.052637 0.022552 0.045356
0.048695 0.004713 0.054193
0.116634 0.067701 -0.014792
-0.008334 -0.043677 0.032776
0.017615 -0.044548 0.003700
0.128318 -0.016584 0.010625
0.098091 -0.008211 0.042707
0.065550 -0.038672 0.035482
0.041720 0.033629 0.041167
0.017538 0.054667 0.019180
0.074885 0.080006 0.019882
0.106245 0.074251 -0.006273
0.011647 -0.042215 0.035049
0.026496 -0.039463 0.036596
0.121099 0.062723 0.013509
0.059950 -0.051200 0.033900
-0.035967 0.029319 0.029623
0.058561 -0.032184 0.035642
-0.019904 0.041738 0.027687
0.097277 -0.031965 -0.039104
0.059656 0.022923 0.041339
0.039134 0.028917 0.044407
-0.035927 0.014951 0.039399
0.055912 -0.050500 -0.000000
0.100513 0.075067 0.009361
0.108450 0.072919 0.015910
-0.020448 0.026838 0.045196
0.100680 0.075469 0.000485
0.121933 -0.049927 0.027998
0.130088 0.037781 -0.002860
-0.002469 -0.002255 0.052561
0.127038 -0.049367 -0.020254
0.042105 -0.039412 -0.017351
-0.004354 -0.003170 0.052348
0.023832 0.043144 -0.014313
0.088259 0.077232 0.016220
0.078545 0.078941 -0.012972
0.124329 0.060202 -0.000600
0.097205 -0.050600 -0.040130
0.051298 -0.022122 -0.020341
0.059082 -0.008170 -0.032924
0.048879 -0.028568 -0.014848
0.108192 -0.051200 -0.035896
0.052084 -0.042302 0.026224
0.075767 0.072139 -0.034844
0.100631 -0.019485 -0.038931
0.044371 -0.038391 0.025454
0.098200 -0.033038 0.038997
0.131200 -0.010550 -0.005080
0.128975 -0.037832 0.004340
0.069454 0.081201 0.007074
0.058235 0.080316 -0.005422
0.047602 -0.010000 -0.014800
0.063762 0.079789 0.017227
0.045183 -0.019773 -0.016692
0.043430 -0.037827 0.026991
0.054075 0.033475 0.037731
0.111134 0.067818 -0.024653
0.110349 0.022219 0.037156
0.037560 -0.017268 0.054125
0.036019 -0.038531 0.019118
-0.000704 -0.046058 0.026888
-0.045660 -0.012967 0.022289
0.117178 -0.006238 0.032925
0.013321 0.043902 0.031839
0.090668 0.010802 0.043686
0.114841 0.015301 0.034570
0.024601 0.037644 0.039497
0.099773 0.075560 0.016507
0.043607 0.033098 0.039227
0.072201 0.061309 0.037180
0.061752 -0.031915 0.036037
0.098308 0.068389 -0.034998
0.031670 0.032560 0.042084
0.022034 -0.041748 0.024293
0.120962 0.063847 0.013064
0.112056 0.070206 -0.018109
0.094718 0.076553 0.018063
0.094794 0.076625 -0.013807
-0.043971 0.019060 0.003700
0.121145 0.064215 -0.010765
0.039774 0.018644 0.055325
0.000105 0.049641 -0.005583
0.068830 0.079158 -0.021932
0.061665 -0.023714 0.040659
0.022670 0.049927 -0.013076
0.089812 -0.012572 0.042945
0.029930 -0.038712 0.037003
0.014770 -0.024039 0.056130
0.049804 -0.035379 0.033082
-0.022321 -0.042000 0.018808
0.129976 -0.005141 0.013225
-0.009216 -0.046599 0.019418
0.089084 0.077630 0.023422
0.111355 0.070690 0.017989
0.017252 0.046113 -0.013861
0.064962 0.003623 0.040690
0.074644 0.070303 -0.035038
0.056462 0.004128 0.046820
0.012281 0.055153 0.000000
0.062917 -0.039552 -0.033281
0.127385 -0.028905 0.000000
-0.028872 -0.037807 0.018751
-0.014382 0.043977 0.026564
0.016679 0.052520 0.023426
0.030673 0.038550 -0.014533
0.129201 -0.004573 0.015458
0.063889 -0.023798 -0.032206
0.089747 -0.027865 0.039951
0.053553 -0.037107 -0.023210
0.131056 0.027663 0.001580
0.081995 -0.027727 0.039492
0.080966 0.070201 -0.036546
0.055847 -0.009149 -0.025876
0.042614 0.061383 -0.015689
0.112359 0.071871 0.010695
0.064850 0.002042 0.041063
0.015690 0.049073 0.027906
0.052144 0.032964 0.038034
0.008231 0.049501 -0.012354
-0.009422 0.013322 0.051706
-0.001324 -0.024468 0.051334
0.076371 0.079698 0.003141
0.096103 0.044743 0.040271
0.065172 -0.022663 0.038205
0.112714 0.068358 -0.022206
0.101326 0.072546 0.027358
0.086077 0.065006 -0.038041
0.067856 0.080260 -0.015760
0.102320 0.069342 0.032242
0.097782 -0.042812 0.041596
0.044523 0.036540 0.036657
0.089370 0.077123 0.025547
0.047198 -0.043229 -0.000000
0.119527 -0.035273 0.025650
0.056047 0.027452 0.040123
0.042085 -0.029405 -0.017048
0.113830 0.068989 0.017457
0.115623 0.066233 -0.000000
0.078454 0.069502 -0.036268
0.131653 0.017173 -0.000600
0.048993 0.000833 -0.015955
0.085654 0.077447 -0.006880
0.125425 -0.039546 -0.018335
0.073159 -0.032925 0.037955
0.074322 0.079620 -0.018384
0.092323 0.077123 -0.014665
0.044809 -0.021308 -0.016789
0.061669 0.023542 0.040743
0.015871 -0.044441 0.022329
-0.043029 -0.018557 0.028811
0.113251 0.069539 0.017964
0.062573 0.079727 -0.016439
0.024601 0.037644 0.039497
0.051956 -0.024146 -0.020729
0.112074 -0.012445 -0.035620
0.118095 0.067131 0.012356
0.075444 -0.023220 -0.038292
-0.018301 0.043725 0.020769
0.061294 0.079937 0.014795
0.066102 0.079939 0.016291
0.123383 0.062299 0.002614
0.115586 0.066362 -0.000000
0.064842 -0.005052 -0.037443
-0.027467 -0.031827 0.032242
0.114829 0.070685 -0.001601
0.092243 0.077284 0.014193
0.048823 -0.035167 0.033702
0.031625 -0.038535 0.025575
0.010057 -0.026492 0.050176
0.034097 -0.038195 0.016800
0.128000 0.048804 0.000000
0.005232 0.043882 0.031926
0.049969 0.002133 -0.000000
-0.043998 -0.016472 0.028619
0.047565 -0.032004 -0.017187
0.054773 0.079720 -0.006762
-0.036846 -0.027215 0.030644
0.064352 -0.010808 0.040951
0.051298 -0.022122 -0.020341
0.029931 0.041154 -0.014572
0.107217 -0.039848 0.037079
0.055812 -0.050600 -0.000000
0.042105 -0.039412 -0.017351
0.036329 0.066305 -0.005071
0.115223 0.066214 -0.021901
-0.040591 -0.023059 0.029099
-0.034578 0.003272 0.042872
0.050630 0.072159 -0.014650
0.068960 0.081407 0.006959
0.044231 -0.022328 -0.016803
0.018932 0.046041 -0.014151
0.018697 0.056769 -0.006079
0.036250 0.033692 -0.014831
0.102656 0.075395 -0.003353
0.062573 0.079727 -0.016439
0.101176 0.075529 0.007791
0.029638 0.021536 0.056078
-0.039373 -0.027206 0.003800
0.086853 -0.015884 -0.041877
-0.030421 0.034558 0.030256
0.124159 -0.037850 0.019765
0.099639 0.035480 0.040504
0.068123 0.080989 0.013888
0.023832 0.043144 -0.014313
0.054217 -0.000021 -0.028112
-0.024539 -0.000610 0.050417
0.093609 0.072115 -0.033409
0.032316 0.061430 -0.010008
0.083091 0.074349 0.033590
0.033498 0.039325 0.035301
0.128975 -0.037832 0.004340
0.079012 0.059340 -0.038289
0.125075 -0.016882 -0.018859
0.071765 0.078088 -0.025841
-0.000663 0.049216 -0.001188
0.078998 0.079110 -0.000859
0.104855 0.072687 -0.023176
0.073558 0.080345 0.003774
0.106286 0.074501 -0.001325
-0.015576 0.016157 0.051196
0.100807 -0.008061 -0.041984
0.045223 0.025038 -0.017257
0.033030 0.055358 0.026343
-0.005657 -0.015340 0.052694
0.126311 0.033122 0.018410
0.049788 -0.047947 -0.021806
0.063549 0.076968 -0.025812
0.082672 0.076088 0.030264
0.030776 -0.019106 0.054486
0.003846 -0.012869 0.053182
0.043612 -0.022777 -0.016629
0.107663 -0.034019 -0.035351
0.096421 -0.032280 0.039328
0.089736 0.076569 0.004698
-0.038633 0.011902 0.034064
0.106249 0.074032 0.014136
0.087262 -0.043404 0.042903
0.070376 0.076615 -0.029219
-0.043152 -0.001488 0.030371
0.002480 0.049379 -0.009505
-0.005739 0.023634 0.054282
0.027999 0.050670 0.029197
0.076544 0.068995 -0.035925
0.044167 -0.042055 -0.013526
0.034503 0.060110 -0.012382
0.068157 0.073610 0.032416
0.060658 0.000685 0.045523
0.051119 -0.043786 -0.018441
0.125768 -0.011298 0.021215
0.052596 -0.004023 -0.026233
0.087601 0.077690 0.019382
-0.043681 0.017201 0.028693
0.069052 0.070065 0.034552
0.057563 0.080594 -0.000912
0.056011 -0.051199 0.030213
0.103574 0.074497 0.003862
0.050355 -0.019228 0.050701
0.098308 0.068389 -0.034998
0.076974 0.079851 -0.017303
0.123791 0.060924 0.000001
0.090098 0.072360 -0.034987
-0.024857 -0.016888 0.047424
0.072057 0.077909 0.025941
0.032488 -0.018657 0.054435
0.041439 -0.038559 0.013353
0.070186 0.080729 -0.006487
0.046864 -0.014371 -0.017270
0.127223 -0.051200 0.011940
0.055444 -0.005001 -0.027341
-0.036957 -0.010980 0.036274
0.045256 -0.046267 -0.010675
0.085644 0.073017 0.035104
0.037471 0.067098 0.006661
-0.045278 0.012575 0.028554
0.026104 -0.022601 0.052291
0.066067 0.077427 -0.026138
0.129415 0.035349 0.008653
0.094869 0.068044 -0.036308
-0.009486 0.046822 0.018434
0.055510 0.030035 0.040025
-0.038260 -0.025347 0.030498
0.130516 0.033225 -0.003129
0.020272 0.054262 -0.010492
0.018810 0.046586 0.030591
0.046852 0.001911 0.053073
0.045037 0.015771 0.054718
0.121051 0.064620 -0.006160
0.120013 -0.023192 -0.024476
0.022348 -0.030912 0.047935
0.023052 0.057360 -0.008685
0.002590 0.027380 0.049359
0.124900 -0.051200 -0.017871
0.088975 0.014633 0.043606
0.121356 0.064230 0.001443
0.056587 -0.000406 -0.030738
0.025182 0.058706 0.015869
-0.031469 0.027223 0.032804
-0.021591 0.011597 0.051184
0.078447 0.079724 0.011000
0.112196 -0.037283 0.033180
0.046023 -0.041438 -0.000000
0.078123 0.075161 -0.032626
0.103278 0.072043 0.025998
0.083754 0.075856 0.030301
0.048548 0.031397 0.039675
0.128074 -0.030922 -0.000600
0.070556 -0.042907 0.038370
0.044808 0.020344 -0.016810
0.122061 0.062064 0.011645
0.062149 -0.022428 0.040794
0.106600 0.073848 0.014352
0.079745 0.076588 0.029450
0.056299 -0.009079 -0.027781
-0.033477 -0.030945 0.031011
0.131741 -0.009295 0.000002
0.061069 -0.024565 0.040682
0.043721 -0.039534 0.013548
0.015724 -0.026260 0.050083
0.065177 -0.033308 0.036162
0.065524 0.079878 -0.017034
-0.047123 -0.000844 0.028318
-0.032394 -0.034665 0.020804
0.124309 -0.015431 -0.021214
0.102077 -0.012647 0.040593
0.004601 0.049786 0.022353
0.072292 -0.022607 -0.037202
0.025728 0.054514 0.024603
0.012249 0.050563 -0.011651
0.014733 0.007090 0.053854
-0.042083 -0.004036 0.035559
0.080081 0.078664 -0.013998
0.092745 0.076884 0.018729
0.114699 0.068595 -0.016576
0.058601 0.024260 0.043251
0.075494 0.070635 0.036109
0.024250 -0.040989 0.019207
0.054479 -0.030832 0.039146
0.027991 0.039830 0.035181
-0.043359 0.009048 0.028797
0.114917 0.056359 -0.028420
0.046631 0.032053 0.039621
0.048887 -0.024559 -0.014873
0.073084 0.061707 -0.036256
0.104976 0.074734 0.007365
0.030475 0.060853 -0.009397
0.048560 0.074863 -0.002196
-0.010508 -0.026194 0.047724
0.093314 0.002618 0.043654
-0.008558 -0.027332 0.050430
0.059863 0.025167 0.041474
0.000127 0.050220 0.012326
-0.029407 0.000616 0.044748
0.103003 0.074520 0.005549
0.113013 0.071849 0.000568
0.073842 0.080477 -0.003427
0.084961 -0.043554 0.042801
0.013928 0.047006 -0.013185
0.073668 0.079547 -0.019225
0.103901 0.050709 -0.036983
0.090408 0.074488 0.030338
0.101452 0.067597 -0.033894
0.093688 0.076142 -0.006441
0.053448 0.079424 -0.004969
0.072767 0.079545 -0.020173
0.073029 0.072482 0.034766
0.115278 0.052099 0.029454
0.012052 0.047633 -0.013128
0.116989 0.053074 -0.027491
0.059334 0.080237 0.010009
-0.000865 -0.034239 0.045642
0.118738 0.038444 -0.029161
0.023094 0.040119 0.036300
0.052450 -0.051200 -0.020795
0.107609 -0.011049 0.038699
0.091722 0.077035 0.018995
0.054355 -0.023252 -0.019744
0.033998 0.059086 0.022397
0.085962 0.051643 -0.040209
0.124571 0.030222 -0.022489
0.094601 -0.008067 -0.043400
-0.033314 -0.017099 0.040929
0.062007 0.070662 0.030959
0.059967 -0.034765 -0.025694
0.099452 0.076010 0.009356
0.119527 -0.035273 0.025650
0.099942 0.023606 -0.041445
0.079524 0.043203 0.040792
0.127811 -0.018330 -0.010705
0.056586 0.079271 0.013028
0.046905 -0.043088 0.018248
0.044396 -0.013350 0.053436
-0.029963 -0.000106 0.046554
0.050948 -0.040243 -0.017262
0.062387 -0.005785 0.042516
0.096857 -0.051200 -0.040032
0.077344 -0.046777 0.042003
0.127513 -0.037843 0.011692
0.083275 0.068430 0.037369
0.060282 0.038919 -0.031927
-0.044594 -0.014854 0.028577
0.126447 0.017087 -0.020536
0.125320 -0.033992 0.015539
0.070532 0.079785 0.019133
0.029638 0.021536 0.056078
0.051933 -0.000077 -0.022789
-0.010594 -0.042670 0.033554
-0.034339 0.032734 0.020956
0.039234 -0.038868 -0.017390
-0.028530 -0.038507 -0.014800
0.082117 0.072595 -0.035763
-0.025744 0.028156 0.037267
0.075868 0.076553 -0.030182
0.051410 -0.013190 -0.023427
0.058468 -0.010813 -0.028243
0.090927 0.036279 0.041952
0.025080 0.042346 -0.014310
-0.035447 -0.019985 0.033886
-0.018473 0.016159 0.051938
0.120475 0.064950 0.008792
0.058930 -0.035638 -0.028545
0.122223 -0.033993 0.021527
0.065235 0.012548 0.040017
0.010046 0.051093 0.022571
0.113301 -0.046953 -0.035687
0.106978 0.073611 0.014599
0.050197 -0.013234 -0.021837
0.111422 0.071467 -0.017068
-0.027829 -0.037526 0.026181
0.077016 0.079890 0.017350
0.028804 -0.019563 0.054537
0.052889 -0.024936 0.046271
0.033706 0.036267 -0.014745
0.100530 -0.049394 0.042151
0.103982 0.071202 -0.027775
0.112246 0.068656 -0.022587
0.120438 -0.043718 -0.028248
0.055107 0.023440 -0.028154
0.118586 -0.013449 0.029809
-0.014224 0.034040 0.038910
0.043693 -0.039514 0.000000
0.048679 -0.009174 -0.015958
0.125003 -0.042793 -0.021369
0.076544 0.068995 -0.035925
-0.034822 -0.016234 0.036579
0.110415 -0.036018 -0.034078
-0.031566 -0.029920 0.030141
0.063070 0.019121 0.040904
0.046890 0.036430 -0.018926
0.047501 0.033026 0.040085
0.005620 0.033145 0.047033
0.090653 0.077168 -0.019220
0.124361 -0.022604 -0.017583
-0.001093 0.045764 0.028164
0.099784 -0.022718 -0.038612
0.002945 0.049771 -0.009951
0.064265 -0.010795 0.041034
0.081572 0.072911 0.035523
0.061450 0.024137 0.040644
0.098308 0.068389 -0.034998
0.017861 0.045629 -0.000000
0.126911 0.050116 0.009969
0.121625 0.049381 0.022742
0.115483 0.068395 0.016064
0.029155 -0.038827 0.037003
0.032946 0.029044 0.045470
0.062554 0.001275 0.042712
-0.036956 -0.028195 0.029503
0.028596 0.058764 -0.010458
-0.014227 -0.039643 0.032116
0.043613 -0.044357 -0.003414
0.003884 0.048856 -0.010040
-0.017190 0.037826 0.037099
0.057847 0.025639 0.040902
0.109930 0.001693 0.038140
0.013000 -0.045753 0.018617
0.127571 -0.031251 -0.000600
0.056491 0.008720 -0.030415
0.112419 -0.021658 0.032328
0.114233 0.069058 -0.017479
0.091006 0.076746 0.015956
0.069832 0.080415 0.014280
0.028183 -0.027951 0.046419
0.104676 0.068628 0.031177
0.020725 0.056457 0.017264
-0.040897 0.022601 0.029052
-0.041103 -0.023662 0.021935
0.076513 0.079904 0.000848
0.059339 -0.042801 -0.031684
0.034355 0.035303 -0.014645
0.086802 0.077487 -0.016168
0.067730 -0.035096 0.036488
-0.023349 0.038346 0.032151
0.061571 -0.024107 0.040116
0.113520 0.071532 0.001324
0.120507 0.065015 0.009369
0.059051 0.081198 -0.003854
0.102280 0.074633 -0.007226
0.103414 0.074803 -0.001726
0.082980 -0.039314 -0.041301
0.038486 0.036634 0.038009
0.012199 0.052516 0.020421
0.057012 -0.000689 0.046560
0.077272 0.077016 0.028597
0.007414 0.049059 -0.012314
0.059950 -0.051200 0.033900
-0.027221 0.032742 0.035650
-0.004133 -0.046858 0.022785
0.012278 0.054486 0.000000
0.123377 0.062153 -0.003442
0.033536 0.057871 0.023750
0.090222 -0.042876 0.042698
0.047121 -0.041099 0.021665
0.045301 0.056507 0.029350
0.032821 -0.038422 0.023138
-0.015467 -0.005148 0.050713
0.087330 0.075345 -0.030065
0.112359 0.071871 0.010695
0.062450 0.077362 -0.023476
0.063846 0.081254 0.010254
0.050911 0.063309 -0.019677
0.114958 0.068693 0.016716
0.089182 0.076582 -0.003156
0.048207 -0.041717 0.022329
0.118589 -0.051200 0.027570
0.111809 0.017947 -0.036523
-0.009614 -0.005069 0.051979
0.060843 -0.023577 0.041603
0.047565 -0.032004 -0.017187
0.116671 0.065754 -0.018977
0.003101 0.043714 0.032957
0.014819 0.039802 0.035428
0.125624 0.058892 0.001782
0.050238 -0.043673 -0.021393
-0.033986 0.030413 0.031018
0.063938 0.014328 0.040898
0.105722 -0.009978 0.039853
0.025728 0.054514 0.024603
0.052486 -0.014711 -0.020059
0.058523 0.054680 0.034379
0.003254 -0.025296 0.051079
0.111593 -0.049343 -0.037109
0.022957 -0.042055 -0.014800
-0.047078 0.002704 0.028272
0.104008 0.059219 -0.035197
0.128335 -0.035408 -0.005336
0.059138 -0.019534 -0.029036
0.109942 -0.034689 0.034107
0.044854 0.030192 0.044303
-0.016239 -0.037027 0.034475
-0.038641 0.024806 0.030454
0.004346 0.049174 -0.010896
0.064640 0.006747 0.041044
0.046007 0.021491 -0.017711
-0.019065 -0.041054 0.031552
0.104977 0.074555 -0.010662
0.104828 -0.012525 0.039573
0.129863 -0.045279 -0.011516
0.024330 -0.040966 0.016803
0.086467 -0.042803 -0.042698
0.070884 -0.047420 -0.039773
-0.025287 0.040041 0.021295
0.093777 0.073979 0.030049
0.044038 0.021530 -0.016164
0.044123 -0.037736 0.027763
0.107659 0.023764 0.038496
0.013368 -0.029905 0.050129
-0.046443 0.010490 0.016834
0.052596 -0.004023 -0.026233
0.076402 0.079648 0.000995
0.119240 -0.049263 -0.030947
0.048164 0.067023 -0.016364
0.033618 -0.036137 -0.017658
-0.039989 0.022745 0.030295
-0.006126 -0.037582 0.037514
0.071428 0.078948 -0.022113
0.092745 0.076884 0.018729
-0.002984 0.037957 0.037938
0.115059 0.056063 0.028399
0.045915 0.034406 0.038891
0.125624 0.049824 0.014091
0.004414 0.049883 -0.010862
0.046245 -0.043378 0.016701
0.082638 0.019256 0.043076
0.074434 -0.029757 0.038265
0.049680 0.075078 0.010279
0.127787 -0.028989 0.004242
0.074817 0.068946 0.036482
-0.017811 0.016842 0.052085
0.054820 0.011265 -0.028489
0.119590 0.065528 -0.011242
0.064538 -0.008037 0.041045
0.060590 -0.051200 0.030736
0.056382 0.078330 -0.016071
0.088201 0.077860 0.012696
0.009665 0.042466 0.034834
0.089454 0.069985 0.036699
0.000517 0.049359 -0.006475
0.094793 0.071885 -0.033160
0.039899 -0.029176 -0.017140
0.115347 -0.016543 0.031502
0.127422 -0.039574 -0.013548
0.062788 0.081589 0.000500
-0.046214 -0.003993 0.029623
0.093056 0.076268 0.015304
0.086258 0.078228 -0.015050
0.114528 0.070898 0.000849
-0.022403 -0.018080 0.048627
-0.001551 0.029516 0.050128
0.104851 0.065524 0.032827
0.083961 -0.033106 -0.040111
0.060970 -0.024961 0.040554
-0.025931 -0.009073 0.046545
0.059733 -0.051200 -0.029698
0.074264 0.066774 -0.035709
0.094293 -0.044843 0.042842
0.063447 0.018180 0.040487
-0.010427 -0.030434 0.044062
0.067730 -0.035096 0.036488
0.053522 0.079698 0.002055
0.070058 0.080907 0.001133
0.051497 0.077808 -0.000600
0.128555 -0.005897 -0.017083
-0.003206 -0.028093 0.051147
0.049788 -0.047947 -0.021806
0.063068 0.079723 -0.016791
0.117290 0.067212 0.013932
0.049732 -0.042890 0.023240
0.130660 -0.010585 -0.008482
0.104757 0.070213 0.028877
0.120873 0.065717 -0.001298
0.048717 -0.038178 0.028177
0.047948 -0.010119 -0.014795
0.048211 0.008801 -0.000000
0.033953 0.037701 0.037579
0.098819 0.042785 0.039886
0.031864 -0.038955 0.016799
0.008476 0.048725 -0.012596
0.060219 -0.000797 0.044370
0.128674 -0.051200 0.006285
0.006968 0.014800 0.053928
-0.039982 0.004674 0.034190
0.041675 -0.041324 -0.004828
0.054912 0.062219 0.030397
0.117231 0.068166 -0.012830
0.104159 0.073533 0.021381
0.030185 0.059373 0.019397
-0.019676 -0.022060 0.048534
-0.002562 -0.036868 0.042674
0.047898 -0.051200 0.018119
0.048179 0.073457 0.011267
0.060590 -0.051200 0.030736
0.089440 0.076319 -0.028249
-0.021149 0.012389 0.051298
0.067352 0.080189 0.016056
0.095419 -0.042814 0.042081
0.024144 -0.022774 0.056240
0.106088 0.074365 0.006670
0.087691 0.072875 0.035021
0.029565 0.043201 0.033470
0.041439 -0.038559 0.013353
-0.043689 -0.017948 0.025325
-0.029133 -0.007372 0.046678
-0.023266 -0.007827 0.050760
0.123799 0.061004 -0.000600
0.062708 0.030956 -0.034502
-0.020985 0.008154 0.049934
0.119802 -0.008880 0.030103
0.099922 -0.039905 0.040043
0.092738 0.031541 -0.042223
0.113652 0.071458 -0.000088
0.019142 0.041800 0.033786
0.048507 -0.006998 -0.016637
0.050029 0.071720 0.018874
0.014262 -0.041073 0.036067
0.010762 0.050595 0.024035
0.051041 -0.000833 0.050459
0.122236 -0.021732 0.021640
0.055982 -0.009412 0.048941
0.047014 -0.038836 -0.017710
0.050684 0.030030 -0.022430
0.063096 -0.049399 -0.036246
0.034381 0.044235 0.033588
-0.010419 0.022257 0.053502
-0.045931 -0.006373 0.029646
0.031203 -0.039209 -0.017557
0.104008 0.073499 0.021393
-0.027703 -0.019247 0.041746
-0.021150 0.039462 0.031327
0.119527 -0.035273 0.025650
0.060395 -0.051200 -0.034300
0.089142 0.076579 0.002738
0.044166 0.063381 0.023273
0.121593 0.064320 0.000474
0.051380 -0.037980 -0.017172
-0.003842 0.044048 0.033141
0.080415 -0.050500 0.040451
0.127798 0.024150 -0.016550
0.036777 -0.039219 -0.004766
0.064492 -0.009106 0.041001
0.129663 0.041719 -0.001962
0.048300 -0.035942 -0.017772
0.127761 -0.050600 -0.010696
0.035863 0.033713 -0.014670
0.038662 0.030451 -0.014868
0.048823 0.062060 -0.018671
0.062759 -0.021969 0.039737
0.086642 0.014529 0.043606
0.048567 0.070023 -0.014486
0.113894 -0.044568 -0.034621
0.009304 0.053465 0.010300
0.065991 -0.051200 0.038106
0.049969 0.002133 -0.000000
0.097245 0.071258 -0.033133
0.032864 0.036860 -0.014671
0.039282 0.067448 0.010292
-0.016335 -0.030748 0.044516
0.099392 0.076126 -0.017812
0.072966 0.079580 0.019918
0.097538 0.030187 -0.041542
0.074236 0.078292 -0.026473
0.064732 0.075863 0.028580
0.031433 0.061965 -0.008609
0.055164 -0.051200 -0.024823
0.053380 -0.011303 -0.022450
0.060650 -0.051200 -0.030544
0.054288 -0.004849 -0.026062
0.056911 0.080135 -0.008252
0.073521 0.016256 -0.041043
0.132009 -0.051200 0.000000
0.003264 -0.039060 0.036345
0.044125 -0.046933 0.003435
0.131433 -0.049439 -0.000600
0.067373 -0.032655 0.036721
0.020494 0.044997 -0.014222
-0.040897 0.022601 0.029052
0.031981 0.042463 0.033953
0.127970 -0.028976 0.001826
0.093643 0.074624 -0.029359
0.043886 -0.036389 0.032838
-0.023875 -0.040819 0.021891
-0.024838 -0.038399 0.030835
0.041720 0.060540 0.024734
0.039079 -0.038416 0.019192
-0.023371 0.039140 0.031048
0.112033 0.050440 -0.032494
-0.011983 0.044758 0.025638
0.051600 -0.039222 0.028327
0.073397 0.079716 -0.006058
0.095519 -0.029536 -0.039313
0.068799 -0.049352 -0.039560
0.045567 0.032496 0.039340
0.103002 0.072238 0.026456
0.059310 -0.025896 0.041199
0.093677 0.076521 -0.014545
0.055106 -0.005097 -0.026716
0.054719 0.028238 0.040509
0.084570 0.077483 -0.003536
-0.045955 0.012431 0.018342
0.103168 -0.038975 -0.038630
0.131429 0.003082 -0.000600
0.074289 0.080392 0.005043
-0.027341 0.036801 0.030602
-0.017162 0.030440 0.041085
0.022840 -0.040202 0.036218
0.052281 0.078674 0.002959
0.025639 0.054723 -0.011895
0.092092 0.076841 -0.011121
0.066565 0.081248 -0.011178
0.117388 0.067229 0.014032
0.100345 -0.051200 -0.042258
0.046011 0.066603 -0.015085
0.107480 0.030160 0.038063
0.087505 0.005533 -0.043911
0.112827 0.069833 0.018138
0.062901 0.079763 -0.016820
0.092550 0.076945 0.017902
0.046868 0.034056 0.039010
0.030874 0.019059 0.054483
-0.013157 -0.042926 0.032179
0.029162 -0.039108 0.023507
0.059198 0.023978 0.040996
0.024144 -0.022774 0.056240
0.040626 -0.039388 -0.016805
0.098685 0.076144 0.000398
0.052133 -0.031090 0.039677
0.073027 0.077776 0.026588
0.070923 0.078851 0.023236
0.087825 0.073251 0.033983
0.068057 0.080106 -0.014862
0.119590 0.064969 0.014872
-0.028067 -0.028726 0.034754
0.086296 0.077978 -0.019846
0.111598 0.067762 -0.000000
0.109042 0.036733 -0.036563
-0.031015 0.035859 0.021081
0.113278 0.070426 0.017087
-0.027093 0.037851 0.027034
0.103244 0.018135 0.040720
0.050445 -0.047585 0.022715
0.079022 -0.051199 0.043087
0.080465 -0.051200 0.043361
0.062531 0.077965 0.023525
0.031433 0.061965 -0.008609
0.074264 -0.040728 0.039337
0.121099 0.062723 0.013509
0.075864 0.079528 -0.022344
0.085578 0.076378 0.029692
0.047380 0.028002 -0.019048
0.127619 0.050713 0.006415
0.108542 0.073651 0.014040
0.076699 0.079677 -0.016343
0.069993 -0.016166 -0.037726
0.045494 -0.027099 -0.016800
0.114570 0.068788 -0.016825
0.070601 0.073296 0.033545
0.100404 0.075835 0.018287
-0.009623 0.043597 0.032552
0.092931 0.076867 -0.017671
0.045201 0.018966 -0.016791
0.044412 -0.021402 0.048871
0.003240 0.004741 0.053429
0.131486 0.017067 -0.003568
0.062431 -0.024286 -0.030990
-0.000482 0.050329 0.003200
0.039576 0.034221 0.038888
0.127353 -0.034858 -0.009851
0.077986 -0.051200 0.039758
0.060052 -0.006130 -0.033941
0.057704 -0.048164 0.031163
0.019876 0.038779 0.036304
0.106694 0.073828 0.006094
0.131208 0.022821 0.003712
0.102351 0.065991 0.034071
-0.026510 0.037359 0.030685
0.128737 -0.047029 -0.015960
0.006226 0.049823 -0.011629
0.091698 0.077031 0.023930
0.031670 0.032560 0.042084
0.073538 0.019691 0.041457
0.060822 -0.017972 -0.027586
-0.011089 0.026206 0.047500
0.054075 -0.002894 -0.025863
0.063068 0.079723 -0.016791
0.050186 -0.051200 0.017521
0.039456 -0.039985 -0.000243
0.113884 0.069165 0.017571
0.123666 0.033491 -0.023499
0.125635 0.003307 0.022770
-0.015265 -0.027775 0.044407
0.025649 0.025583 0.049970
0.022005 0.059423 0.000000
0.050671 -0.032603 0.039409
0.032588 0.047303 0.032058
0.058008 -0.006163 -0.032129
-0.017036 -0.042593 0.028947
0.036629 0.032800 0.043337
0.047505 -0.004112 -0.014800
0.090455 0.031755 -0.042404
0.058448 0.080395 -0.006920
0.106397 0.074332 -0.005572
-0.007039 0.047815 0.015346
0.041798 -0.041659 -0.001495
0.090427 -0.050600 -0.041091
0.062860 -0.045281 -0.035400
0.059259 -0.039050 0.032543
-0.044247 -0.013516 0.029836
0.043637 0.016989 0.054881
0.065006 0.006856 0.040444
0.037424 0.067345 -0.003046
0.020804 0.058186 0.000000
0.121418 0.064261 0.000035
0.061158 -0.010627 0.044473
0.111598 0.067762 -0.000000
0.093340 0.076336 0.015337
0.127465 -0.029219 -0.000600
0.082669 0.078467 0.014549
-0.039316 -0.025896 0.025646
0.120305 0.065613 0.007731
0.031278 0.047452 -0.014414
0.104271 0.072162 0.025164
-0.047770 0.003810 -0.005300
0.086077 0.065006 -0.038041
0.055073 -0.004396 -0.000000
-0.003206 -0.028093 0.051147
0.053745 -0.031479 0.038236
0.124217 0.059804 0.009486
0.125635 0.003307 0.022770
0.009116 0.049479 0.025361
0.061922 0.023086 0.040740
0.103430 -0.018919 -0.038065
-0.000936 -0.024122 0.054871
-0.028060 -0.002578 0.045717
0.076711 0.075642 0.032008
0.068579 0.080703 0.000107
0.070527 0.080613 0.012851
0.061763 0.005432 0.044317
0.118416 -0.032286 0.026309
0.020923 0.032595 0.043570
0.120144 0.065181 0.010172
0.041502 -0.018112 0.055166
0.085362 -0.028789 0.039855
0.018809 -0.040987 0.035788
0.052241 -0.032990 0.036353
0.043912 -0.045348 0.003401
0.080198 -0.037599 -0.040399
0.049633 0.058098 0.029988
0.056347 -0.037416 -0.026452
0.114437 0.068932 -0.017096
-0.009638 0.022605 0.053634
0.041100 0.027317 -0.015399
0.115302 0.064586 0.023411
0.056382 0.078330 -0.016071
0.076361 0.079371 -0.011159
0.075458 0.010146 0.042373
0.057579 0.049432 0.035478
0.063694 0.079782 -0.017119
0.089327 0.076644 -0.004830
0.088684 0.077477 0.008856
0.102463 0.065850 -0.034063
0.037893 -0.031267 -0.017085
0.089850 -0.051200 -0.043986
-0.003364 0.010910 0.052761
0.093195 0.010616 0.043478
0.056911 0.080135 -0.008252
0.044166 -0.035167 0.037454
0.088962 0.077413 -0.009198
0.042545 -0.040389 -0.014799
-0.042967 -0.004063 0.030388
0.049536 -0.025215 -0.015083
0.096217 0.076476 0.021381
-0.022411 -0.002557 0.049522
0.096948 0.073280 0.028996
0.128251 -0.036131 -0.000600
0.105104 0.074575 0.010271
0.043845 -0.013971 0.053505
0.131200 -0.010550 -0.005080
0.017737 0.045909 -0.013886
0.032892 0.018547 0.054405
-0.009486 0.046822 0.018434
0.101309 0.074925 0.009129
0.011458 0.003640 0.053702
0.120989 -0.036496 -0.024130
0.046890 0.036430 -0.018926
0.042002 -0.022070 0.049062
0.064992 0.077820 0.025022
0.039150 -0.039659 0.006894
0.015036 0.027954 0.048890
0.057872 0.080509 0.003668
0.119425 0.066568 0.010262
0.116600 0.067631 0.014645
0.015129 0.038191 0.037604
-0.032453 -0.010049 0.041057
0.120013 -0.023192 -0.024476
0.061622 0.006056 -0.035018
0.104952 0.074187 -0.009998
0.122984 0.009729 0.026622
0.111235 0.068668 -0.023828
0.044804 -0.044357 -0.010786
0.011458 0.003640 0.053702
0.102086 0.075504 0.005223
0.129619 -0.051199 0.014341
0.003021 0.043616 0.033925
0.085189 0.063051 0.038425
0.046531 -0.015394 -0.016923
0.121304 0.064276 -0.002520
0.122236 -0.010286 -0.026920
0.121539 0.020968 0.027974
-0.032572 0.033899 0.024875
0.099922 -0.039905 0.040043
0.025689 0.059929 -0.006579
-0.033445 0.031939 0.029910
0.046523 -0.046876 0.014713
0.105436 0.074861 -0.010885
0.040813 0.031161 0.041882
0.129196 -0.016448 -0.006710
0.060941 0.079986 0.013977
-0.019203 -0.029407 0.040816
-0.043207 0.018236 0.028761
0.064795 0.012531 0.040121
0.121993 0.057997 0.017660
