0.035805 -0.010528 0.010645
0.004942 0.049710 -0.005278
-0.012239 -0.062126 0.016860
-0.010940 0.035533 0.006816
0.058472 0.017359 0.016651
0.053307 0.010254 0.014281
0.056553 0.013538 0.016865
0.013787 -0.021469 0.018400
-0.007447 0.023746 -0.027400
0.033647 -0.016020 0.012772
-0.007046 0.039345 -0.009176
0.043313 -0.004290 0.013143
-0.057270 -0.039463 0.017104
-0.024210 0.012383 0.026400
-0.055237 -0.057692 0.006078
-0.058279 -0.054931 0.009438
0.013629 0.012742 -0.018655
-0.033566 -0.001549 0.017900
-0.057952 -0.052248 0.006142
-0.008086 -0.007122 0.019544
0.024459 -0.031487 -0.013863
0.007136 0.018096 -0.018815
-0.009625 0.039421 0.012138
0.058831 0.014759 -0.003415
-0.000350 0.046396 0.012046
0.030566 0.021199 -0.010270
-0.032003 0.025214 0.001526
-0.004852 0.022004 0.018189
0.010535 0.015912 -0.016019
0.015825 0.008678 0.016860
-0.006320 0.041413 0.010420
-0.007190 0.037610 0.017173
0.045294 0.000076 0.006625
0.035722 -0.010589 0.007799
-0.032129 0.023256 0.004815
0.057518 0.013676 0.004800
0.035465 -0.011181 -0.003864
0.010562 0.053752 -0.002303
-0.012709 0.034225 0.016756
0.009451 0.014558 0.017759
-0.005385 0.042257 0.011581
0.061771 0.017525 0.002719
0.055325 0.012268 0.010043
-0.003169 0.023467 -0.018824
0.002789 0.048229 0.014200
-0.061130 -0.009324 0.017737
0.024552 0.027653 -0.010270
0.026942 -0.025024 0.014472
-0.006983 0.041130 -0.004967
-0.055617 -0.056496 0.002365
-0.038284 0.020550 -0.027400
0.012215 0.027178 -0.013088
-0.036817 -0.008693 0.017900
-0.025252 0.029067 -0.013601
-0.034272 -0.033750 0.027399
0.011352 0.055464 -0.000357
0.021205 0.030884 -0.007865
-0.056280 -0.056816 0.002900
0.008490 0.053756 0.013851
-0.004356 0.040289 0.014989
-0.058089 -0.052711 0.008211
-0.045049 -0.003319 0.027400
0.037894 -0.009241 0.014044
-0.056528 0.003399 -0.027400
-0.033789 -0.011448 0.027400
-0.011994 0.035887 -0.002111
0.025357 0.026830 -0.008591
0.026688 -0.029171 0.010749
0.025025 -0.032109 -0.000600
-0.016236 -0.033832 0.019410
0.041964 -0.003564 0.008543
0.010060 0.056187 0.009422
0.018543 0.003623 0.017907
0.026606 -0.028519 0.011963
-0.029874 0.025059 0.011126
0.029867 0.021582 -0.008580
0.007636 -0.001209 0.026401
0.011784 0.054894 0.000881
0.024922 -0.027748 -0.017854
0.022248 -0.034943 -0.027201
0.053481 0.008591 0.013982
-0.027647 0.027750 0.011425
-0.026105 0.026104 -0.018414
-0.042903 -0.055121 -0.027400
0.030373 0.014790 -0.011847
0.003849 0.045506 0.017389
-0.006298 0.022488 0.018177
0.006594 0.015266 0.018385
-0.005009 0.040831 -0.000693
-0.011300 0.013060 0.018400
-0.000561 0.021515 -0.021599
0.003591 0.047056 -0.006831
0.039922 -0.006056 -0.012431
-0.039095 -0.036587 0.017900
0.044749 0.001021 0.014976
0.055588 0.012485 0.003932
0.011383 0.012303 0.018076
0.025949 -0.012352 -0.018269
0.024067 -0.029309 -0.021200
-0.027939 0.026235 -0.017349
-0.010685 0.036892 -0.006759
-0.053073 -0.057418 0.004593
0.035346 -0.013505 -0.013664
-0.054285 -0.049192 0.008346
0.011244 0.055778 0.002304
-0.060393 -0.012149 0.018386
0.025225 -0.009429 -0.018836
0.024435 0.016288 -0.014347
-0.008283 -0.030507 0.026399
0.023694 -0.003126 -0.017053
-0.057415 -0.054261 0.008998
0.033621 -0.014807 -0.015841
-0.057478 -0.054096 0.002957
-0.019473 0.026147 -0.018848
-0.001095 -0.058429 0.017734
-0.006630 0.025953 0.014910
-0.001452 -0.010579 0.017900
0.018218 0.005450 -0.021599
-0.051652 -0.045011 0.003144
-0.014864 0.025198 0.016734
-0.047974 -0.052279 0.002547
0.011985 0.056076 0.003889
0.009895 0.053128 -0.003753
-0.055086 -0.056759 0.009818
0.036090 -0.011708 -0.003980
-0.004275 -0.012983 0.019427
0.040870 -0.003664 -0.009432
0.027627 -0.028566 -0.009650
0.010580 0.054675 -0.002278
0.004007 0.047589 -0.005970
-0.001627 0.042883 -0.008139
-0.043027 -0.047199 0.009124
0.027722 -0.028338 -0.001200
0.040123 -0.004840 0.014824
-0.047582 -0.042608 0.008326
-0.054566 -0.047708 0.005663
-0.030345 0.022371 0.018303
0.020615 0.019376 -0.013748
-0.011553 0.036426 0.006451
-0.015885 0.033734 0.012469
0.053481 0.008591 0.013982
-0.055036 0.006142 -0.021200
0.013166 0.057523 0.004800
0.023474 -0.031368 0.008496
0.045771 -0.001246 0.013779
0.033631 0.049646 0.014928
-0.042003 0.018688 -0.021599
-0.006923 0.038590 0.014266
-0.050533 0.011419 -0.027400
0.041475 -0.004246 -0.009286
-0.000767 -0.044593 0.019401
-0.026869 -0.033230 0.027400
-0.014417 0.025196 -0.021201
-0.020680 0.028349 0.015900
0.008694 0.015781 0.016899
0.020615 0.019376 -0.013748
-0.002044 -0.057904 0.018302
-0.056785 -0.056117 0.008624
-0.045628 0.014767 0.018175
0.053518 0.032041 0.001042
0.026325 -0.018299 -0.018752
-0.004946 -0.028310 0.027400
-0.047209 -0.042379 0.007434
-0.006350 0.038902 0.014878
-0.034329 -0.020147 0.026402
-0.004498 0.040219 0.015002
0.024951 0.012097 -0.011656
-0.028766 -0.030220 0.019410
0.015829 0.059590 0.015641
0.005716 -0.006284 0.027400
0.036556 -0.011727 -0.002925
0.002017 0.000416 0.027399
-0.055493 -0.057419 0.007472
0.054987 0.008911 0.003212
0.028078 0.009075 0.017337
0.056131 0.010059 0.001665
-0.054733 -0.057204 0.005638
0.027189 -0.027664 0.012465
0.031540 0.019425 -0.011107
-0.004852 0.022004 0.018189
-0.010469 0.036096 -0.004952
-0.001095 -0.058429 0.017734
-0.014648 0.034170 -0.015262
0.044302 -0.000596 0.016339
-0.004992 -0.026476 0.019789
-0.007383 0.038243 0.014650
-0.000381 0.022310 -0.018834
0.002476 0.046024 -0.006827
0.002192 -0.057182 -0.021400
0.031969 -0.004576 0.016648
-0.052891 -0.057879 0.008631
0.026259 -0.031015 -0.001201
-0.004597 0.022725 0.017510
0.005755 0.001340 0.019401
-0.033122 -0.012981 0.019489
0.025007 -0.031847 -0.011539
-0.034739 -0.038619 0.017900
-0.021040 -0.003416 0.019411
0.040330 0.045745 0.012066
0.025043 0.013016 -0.011456
0.002705 0.046263 0.014950
-0.028522 0.027485 -0.013155
0.000324 0.020972 0.017033
0.004168 0.020387 -0.016318
-0.005382 0.040818 -0.009527
0.025360 -0.019045 0.014900
0.004926 0.051158 0.011741
0.038923 -0.006388 0.014831
0.013165 0.026052 -0.013833
-0.055892 -0.055003 0.002222
-0.052273 -0.051213 0.010413
0.048958 0.005593 -0.005901
-0.034100 -0.015741 0.019719
-0.000174 0.045414 0.015190
-0.033273 -0.024417 0.019740
0.039276 -0.007547 0.014255
0.047034 0.035561 -0.002680
-0.041185 0.019131 0.016839
-0.018388 0.032123 0.015341
0.024331 -0.028957 0.012030
-0.056808 -0.053401 0.003168
-0.058387 -0.052489 0.005617
-0.021137 0.030528 -0.000600
0.013166 0.057523 0.004800
0.028172 0.005558 0.016992
0.037924 -0.007838 0.014455
0.040055 -0.008086 -0.008194
-0.003639 -0.013895 0.019732
0.059100 0.024337 -0.000159
0.021442 0.031114 -0.008361
-0.011102 0.035490 0.004360
0.022155 -0.035174 -0.021600
0.061365 0.019878 0.013968
-0.035407 0.008070 0.019400
0.024895 0.009405 0.016802
0.005755 -0.038591 0.019401
0.016876 0.031982 -0.009323
-0.003526 -0.014535 0.019600
-0.027703 -0.061706 -0.027201
0.016859 0.007411 -0.027201
0.037035 -0.009151 -0.007727
-0.018286 -0.002881 0.019765
-0.003861 0.040800 0.014385
0.011911 0.012330 0.017740
0.011467 0.025545 -0.011525
0.035716 -0.010961 -0.014833
0.020302 0.003628 -0.018820
-0.052232 -0.057207 0.008443
0.002668 0.020819 -0.018829
-0.050688 -0.049541 0.011260
-0.052902 -0.057626 0.005291
-0.025072 0.027736 0.014301
0.019524 0.062186 0.011644
-0.006927 0.039693 0.014837
0.037372 -0.008365 0.014171
0.054084 0.010984 -0.002488
0.019456 0.062521 0.007767
-0.058101 -0.053572 0.005179
-0.057075 -0.053825 0.002834
0.031761 -0.018955 -0.016516
-0.050379 -0.051925 0.001634
-0.049841 -0.050380 0.011319
-0.053335 -0.056904 0.008674
0.024790 -0.028396 0.012544
0.003680 -0.031223 0.027400
-0.037856 0.001391 0.017900
0.036551 -0.011404 0.007785
-0.001452 -0.010579 0.017900
0.036327 -0.010093 0.011767
0.001720 0.045341 -0.008165
0.043178 -0.004444 -0.007993
0.036387 -0.011872 -0.001363
0.017924 0.031024 -0.012645
0.016355 0.032348 -0.008905
0.023520 0.054211 0.016603
0.000053 0.023637 0.014918
-0.046576 -0.001968 0.018400
-0.031698 0.025572 0.004954
0.000703 0.047415 0.013841
-0.052578 -0.058589 0.006177
0.005894 0.050546 -0.005560
0.011345 0.054522 -0.000613
-0.062631 -0.017349 -0.021200
-0.002588 -0.059404 -0.021400
0.018221 0.032517 -0.010661
-0.003892 -0.022933 0.019411
0.036110 -0.011831 0.011975
-0.003595 0.023769 -0.018683
0.029731 0.014228 -0.012089
-0.037320 -0.038921 0.017900
-0.056387 -0.056832 0.004121
-0.014987 -0.062145 0.017514
0.003763 0.047376 0.014326
-0.055229 -0.055010 0.003000
0.046967 0.000986 0.011005
0.029674 -0.017661 0.016484
0.025520 0.057932 -0.000533
0.035533 -0.011219 0.007186
0.016707 0.009180 -0.018709
0.025309 -0.020679 0.016592
-0.029476 0.024705 -0.016786
0.062351 0.020119 0.010736
-0.012829 -0.002897 0.027400
0.054678 0.011589 -0.001225
0.024648 -0.031196 0.009028
0.044417 0.042555 0.002648
0.031000 -0.021089 0.014154
-0.046787 -0.052477 -0.021201
0.007918 0.049700 -0.008261
-0.040155 -0.057034 -0.021599
0.025702 -0.030992 -0.013254
0.010535 0.015912 -0.016019
0.055930 0.011222 0.008369
-0.032429 -0.059255 0.018189
-0.007943 0.040327 0.013857
-0.053314 -0.046901 0.008414
-0.022212 0.027259 0.015432
-0.022237 -0.061823 0.017907
-0.004595 -0.046848 0.019401
0.043052 -0.002635 -0.008998
-0.059796 -0.002998 -0.027201
0.016378 0.020520 -0.011325
-0.058279 -0.054931 0.009438
-0.003559 0.041164 -0.009262
0.038153 -0.009458 -0.007506
0.011512 0.054569 -0.006228
-0.006793 0.039597 0.014800
-0.004729 0.040812 0.001560
-0.000481 0.019609 0.018382
-0.004697 -0.059405 0.018081
-0.011258 0.038393 -0.001839
-0.053483 -0.055943 0.002718
0.022493 0.029379 -0.008756
0.007918 0.049700 -0.008261
0.007769 -0.003319 0.027400
-0.008729 0.039870 -0.007854
-0.057464 -0.053075 0.008091
0.025307 0.026926 -0.010252
0.031254 0.020610 -0.010431
0.037454 -0.012111 0.003729
0.021283 0.017558 -0.013307
0.036601 -0.010396 -0.014180
-0.009664 0.037613 0.013669
-0.003618 -0.023260 0.019712
0.022396 0.017450 -0.013747
-0.030771 -0.060915 0.016694
0.060686 0.016229 -0.000758
0.016354 0.021887 -0.011795
0.010067 0.056131 0.001550
0.055900 0.011602 0.000429
-0.053498 -0.046732 0.005168
-0.056119 -0.053272 0.002852
0.054261 0.031582 0.009593
0.055930 0.011222 0.008369
-0.032239 0.023915 -0.006917
0.049502 0.036884 0.004800
-0.022187 -0.061390 0.018198
-0.058885 -0.053220 0.007072
-0.051526 -0.057826 0.008360
0.037924 -0.007838 0.014455
0.021930 -0.034790 0.017514
0.007129 0.050524 0.014824
-0.049981 -0.053504 0.003199
0.025309 -0.020679 0.016592
-0.052549 -0.050948 0.002468
0.055264 0.009043 0.012374
-0.029369 0.024049 0.011635
0.045519 -0.001469 -0.005585
-0.004616 0.042946 -0.008181
0.049746 0.003305 -0.005136
-0.042550 -0.055591 -0.021201
0.021565 0.030390 -0.010377
-0.047969 -0.051130 0.017328
0.023958 -0.013259 0.018175
0.001796 -0.000476 0.026930
-0.030173 0.023310 0.017740
0.023273 -0.032015 0.005924
-0.061348 -0.007941 -0.021200
-0.012032 0.035966 -0.003031
0.025900 0.025948 -0.011364
-0.054703 -0.054688 0.010458
-0.035275 -0.026536 0.027400
0.021725 0.015905 -0.011517
0.026891 0.049289 -0.004891
-0.044510 0.014957 0.018368
-0.024452 -0.002897 0.027400
-0.055677 -0.056260 0.006217
-0.043875 -0.052517 0.018385
-0.012215 0.035846 -0.000176
0.034331 -0.009592 0.017301
0.058880 0.015264 -0.003767
0.028614 -0.014840 -0.017846
0.052456 0.009276 -0.004279
0.055520 0.012386 0.002750
0.054018 0.011134 -0.006476
-0.057449 -0.036936 0.018198
-0.011177 0.035643 -0.001385
-0.022783 0.030027 -0.016363
-0.032881 -0.025381 0.026400
0.015532 0.056941 0.017111
-0.050092 -0.010341 0.018400
-0.047690 -0.012830 0.027400
0.027722 -0.028338 -0.001200
0.026785 -0.027089 0.013282
0.047909 0.004410 -0.006354
-0.034639 -0.023632 0.027400
-0.056187 -0.056739 0.008762
-0.055794 -0.048898 0.006929
-0.056095 0.004414 0.016844
-0.030890 -0.009136 0.019453
-0.004946 -0.028310 0.027400
0.051896 0.034515 0.008719
-0.014353 0.012606 0.026401
-0.009991 0.011689 0.026401
0.012439 0.027692 -0.011459
0.001613 0.045539 0.014811
-0.051993 -0.057443 0.005122
-0.059211 -0.002461 0.017514
-0.053563 -0.058217 0.005163
0.007129 0.050524 0.014824
0.010767 0.055114 -0.002027
-0.002531 0.043269 0.015620
0.032139 0.046372 -0.004380
0.032397 -0.018243 0.009860
0.016922 0.004363 0.018385
0.054732 0.008506 0.013018
-0.057250 -0.055678 0.004831
0.024790 -0.028396 0.012544
-0.046125 0.015337 0.017481
-0.024452 -0.034354 0.027400
-0.004541 -0.011806 0.019604
-0.014917 0.034295 0.015472
0.012174 0.055920 0.005400
0.010145 0.056268 0.008689
-0.057282 -0.052929 0.009004
-0.000216 0.025028 0.015110
0.038960 -0.006362 -0.009216
0.024895 0.009405 0.016802
0.011933 0.055074 0.011409
0.037038 -0.008077 -0.014211
0.023970 -0.029603 0.011357
0.042847 -0.003175 -0.004435
-0.007599 0.039262 0.014855
0.018980 0.031555 -0.012021
-0.020865 0.029501 -0.018074
-0.007560 0.040657 0.009177
-0.003616 0.042544 -0.010014
-0.045478 -0.053482 0.016664
-0.002458 0.022102 -0.021400
-0.019839 0.029300 -0.018268
0.051335 0.033923 0.012599
0.021088 0.015846 -0.011393
0.058446 0.014019 0.001291
-0.046933 0.013631 0.018189
-0.047231 -0.053006 0.003662
-0.009688 0.036633 0.011749
-0.011258 0.038393 -0.001839
-0.047141 -0.024554 0.026900
-0.003942 -0.034939 0.027399
0.003890 0.023178 0.015125
0.023297 -0.012437 0.018368
0.032502 -0.016135 -0.016574
0.025129 -0.032020 0.002579
0.022926 0.012983 -0.011076
0.024242 -0.032194 0.005491
0.009115 0.053572 -0.004080
-0.010829 0.035724 -0.003784
-0.050379 -0.051925 0.001634
0.056371 0.010268 0.004493
0.040985 -0.007140 0.010535
0.011651 0.055958 0.000852
0.029596 0.015130 -0.012833
-0.053392 -0.058425 0.006456
0.054893 0.012003 0.010002
-0.057475 -0.054462 0.008000
0.038073 -0.011174 -0.005428
0.059244 0.024315 0.012231
-0.058101 -0.053572 0.005179
0.007245 0.018166 -0.018687
0.019582 0.060796 0.014816
0.030888 -0.019846 -0.017226
0.035534 0.049544 0.013256
0.035262 -0.011300 -0.003677
-0.058682 -0.053167 0.006066
0.052506 0.008117 0.014761
-0.014401 0.034080 -0.001200
-0.031010 0.026290 -0.000599
-0.041698 -0.041564 0.018400
0.038179 -0.008832 -0.008670
-0.038673 -0.002448 0.017900
-0.057250 -0.055678 0.004831
0.054084 0.010984 -0.002488
0.015275 0.023208 -0.013378
0.014554 0.009251 0.017907
-0.031514 0.025671 -0.010373
-0.048728 0.013355 0.017017
0.054204 0.009835 -0.003430
-0.057496 -0.054362 0.009577
0.002061 -0.006850 0.026897
0.031729 -0.004417 -0.015155
0.013011 0.056931 -0.004752
-0.047018 -0.012166 0.026900
-0.039297 0.000416 0.027399
-0.055139 -0.057791 0.007361
-0.011558 0.036488 0.015562
-0.057871 -0.052600 0.007652
0.038614 -0.008461 0.015653
-0.057186 -0.056025 0.002693
-0.024867 0.013298 0.018400
0.025366 -0.031636 0.006670
0.028525 0.023612 -0.010295
-0.050972 -0.052513 0.002502
0.002216 0.045663 -0.010144
-0.028472 -0.047523 0.027400
-0.015728 0.030319 0.016687
-0.057464 -0.053075 0.008091
0.009506 0.016675 -0.016098
0.027657 -0.026387 0.013391
0.005608 0.048971 -0.005912
-0.053022 -0.056402 0.003101
0.003680 -0.031223 0.027400
0.023347 -0.001925 -0.016829
-0.048263 -0.017591 0.027400
0.024386 -0.005674 -0.018756
0.017418 0.061620 0.001072
-0.014353 0.012606 0.026401
-0.002308 0.044800 0.012197
0.041374 -0.004440 0.008050
-0.035528 -0.058565 0.017873
-0.054689 -0.043801 0.016860
0.020968 0.030977 -0.010424
-0.053805 0.007400 0.017406
0.005259 0.048544 0.014471
-0.061146 -0.028717 0.017482
-0.052214 -0.057235 0.004441
0.012319 0.055486 0.002294
0.003513 0.047117 0.014835
-0.056236 -0.054391 0.002519
-0.021067 -0.033867 0.019414
-0.011855 0.035957 -0.003021
0.030205 -0.011947 0.016120
0.016163 0.031756 -0.009335
-0.016627 -0.061005 0.018364
0.024895 0.009405 0.016802
0.036058 -0.011857 0.007268
-0.030022 0.026916 -0.006008
0.024383 -0.006038 -0.018831
-0.007108 -0.060561 0.017740
-0.058057 -0.051297 0.007412
-0.032252 0.023323 -0.001200
-0.031871 0.024617 -0.000600
0.055054 0.011014 -0.001419
0.013120 0.056023 0.008199
0.005211 0.040858 -0.011058
-0.006999 0.039781 0.014971
-0.030022 0.026916 -0.006008
-0.054787 -0.055657 0.002663
-0.050884 -0.049314 0.002489
-0.047737 -0.017609 0.017900
-0.033663 -0.013991 0.019712
0.041798 -0.002748 -0.009089
0.025333 -0.018010 0.016832
-0.004595 0.040149 0.014479
-0.003224 -0.034647 0.026938
0.015830 -0.045949 0.016734
0.055930 0.011222 0.008369
0.025691 -0.029589 0.011231
-0.014353 0.012606 0.026401
-0.030070 0.026902 0.001955
-0.016313 0.033648 -0.014712
-0.012829 -0.002897 0.027400
0.024294 -0.028259 -0.017415
0.039014 -0.008175 -0.011755
0.018514 0.062204 0.002671
0.042028 -0.002304 0.014888
-0.030173 0.023310 0.017740
0.008828 0.052053 -0.003977
-0.018006 -0.062445 -0.027400
-0.036262 -0.021838 0.017900
-0.060275 -0.004946 -0.021400
0.014563 0.029867 -0.011788
0.010039 0.054389 0.013995
-0.051655 -0.048576 0.001973
-0.026076 0.028366 0.012904
0.062030 0.021063 0.010974
0.026942 -0.025024 0.014472
0.036205 -0.011648 -0.004634
0.026492 -0.030527 -0.010873
0.026082 -0.013846 -0.018697
0.024256 -0.032020 0.006635
0.010664 0.054719 0.013262
-0.033332 0.022293 0.017759
-0.058190 -0.053922 0.003639
0.019050 0.031756 -0.011353
-0.056704 -0.056237 0.003474
0.055735 0.011430 0.011673
0.026286 -0.030309 -0.000600
-0.028057 -0.061631 -0.021201
0.022997 0.029278 -0.007985
-0.003715 -0.001549 0.017900
-0.024636 0.027923 -0.017955
0.023440 -0.010252 0.018189
0.043071 0.029119 -0.006070
-0.057940 -0.052259 0.006829
0.012319 0.055486 0.002294
-0.053335 -0.051354 0.011091
-0.030227 0.023601 0.017313
0.023413 0.014531 -0.011855
0.012477 -0.023672 0.026401
0.012811 -0.026910 0.018400
-0.003296 -0.015501 0.019603
0.045702 0.001052 -0.009742
-0.022237 -0.061823 0.017907
0.024956 -0.019038 0.017651
-0.050972 -0.052513 0.002502
0.054732 0.008506 0.013018
0.028170 -0.027015 0.011131
-0.052825 -0.057414 0.005404
-0.043875 -0.052517 0.018385
-0.006053 0.021832 0.018375
0.036416 -0.011347 0.010215
0.059158 0.014735 0.015111
-0.022522 -0.062478 -0.027201
-0.050853 -0.051439 0.011269
0.019707 0.032048 -0.010476
-0.030125 0.026744 -0.011356
-0.054192 -0.057061 0.002663
0.055753 0.011301 0.015736
0.010217 0.053467 0.014158
0.045460 0.041625 0.003699
-0.007265 -0.029505 0.019777
-0.054248 -0.044173 -0.021400
0.025224 -0.015268 0.016631
-0.011745 0.036038 -0.003634
0.010794 -0.049871 0.018177
0.014004 0.058461 0.001291
-0.007044 0.024835 -0.018695
0.020882 0.062228 0.005400
0.002355 0.003531 0.027400
0.010400 0.053481 0.014170
0.052506 0.008117 0.014761
-0.046436 -0.043789 0.009954
0.040055 -0.008086 -0.008194
-0.042550 -0.055591 -0.021201
0.032778 -0.014349 -0.016455
0.004855 0.048168 0.014998
0.022329 0.029031 -0.011885
0.011048 0.053552 0.015067
-0.023596 -0.062092 0.017406
-0.052955 -0.057250 0.009033
0.051592 0.008283 0.014798
0.020323 0.062381 0.001362
-0.025981 -0.050311 0.018400
0.018980 0.031555 -0.012021
-0.004197 0.040996 0.002938
0.020829 0.002980 -0.018671
0.042108 -0.003500 -0.003176
-0.000717 -0.019043 0.026900
0.011022 -0.025828 0.027400
0.017879 0.032201 -0.009205
0.011880 0.054811 0.012360
0.023833 -0.003767 -0.018654
-0.006567 0.039921 0.015891
0.038568 -0.010836 0.009918
0.018611 0.062006 0.000557
0.025985 0.058096 0.012014
0.028449 -0.017583 0.015792
0.013542 0.056154 0.004457
0.032249 0.018448 -0.010489
-0.033338 -0.037667 0.027399
-0.011054 0.035665 0.005154
0.044105 0.042599 0.004800
0.009369 0.013671 0.018256
0.012555 0.055582 0.007385
-0.005450 -0.060074 0.017737
0.005526 -0.054098 0.018180
-0.057700 -0.052869 0.008591
-0.058423 -0.053162 0.008313
0.022216 -0.034875 0.016860
-0.014269 0.025181 -0.027201
0.054925 0.010593 0.013549
0.015763 0.057326 -0.004893
0.033229 0.049279 -0.002595
0.054024 0.011114 0.012774
0.013629 0.012742 -0.018655
-0.000258 0.022673 -0.016658
-0.001793 0.040768 0.017385
0.008288 0.051650 0.014287
0.004123 0.047694 -0.006454
0.026512 0.013875 -0.014396
-0.001498 0.044540 -0.004429
0.001750 0.047141 0.001016
0.042741 -0.004489 -0.005669
0.026466 0.044936 0.017382
0.021381 0.030053 -0.011235
-0.057254 -0.052136 0.008266
-0.011932 -0.004399 0.019704
-0.031934 0.023326 -0.001200
0.026413 -0.009510 0.014887
-0.005369 -0.027116 0.026402
-0.008660 0.038378 -0.007989
0.024751 -0.032123 -0.006671
0.013088 0.057822 -0.003028
0.017120 0.021757 -0.013185
-0.035275 -0.026536 0.027400
-0.058272 -0.053412 0.006371
0.004438 0.047191 -0.009461
0.014016 0.012117 -0.018830
-0.000174 0.045414 0.015190
0.012061 0.055010 -0.000280
0.028216 -0.026434 0.012592
0.026344 -0.000966 0.015382
-0.042589 0.000301 0.027400
0.001813 -0.036515 0.026927
0.017453 0.032217 -0.010708
0.040631 -0.004220 -0.009340
0.006790 0.017066 -0.021400
-0.003413 -0.014508 0.026406
0.013797 0.008714 0.018364
0.036408 -0.009982 -0.006717
-0.052764 -0.058291 0.008068
0.006790 0.017066 -0.021400
-0.030130 0.025873 -0.015093
0.010664 0.054719 0.013262
-0.000593 0.042722 -0.011479
-0.006153 0.039114 -0.008764
-0.049401 -0.055287 0.008954
-0.011705 0.036388 -0.011799
0.016134 0.060664 0.013690
0.062030 0.019449 0.012351
-0.047983 -0.051336 0.016899
0.010357 -0.015944 0.026900
0.047723 0.002498 -0.007631
0.001204 -0.002708 0.026930
0.020736 0.003424 -0.016424
0.002318 0.019863 -0.021400
0.028541 0.023854 -0.007881
-0.000477 -0.039055 0.017900
-0.056902 -0.056003 0.004719
0.028642 0.023707 -0.008416
-0.051102 -0.046975 0.001374
-0.019463 0.031871 -0.015631
-0.003158 -0.016283 0.019603
-0.052866 -0.058210 0.004438
0.011048 0.053552 0.015067
-0.052705 -0.057510 0.004270
0.031420 -0.014460 0.016921
0.011511 0.054476 0.012110
-0.000381 0.044475 0.016367
0.037916 -0.011486 -0.004680
0.012601 0.027823 -0.012723
-0.033601 -0.022120 0.019408
-0.055425 -0.055122 0.009876
0.041279 -0.003411 0.014817
0.035447 0.048080 0.014893
-0.044359 -0.052638 0.018302
0.011157 0.054306 -0.002114
-0.054911 -0.056774 0.002521
-0.031455 -0.027116 0.019413
-0.010690 0.025613 -0.018743
-0.057478 -0.054096 0.002957
-0.032429 -0.059255 0.018189
0.047067 0.000434 -0.004641
-0.054612 -0.048873 0.006733
0.011419 0.054398 -0.000941
0.007051 -0.029795 0.026900
0.012160 0.056544 -0.001294
0.010149 -0.051463 0.017510
0.041188 -0.003831 0.003637
0.059823 0.017073 0.015893
-0.045663 -0.052414 0.003150
0.055974 0.011683 0.000946
-0.011258 0.038393 -0.001839
-0.034639 -0.023632 0.027400
-0.052650 -0.058416 0.005182
-0.058101 -0.053211 0.008908
0.038784 -0.010210 0.012376
0.002899 0.047933 0.015642
0.023316 0.014379 -0.011695
-0.053326 -0.056027 0.001913
-0.060400 -0.004864 0.016860
-0.031605 -0.009964 0.019527
0.037601 -0.007914 0.013805
0.009262 0.052479 -0.004273
0.027887 0.024385 -0.010341
-0.057852 -0.055276 0.008276
0.012548 0.055501 0.008799
0.036376 -0.009819 0.012311
-0.042550 -0.055591 -0.021201
0.021994 0.001125 -0.016555
0.000254 0.046090 0.014162
-0.046731 -0.051808 0.017759
-0.053960 -0.058833 0.004245
0.001299 -0.034647 0.026938
0.034353 -0.013534 -0.015460
-0.027939 0.026235 -0.017349
-0.054974 -0.056898 0.002826
-0.048744 -0.051455 0.000969
-0.020471 0.031059 -0.016656
0.044205 0.042430 0.005400
0.006749 0.028275 0.017156
-0.057186 -0.056025 0.002693
0.019219 -0.039702 0.017907
0.010933 0.053140 -0.006840
-0.028357 0.027091 -0.015436
0.040055 -0.008086 -0.008194
-0.000264 0.045341 -0.008730
-0.027652 0.024410 0.016860
-0.036634 -0.028368 0.017900
0.013280 0.055882 0.001307
-0.003861 0.040800 0.014385
0.018514 0.062204 0.002671
0.021021 0.062172 0.001402
0.017697 0.061034 -0.001837
0.038584 0.047235 0.000130
-0.010236 0.037364 -0.006533
-0.012019 0.035886 0.003914
0.011559 0.055364 -0.005592
-0.016284 0.008251 0.019399
-0.051300 -0.058053 0.005465
-0.011158 -0.060880 0.018198
-0.046434 -0.009994 0.017900
-0.057887 -0.053483 0.003498
-0.057157 0.002616 0.016753
0.012337 0.055278 0.004355
0.020122 0.053951 -0.005022
-0.062306 -0.013030 -0.027201
-0.011733 0.035034 -0.015224
0.025033 -0.007111 -0.017403
-0.019312 0.025277 0.017044
0.012548 0.055501 0.008799
0.020967 0.017764 -0.013390
0.032746 -0.017834 -0.015158
-0.021125 0.027771 0.015729
0.030206 -0.022210 0.014438
0.054826 0.010957 -0.005762
0.024055 0.013708 -0.011881
-0.058761 -0.036067 0.017406
0.011134 0.055473 0.012471
-0.005155 -0.060277 0.017328
0.028661 -0.024430 0.014215
0.011384 0.054607 -0.001507
-0.047469 -0.049193 0.000861
0.040237 -0.006535 -0.011146
-0.006999 -0.008029 0.019772
-0.035992 -0.039091 0.017900
-0.053537 -0.055827 0.010990
-0.053576 -0.049918 0.009539
0.028139 -0.025072 -0.017401
-0.039578 -0.000948 0.027400
0.001709 -0.035455 0.017900
-0.018640 -0.035409 0.027400
0.020929 0.062636 0.004800
0.036019 -0.010154 -0.005289
0.000573 0.044499 -0.007402
-0.016222 -0.003384 0.019413
-0.052001 -0.057334 0.009493
0.020466 0.010366 0.015491
0.057665 0.016500 0.016933
0.014432 0.024750 0.017389
-0.033601 -0.022120 0.019408
0.027670 -0.021655 -0.018722
0.028245 -0.024141 0.014622
0.030336 0.055141 0.004800
-0.053431 -0.046824 0.007955
0.015532 0.056941 0.017111
-0.005074 -0.011410 0.019409
0.023159 0.028985 -0.010339
-0.008729 0.039870 -0.007854
-0.011535 0.036166 -0.004421
0.005392 -0.053469 0.018382
0.009892 0.054382 -0.005308
0.017384 0.058465 0.016655
0.024643 -0.006325 -0.018654
0.030158 0.054641 0.000129
-0.045624 -0.052453 0.003439
-0.010046 -0.005627 0.019498
0.028076 -0.026463 -0.015889
0.055611 0.012694 0.006122
-0.060832 -0.022330 0.018379
0.011937 0.054651 -0.002834
-0.055341 -0.057870 0.003004
-0.023371 0.026289 0.015031
0.033705 -0.015251 0.015921
0.044218 0.000202 0.014832
0.028525 0.023612 -0.010295
0.013226 0.054559 0.017374
-0.002726 0.043086 0.009926
0.019713 0.004574 -0.018829
-0.013006 -0.049642 0.019400
0.011049 0.055800 0.015185
-0.008579 0.038269 0.014349
-0.010314 0.036553 -0.014284
-0.007190 0.037610 0.017173
-0.047133 -0.051924 -0.021400
0.009705 0.013839 0.018081
-0.012318 0.035816 0.011400
-0.003670 -0.000264 0.017900
-0.057186 -0.056025 0.002693
0.007636 -0.036042 0.026401
0.006814 0.017049 -0.027400
-0.012959 0.035503 -0.014186
-0.052451 -0.058291 0.005819
0.026688 0.014251 -0.014384
0.038821 -0.006301 0.014981
-0.006387 0.039130 0.014297
0.013335 0.056210 0.007595
0.003569 0.019385 -0.018850
0.016934 0.006108 0.017907
0.023988 0.013511 -0.011730
-0.046443 -0.052759 -0.027201
-0.002726 0.043086 0.009926
-0.011557 0.036086 0.007894
0.027105 -0.028246 0.011728
0.012025 0.056343 0.006605
-0.019426 0.031249 0.015492
0.011077 0.019952 0.015492
0.021854 0.001226 -0.016644
0.018543 0.032236 -0.010451
-0.006990 0.039558 -0.009371
-0.054386 -0.056468 0.009358
-0.045828 -0.044395 0.002503
0.011012 0.012010 0.018303
0.006847 0.016151 0.018066
-0.058129 -0.051223 0.006198
0.001363 -0.057843 -0.021200
-0.017598 0.032692 -0.015786
0.062251 0.018716 0.002766
-0.027555 0.028078 -0.011029
-0.055579 -0.056062 0.010524
0.031672 0.019886 -0.010384
0.010971 0.056183 0.005463
0.035517 -0.011362 0.006160
0.011462 0.054504 -0.001677
-0.007432 0.039225 -0.009262
-0.042618 -0.046971 0.008163
-0.050588 -0.054108 0.002192
0.050421 0.007304 -0.005333
-0.050432 -0.046230 0.001560
0.023970 -0.029603 0.011357
0.035719 -0.011033 0.008552
0.022248 -0.002412 0.016734
-0.002993 0.041461 0.014924
0.044490 0.000538 -0.007914
0.049640 0.005363 -0.007924
0.003905 0.050406 -0.003700
-0.057415 -0.054261 0.008998
-0.010891 0.035882 -0.005017
-0.046061 -0.054137 0.005518
0.016971 -0.043339 0.017907
-0.060417 -0.028494 0.018177
-0.046967 -0.029998 0.027400
0.028610 -0.020140 -0.018486
0.046967 0.000986 0.011005
0.043185 -0.000904 -0.008554
0.024956 -0.030151 0.010756
0.024909 0.013076 -0.013445
0.035499 -0.010919 -0.002568
0.032025 0.016646 -0.009170
-0.054687 -0.056163 0.003273
0.028545 -0.026241 -0.013932
0.000952 0.044818 0.014871
0.005331 0.019627 -0.016291
-0.007459 0.039049 -0.009061
-0.053596 -0.046636 0.005985
0.061976 0.018391 0.011367
0.024209 -0.031527 0.008359
-0.044890 -0.036081 0.019400
-0.035407 -0.045321 0.019400
0.014476 0.058973 0.010289
0.042686 -0.002877 -0.008983
0.008896 -0.028714 0.027400
-0.054480 -0.057002 0.009155
0.055520 0.012386 0.002750
0.017069 0.059798 -0.003411
-0.017366 0.032849 -0.000600
-0.053622 0.007772 -0.027400
-0.058481 -0.052732 0.007726
0.003645 0.047007 0.014989
0.023833 -0.003767 -0.018654
0.047714 0.004427 -0.007070
0.024633 0.004799 0.015695
0.055435 0.010722 -0.004227
0.020494 0.062585 0.003210
0.025995 -0.029305 -0.016151
-0.054339 -0.056214 0.002590
-0.010636 0.036916 0.012086
0.010688 0.013879 0.017328
0.051471 0.008343 0.014873
0.055165 0.010760 -0.003164
0.028078 0.009075 0.017337
0.035265 -0.009701 0.017190
-0.056875 -0.054049 0.010141
-0.046653 -0.053579 0.006847
-0.028766 -0.030220 0.019410
-0.051225 -0.049015 0.001722
-0.010156 0.037257 -0.007486
-0.058662 -0.052617 0.006531
-0.058387 -0.052489 0.005617
0.003159 0.046648 0.014978
0.011918 0.055020 0.001646
-0.010780 0.035887 -0.004005
0.037703 -0.011719 -0.004032
-0.033875 -0.014745 0.019712
-0.053276 -0.057570 0.005144
0.039755 -0.008817 0.013627
0.027835 0.022838 -0.012388
0.002637 0.046457 0.016818
0.053944 0.007764 0.013586
-0.000832 -0.008320 0.027400
0.020282 0.001181 0.017514
0.039512 -0.009425 0.012483
0.022037 0.054585 -0.004368
-0.011763 0.036140 0.007982
-0.054547 -0.056481 0.002377
-0.053818 -0.057261 0.009899
0.001260 0.021699 -0.018723
0.009686 -0.029998 0.027400
-0.015039 0.031079 0.016856
0.011776 0.055892 0.009707
-0.000507 -0.029305 0.027400
0.019557 0.060207 0.015307
0.010185 0.026619 0.017260
-0.003676 0.040939 0.014904
-0.000951 -0.027894 0.017900
0.042855 -0.002653 0.016059
0.044102 0.037935 0.015861
-0.019734 -0.049134 0.027400
0.024244 -0.032222 -0.006929
0.059785 0.016329 0.015676
-0.053623 -0.057848 0.007794
-0.025547 -0.032807 0.026407
0.001815 -0.036587 0.017900
0.057266 0.013086 -0.004250
0.010867 0.023813 0.016793
-0.038200 -0.029845 0.017900
0.048510 0.032709 0.016005
-0.056099 -0.055838 0.005977
-0.032755 -0.060325 -0.027201
-0.006048 0.040692 -0.008801
-0.030227 0.023601 0.017313
0.055705 0.010888 0.010405
-0.038822 -0.002237 0.026935
-0.042589 -0.037552 0.027400
0.013256 0.055620 -0.005787
-0.055510 -0.055196 0.010547
0.023947 -0.031412 -0.013962
-0.062613 -0.019241 0.016832
-0.046624 -0.053574 0.009413
-0.047690 -0.012830 0.027400
-0.031853 0.025141 0.006278
0.055514 0.012403 0.008516
-0.000832 -0.008320 0.027400
-0.024364 0.025013 -0.027200
-0.056805 -0.055048 0.002721
-0.057710 -0.055208 0.005700
-0.016656 -0.061498 0.018198
0.017190 0.031625 -0.011799
0.029768 0.022112 -0.008662
0.028920 0.015113 -0.013517
-0.025072 0.027736 0.014301
0.009667 0.015091 -0.027201
0.028101 -0.019718 0.015907
0.025475 -0.030309 0.010258
-0.054566 -0.047708 0.005663
-0.032881 -0.025381 0.026400
-0.047346 0.012546 0.018373
0.036191 -0.009904 -0.007646
-0.011167 0.035660 0.003147
0.019713 0.004574 -0.018829
-0.005382 0.040818 -0.009527
0.018110 0.059757 -0.003381
-0.052655 -0.052039 0.011272
0.010135 0.053389 0.013645
-0.056245 -0.054769 0.010526
0.006187 -0.054943 0.016631
0.031702 -0.008890 0.016585
-0.034057 0.000708 0.026938
-0.058070 -0.055116 0.007227
-0.057852 -0.052352 0.007499
-0.011200 0.035359 0.002467
-0.047346 0.012546 0.018373
-0.058064 -0.054838 0.005467
0.062115 0.021047 0.005400
0.036181 -0.011919 -0.013762
-0.010840 0.035761 0.007193
0.026948 -0.018875 0.014977
0.052841 0.009892 0.013917
0.053481 0.008591 0.013982
0.054828 0.012653 0.017244
0.044176 -0.001029 -0.010201
0.005128 0.049918 0.015724
0.030945 -0.020923 -0.016380
0.060941 0.020394 0.014117
0.015829 0.059590 0.015641
-0.016187 -0.003043 0.026399
0.046633 0.001977 0.016240
-0.003942 -0.037667 0.027399
0.000070 0.029303 0.016512
0.009246 0.052466 -0.003719
0.055834 0.012960 0.009277
0.009534 0.054284 0.013471
0.019832 0.061209 0.014223
-0.057661 -0.053181 0.005469
0.011613 0.054540 -0.003222
0.024846 -0.006729 -0.017440
0.023982 0.028484 -0.010420
0.050352 0.005918 -0.005495
0.016921 0.019867 0.017087
-0.054061 -0.058726 0.008777
0.015867 0.010073 -0.018808
0.044417 0.042555 0.002648
0.055139 0.012215 0.011112
0.029887 0.002600 0.017007
0.061173 0.016444 0.002470
-0.037604 -0.058223 0.017033
-0.030846 0.025405 -0.014457
0.019820 0.062622 0.005400
0.049303 0.007107 0.017259
0.034893 -0.013707 -0.000600
-0.008971 0.037925 -0.013300
-0.053375 -0.056864 0.004072
0.010925 -0.050980 -0.027400
0.029569 -0.022450 0.014898
-0.001612 -0.027669 0.027400
-0.049936 -0.053550 0.009537
0.055612 0.012536 0.005393
-0.030760 0.024665 -0.015310
0.014086 0.026692 -0.014412
-0.019312 0.025277 0.017044
0.061980 0.020048 -0.000198
-0.060393 -0.012149 0.018386
-0.004790 0.042473 0.011222
0.002233 0.047513 -0.007723
0.007687 0.053854 0.013642
-0.061821 -0.022253 0.017900
0.026063 -0.026729 0.013667
0.035819 -0.012000 0.001572
0.041475 -0.004246 -0.009286
0.023705 -0.032202 -0.006989
-0.007459 0.039049 -0.009061
-0.051550 -0.048686 0.010891
0.042987 -0.002722 0.014840
-0.016497 0.004059 0.027399
-0.012622 0.024784 -0.027400
-0.002469 -0.033959 0.026933
0.012160 0.056544 -0.001294
-0.002218 0.044716 -0.005634
0.026819 -0.017528 0.014910
0.061338 0.016627 0.005400
0.010920 0.054067 0.012854
-0.004381 0.040375 0.014409
0.062667 0.020319 0.004798
-0.057436 -0.055459 0.008062
0.013120 0.056022 0.003428
-0.006867 -0.060091 0.018076
0.018574 0.013340 0.015638
-0.010157 0.036087 0.010584
-0.002971 0.022158 0.017481
0.023674 -0.006477 -0.021200
0.056006 0.022503 0.016310
-0.053070 -0.058088 0.008732
-0.059747 -0.008847 0.018386
-0.047469 -0.049193 0.000861
0.019865 0.061673 0.013382
0.054841 0.011917 -0.000797
-0.002436 0.022093 -0.027400
-0.057470 -0.054607 0.009146
0.059244 0.024315 0.012231
-0.053211 -0.050269 0.009892
-0.001189 0.043971 -0.010402
0.023520 0.054211 0.016603
0.054716 0.011539 0.012470
0.005894 0.050546 -0.005560
0.013716 -0.047471 0.017907
0.018938 0.005893 -0.018812
-0.035785 -0.033537 0.026939
0.039920 -0.006851 -0.008741
-0.033031 -0.024718 0.019561
-0.033273 -0.024417 0.019740
-0.012215 0.035846 -0.000176
-0.043372 0.016956 0.017900
-0.052453 -0.056973 0.003880
-0.035661 -0.011455 0.017900
0.011634 0.056373 -0.003754
-0.006651 0.038720 -0.008655
-0.001808 0.022019 0.016645
-0.052767 -0.056663 0.003407
-0.009290 0.036759 0.012487
-0.026076 0.028366 0.012904
0.002192 -0.057182 -0.021400
-0.011194 0.035636 0.000970
0.016971 -0.043339 0.017907
0.007722 -0.007977 0.026900
0.028037 0.054051 -0.002373
0.054991 0.012031 0.011637
0.024256 -0.032020 0.006635
-0.008507 0.037459 0.013439
-0.032303 0.024372 -0.003613
0.030641 -0.017516 -0.017646
0.015651 0.060399 0.013575
-0.005589 -0.060636 0.016664
-0.052582 -0.056753 0.002519
0.062520 0.019407 0.004800
0.013118 0.056007 0.009984
-0.058295 -0.054621 0.005976
-0.048341 -0.049736 0.000783
-0.007541 0.037896 -0.009525
0.040465 -0.007671 0.013873
-0.038363 -0.038856 0.027399
-0.056248 -0.041454 -0.027248
0.055604 0.012523 0.004605
-0.055779 -0.054429 0.010321
0.011604 0.056026 -0.004611
0.002946 0.017885 0.018366
0.038101 -0.008643 0.014234
-0.033814 -0.002237 0.026935
0.046871 0.001682 0.004220
-0.010616 0.038557 0.011678
0.054018 0.011134 -0.006476
-0.013359 -0.033287 0.019498
0.002640 0.049141 -0.005416
-0.027897 0.027899 -0.011790
0.039799 -0.005151 -0.009410
-0.042192 -0.055819 -0.027201
-0.056019 -0.053339 0.001903
-0.054938 -0.057970 0.006360
0.009799 0.052795 0.014679
0.061221 0.017790 -0.001397
-0.009810 0.036304 -0.006385
0.035280 -0.009899 -0.015073
-0.015007 -0.061800 0.017907
0.012129 0.055084 0.011405
-0.055847 -0.054392 0.009644
-0.004776 0.008569 0.027400
-0.006554 0.038889 -0.009164
0.017756 -0.043393 -0.021200
0.030109 -0.022965 -0.009947
0.055630 0.009562 -0.000474
0.008634 0.054789 0.013108
-0.008337 0.037187 -0.014136
0.039582 -0.006778 0.014800
-0.018278 0.028756 0.016146
0.035187 0.049194 0.014099
-0.001899 -0.033178 0.027400
0.015518 0.060261 -0.000697
0.051335 0.033923 0.012599
-0.000174 0.045414 0.015190
0.042108 -0.003500 -0.003176
-0.008702 0.011291 0.019400
0.051144 0.008082 0.014977
-0.004265 0.041492 -0.009288
-0.000164 0.044531 -0.010386
0.009153 0.053274 0.016305
-0.005450 -0.060074 0.017737
0.025540 0.057786 0.013291
-0.048988 -0.054503 0.005291
0.038919 -0.008043 -0.012313
0.041245 -0.003116 0.016975
0.006251 0.050936 0.015757
-0.053043 -0.057196 0.008106
-0.016931 0.033284 0.014871
-0.061324 -0.026109 0.017900
-0.010638 0.035733 -0.004639
-0.001795 0.044222 0.010707
0.040631 -0.004220 -0.009340
-0.000454 -0.004206 0.027399
-0.045663 -0.052414 0.003150
0.054699 0.008458 -0.002154
-0.035810 0.002310 0.027399
0.026535 0.005821 0.016589
-0.053186 -0.057015 0.003423
-0.034352 -0.019230 0.019696
-0.055652 -0.056086 0.009850
0.021500 -0.000546 -0.027201
-0.003892 -0.022933 0.019411
-0.030883 0.024285 -0.015113
0.027537 -0.027263 0.012548
0.027767 0.011732 -0.010994
0.014712 0.030110 -0.011828
-0.014747 0.034593 0.014977
-0.053833 -0.048450 0.003311
-0.056874 -0.056059 0.004185
-0.033058 -0.036303 0.027400
-0.048664 -0.049554 0.018076
0.023985 -0.004411 -0.018756
0.056110 0.012008 0.006752
-0.011691 0.037763 0.008167
0.055490 0.025470 0.015520
-0.053482 -0.057375 0.008218
0.005530 0.048979 0.014326
0.030758 -0.019301 -0.017499
0.038115 -0.011525 -0.002797
-0.048633 0.013140 0.017482
-0.058156 -0.000029 0.017514
0.000415 -0.007773 0.026900
0.004942 0.049710 -0.005278
0.035719 -0.011033 0.008552
0.056256 0.011934 -0.000590
-0.012019 0.035886 0.003914
0.024426 -0.005297 -0.017290
0.041906 -0.005923 0.011590
0.045596 0.001893 0.014877
-0.025349 -0.032852 0.019704
-0.023508 -0.062368 -0.021201
-0.054203 -0.057371 0.009920
0.041932 0.044804 0.001750
-0.022783 0.030027 -0.016363
0.040807 -0.006884 0.008276
-0.009157 0.036757 0.012832
0.007058 0.016471 0.017734
-0.005279 -0.010318 0.019749
-0.009810 0.036304 -0.006385
-0.048383 -0.049694 0.012015
-0.009290 0.036759 0.012487
0.053232 0.027005 -0.003336
0.002789 0.048229 0.014200
0.020018 0.002379 0.016613
0.013811 0.011128 -0.018850
-0.008809 -0.047523 0.027400
0.017854 0.032785 -0.008017
-0.059799 -0.032224 0.017907
0.046103 0.001079 0.014813
0.036205 -0.011648 -0.004634
-0.031878 0.025414 -0.001200
0.028449 -0.017583 0.015792
0.008828 0.052053 -0.003977
-0.054945 -0.058266 0.009434
-0.055480 -0.053910 0.002502
0.035280 -0.009899 -0.015073
-0.047638 -0.021307 0.017900
-0.027492 -0.048881 0.026401
-0.032101 0.023896 -0.010593
-0.032529 -0.025569 0.019479
0.030008 -0.021571 -0.017441
0.010356 0.055120 0.012305
0.010681 0.055415 0.011501
-0.030519 0.025056 0.010201
0.007769 -0.033932 0.027400
0.058514 0.025903 0.010901
-0.052224 -0.047090 -0.021600
-0.022483 -0.060792 0.018386
0.007763 0.053857 0.009986
-0.022280 0.030028 -0.016966
0.017125 -0.043952 -0.021400
0.019704 0.031796 -0.008636
0.035867 -0.010876 -0.005017
0.011933 0.055074 0.011409
-0.036232 -0.022003 0.026903
0.012967 0.022924 -0.011053
0.055322 0.012274 -0.005888
-0.034329 -0.020147 0.026402
-0.023867 0.028571 0.014652
0.011467 0.025545 -0.011525
-0.045828 -0.044395 0.002503
-0.050092 -0.054603 0.002697
-0.051941 -0.057503 0.007406
0.006104 0.026405 -0.014516
-0.029195 -0.030128 0.019544
-0.004729 0.040812 0.001560
-0.054827 -0.058369 0.006477
0.027044 -0.020771 0.015166
0.025995 -0.029305 -0.016151
-0.055020 -0.056916 0.004611
0.013256 0.055620 -0.005787
0.026957 -0.029896 0.005800
-0.047398 -0.050679 0.011628
0.045771 -0.001246 0.013779
-0.035147 -0.012835 0.027400
-0.012120 0.037520 -0.001517
0.040465 -0.007671 0.013873
-0.056976 -0.052415 0.003897
0.053466 0.010246 0.014148
0.062329 0.018727 0.005401
-0.035668 -0.012938 0.017900
0.021770 0.030084 -0.008355
-0.006127 0.023232 0.017482
-0.057442 -0.055762 0.007385
0.047442 0.000721 -0.006177
-0.046434 -0.009994 0.017900
0.055281 0.011840 -0.005794
-0.010265 0.037211 -0.009463
-0.031010 0.026290 -0.000599
0.043070 -0.002869 0.010276
-0.052508 -0.057687 0.004726
-0.058306 -0.052749 0.004732
0.010847 0.054068 -0.002569
-0.044601 -0.045615 0.010345
0.026048 0.026078 -0.008719
-0.057794 -0.055409 0.006368
-0.011828 0.035980 -0.014268
0.036186 -0.011435 0.008720
0.041568 -0.006346 -0.005499
0.040487 -0.007155 -0.001434
0.033699 -0.015766 0.003201
-0.042976 -0.006277 0.027400
-0.029157 0.026258 0.011453
-0.005459 -0.026579 0.019414
0.004111 -0.006506 0.017900
-0.040155 -0.057034 -0.021599
0.006594 0.015266 0.018385
-0.004474 0.041332 0.007807
-0.027443 -0.061069 0.017907
-0.009762 0.037530 -0.007894
0.024958 0.013192 -0.013233
0.051059 0.033056 0.014099
-0.050924 -0.048263 -0.021400
-0.011741 0.036312 0.004018
0.009738 -0.012166 0.017900
0.036186 -0.011435 0.008720
-0.016313 0.033648 -0.014712
-0.020336 0.027772 0.015723
0.011157 0.054306 -0.002114
0.043463 -0.002263 0.015624
-0.044359 -0.052638 0.018302
0.013266 0.056167 0.002586
0.036416 -0.011347 0.010215
-0.002044 -0.057904 0.018302
-0.033969 -0.016018 0.019492
0.029221 -0.024579 0.013254
-0.011135 0.035398 -0.002334
-0.055217 -0.056599 0.002956
0.044063 -0.001183 -0.008359
0.029846 -0.016555 0.016564
-0.054220 -0.050471 0.002270
-0.056486 -0.056720 0.007964
-0.052226 -0.057132 0.009815
0.024639 -0.029609 0.011446
0.012548 0.055501 0.008799
0.027887 0.024385 -0.010341
-0.057711 -0.052753 0.005297
-0.013793 0.034900 -0.008106
-0.008172 0.038510 -0.008762
-0.049106 -0.020811 0.027400
-0.040226 -0.055136 0.018366
0.053888 0.010974 -0.001813
0.056133 0.011945 0.008019
0.026459 -0.006196 0.014986
-0.031205 0.023965 0.009097
-0.008909 0.038498 0.015190
-0.049725 -0.052566 0.010852
-0.051220 -0.047708 0.017514
0.040155 -0.006310 -0.011812
0.037681 0.038196 -0.005381
-0.036014 0.020835 0.018066
-0.042852 0.017904 -0.027400
0.010001 0.056228 0.007622
0.048978 0.037883 0.003712
0.016436 0.031672 -0.011044
0.004775 0.048233 0.014856
0.001592 0.000205 0.017900
0.038879 -0.010448 -0.005196
-0.055680 -0.049009 0.007738
0.027118 -0.027913 -0.016054
-0.012083 0.035857 -0.000599
-0.058190 -0.053922 0.003639
-0.033031 -0.024718 0.019561
0.008455 0.051723 -0.004672
-0.058077 -0.054709 0.003086
0.002354 0.046020 0.014379
0.037522 -0.009528 0.013492
0.026107 0.026471 -0.010422
0.012116 0.055076 0.009381
-0.015616 0.007110 0.027400
-0.010673 0.028343 0.015049
-0.053254 -0.058452 0.008183
0.039960 0.045430 0.013258
-0.058089 -0.052711 0.008211
0.055781 0.011408 0.013800
0.019570 0.060345 -0.002508
-0.044507 -0.052155 0.008082
0.024284 0.054958 0.016194
-0.050092 -0.054603 0.002697
-0.011170 0.035480 0.000880
-0.052204 -0.052481 0.011289
-0.057938 -0.053733 0.008083
-0.009799 0.025675 -0.017742
-0.050415 -0.049838 0.011299
0.009629 0.055801 0.011329
-0.054243 -0.057629 0.009306
-0.047064 -0.026963 0.027400
-0.047582 -0.042608 0.008326
-0.012302 0.035819 -0.007448
0.055879 0.011792 0.009694
-0.013616 -0.062362 -0.021599
-0.056031 -0.057080 0.003959
-0.054175 -0.048101 0.004034
0.019646 0.031438 -0.011371
-0.011167 0.035381 0.003699
-0.018995 -0.034370 0.019765
-0.045562 -0.044657 0.010369
0.008198 0.016231 0.016664
0.009843 0.016058 -0.018807
-0.048271 -0.054002 0.009145
-0.053148 -0.057091 0.004461
0.040929 0.040887 -0.003232
0.048978 0.037883 0.003712
0.043178 -0.004444 -0.007993
0.017879 0.032201 -0.009205
-0.014353 0.012606 0.026401
-0.005589 -0.060636 0.016664
-0.021263 0.007839 0.019401
0.018041 0.061932 0.010811
-0.047562 -0.015219 0.026900
0.011222 0.015019 -0.018683
-0.013108 0.025038 -0.018850
0.054979 0.010213 -0.001382
0.060119 0.015407 -0.000893
-0.046738 -0.053492 0.005220
0.057020 0.013291 0.016408
0.014258 -0.047561 -0.027400
0.057373 0.027723 0.009585
-0.006768 -0.059157 0.018389
0.026325 -0.018299 -0.018752
0.017496 0.004529 0.018198
0.044309 -0.003062 -0.007469
-0.002469 -0.033959 0.026933
0.026167 -0.016401 -0.018817
0.012001 0.055188 0.008451
0.040786 -0.006906 -0.003243
-0.002579 -0.059400 -0.027400
-0.027340 -0.060646 0.018198
-0.029665 0.023989 -0.016363
0.042987 -0.002722 0.014840
0.036749 -0.009450 -0.014305
-0.021654 0.006562 0.027295
-0.011220 0.035341 0.000851
0.010973 0.054175 -0.001530
0.006671 -0.054401 -0.021400
-0.058726 -0.054485 0.003986
-0.003199 -0.018770 0.019418
-0.030296 0.025670 0.010144
0.040786 -0.006906 -0.003243
0.047162 0.002983 -0.009243
0.046925 0.037793 -0.001196
0.012383 0.055552 0.002971
0.059081 0.015574 0.016012
0.039173 0.044582 0.014905
-0.061884 -0.013918 0.017734
0.027226 0.012274 -0.013034
0.024956 -0.019038 0.017651
-0.016656 -0.061498 0.018198
0.019376 0.062316 0.001414
-0.055480 -0.053910 0.002502
0.007722 -0.007977 0.026900
-0.011711 0.036341 -0.002294
0.053374 0.008911 0.014669
0.041707 0.043534 -0.000788
-0.034363 -0.017817 0.019725
-0.000951 -0.027894 0.017900
-0.005670 0.041351 0.014124
0.030589 -0.019687 0.015728
0.049593 0.026099 -0.004991
-0.032334 -0.008941 0.027400
0.026609 0.011258 -0.011277
0.060915 0.016867 -0.001207
-0.056187 -0.054013 0.002672
-0.001627 0.042888 -0.008150
-0.003783 0.043676 -0.007895
0.022171 0.002560 0.014908
0.031654 -0.002182 0.016809
0.009629 0.055801 0.011329
-0.056614 -0.055203 0.009844
-0.054029 -0.056172 0.010128
-0.001801 -0.010040 0.027400
-0.008012 0.037802 0.013840
0.045469 0.003836 0.017389
0.048469 0.003844 -0.006344
-0.034008 0.000620 0.017900
0.042219 -0.002145 -0.008956
0.025185 0.027386 -0.010423
-0.002914 -0.019845 0.026403
0.013670 0.056720 0.016847
-0.020265 0.003689 0.027399
0.009534 0.054284 0.013471
0.009830 -0.032162 0.026401
-0.047694 -0.054584 0.006046
-0.053259 -0.056099 0.010837
0.023440 -0.010252 0.018189
0.010788 0.055048 -0.001841
-0.051161 -0.049038 0.000806
0.036411 -0.009631 -0.007282
-0.051926 -0.050355 0.001637
0.033647 -0.016020 0.012772
0.024701 -0.028964 0.012074
-0.004709 0.042670 -0.005698
0.017120 0.021757 -0.013185
-0.020948 -0.062237 0.017514
0.020831 0.000873 -0.021599
0.023764 -0.032041 -0.011181
0.004418 0.004313 0.018400
-0.043596 0.017220 0.017505
-0.055482 -0.057434 0.004483
0.011529 0.054644 0.012602
0.050363 0.005746 -0.007154
-0.006386 0.039129 0.014297
0.047162 0.002983 -0.009243
0.053213 0.006903 0.013608
-0.058310 -0.054897 0.006505
-0.057282 -0.052929 0.009004
0.025513 -0.009570 -0.017815
0.025912 0.012391 -0.011404
-0.000202 0.001764 0.017900
0.014824 0.021898 -0.011381
-0.011341 0.038330 0.002351
-0.031450 0.024997 -0.013540
0.023297 -0.012437 0.018368
-0.042030 -0.055331 0.017733
0.054728 0.010459 0.013556
-0.002642 -0.034047 0.017900
-0.057952 -0.052248 0.006142
-0.011733 0.035034 -0.015224
0.043280 0.041813 0.013748
0.024821 -0.011609 -0.021200
0.012160 0.056544 -0.001294
0.026261 -0.014853 -0.018479
0.024021 -0.031952 -0.000600
-0.058129 -0.051223 0.006198
-0.017714 0.009251 0.019400
0.018218 0.005450 -0.021599
-0.055856 -0.053497 0.010988
0.049668 0.006516 -0.005696
-0.047200 -0.031970 0.026401
-0.058445 -0.053633 0.006630
-0.032334 -0.028310 0.027400
-0.003783 0.043676 -0.007895
0.053717 0.007442 -0.003151
0.044218 0.000202 0.014832
-0.021067 -0.033867 0.019414
-0.001374 0.043702 0.001775
-0.007108 -0.060561 0.017740
0.040150 -0.008199 -0.001765
-0.045196 -0.051467 0.009949
-0.029592 0.024606 0.011484
0.002658 0.019650 0.017287
0.024354 -0.030655 0.010083
-0.056124 -0.041044 0.017514
-0.011855 0.035957 -0.003021
-0.033933 -0.019938 0.019402
0.003463 0.047081 -0.006742
-0.044259 0.017178 -0.021200
0.028213 0.022898 -0.012179
-0.033542 -0.001160 0.026927
-0.000593 0.042722 -0.011479
0.028920 0.015113 -0.013517
0.026919 -0.029321 -0.001200
0.011913 -0.050280 0.016695
0.001370 0.045867 0.016476
0.009689 0.052871 -0.003386
0.032308 0.017160 -0.010914
-0.058718 -0.052922 0.007065
-0.034694 -0.003218 0.026929
0.056422 0.029206 0.007737
-0.005959 0.041968 0.011988
0.011449 0.055916 0.005475
0.024256 -0.005039 -0.018654
-0.053901 -0.057710 0.008412
0.056329 0.010146 0.005450
-0.015731 -0.033964 0.019544
-0.057989 -0.053477 0.005517
-0.008702 -0.048542 0.019400
0.026413 -0.009510 0.014887
-0.056235 -0.056877 0.008388
-0.028081 0.026314 0.012652
-0.056371 -0.055566 0.004611
0.061365 0.019878 0.013968
0.011222 0.015019 -0.018683
-0.060932 -0.028197 0.017875
-0.010157 0.036087 0.010584
-0.047580 -0.052651 0.003029
-0.023867 0.028571 0.014652
-0.026076 0.028366 0.012904
0.007490 -0.030101 0.027400
-0.046270 -0.008651 0.027400
0.026835 0.025521 -0.008441
0.061338 0.016627 0.005400
-0.062255 -0.024376 0.016644
0.036885 -0.007007 -0.014185
0.021947 0.016834 -0.013296
-0.044128 -0.053402 0.018066
0.017788 0.032338 -0.008971
-0.054248 -0.048036 0.008577
0.049342 0.005491 -0.008330
0.006104 0.026405 -0.014516
0.023334 -0.026734 0.018256
0.058446 0.014019 0.001291
0.016232 0.059331 0.016099
0.033705 -0.015251 0.015921
0.027657 -0.026387 0.013391
0.013493 0.011467 -0.027201
0.037916 -0.011486 -0.004680
0.047295 0.003697 0.014826
-0.058193 -0.053536 0.007445
0.027609 -0.028628 0.005393
0.000006 0.022293 -0.018724
-0.006306 -0.028412 0.019788
