0.000556 0.046151 -0.021821
0.043160 0.009313 -0.049106
0.019980 0.065308 0.007911
0.007975 0.060804 -0.009103
0.038477 -0.043510 -0.045431
0.003682 0.019360 0.032177
0.005025 -0.058396 -0.024528
0.030247 0.063933 0.018067
-0.011544 -0.054322 0.010648
-0.041556 0.030196 0.022974
0.002451 -0.055283 -0.006132
0.001578 0.001758 0.048749
0.054472 0.060964 0.011233
0.042815 0.063050 0.012863
-0.076432 0.017700 0.011878
0.042903 -0.058785 0.036669
0.026065 0.065757 0.007756
-0.069151 0.022620 0.020902
-0.000276 0.010395 -0.021349
0.032826 0.064774 0.013750
0.010467 -0.047102 0.032709
0.006620 -0.024405 -0.022090
0.070360 -0.036890 0.026196
-0.001784 0.020103 0.033155
-0.010433 -0.053766 0.019443
-0.004559 0.019583 0.032469
0.013340 -0.042483 0.033917
0.078448 -0.031846 -0.032210
0.039100 0.063134 0.008363
0.030348 0.064680 -0.008513
-0.011821 0.023483 -0.020500
0.065530 0.052198 -0.035884
0.007608 0.022574 -0.027344
-0.016246 0.009562 0.047715
-0.017648 0.005261 0.048459
0.015194 -0.041053 0.034131
-0.066521 0.025881 -0.002332
0.031497 0.064944 0.008074
-0.043434 0.009084 0.048716
0.011652 -0.024366 -0.030603
0.015703 0.065239 -0.004557
0.071615 0.054417 0.011044
0.053938 0.061380 -0.026774
0.050394 0.059965 -0.035434
0.045873 0.062511 0.013141
0.084897 -0.043104 0.002896
-0.088451 -0.025309 0.016259
0.079623 0.040438 0.013631
-0.037695 -0.013197 0.047394
0.021019 -0.000528 0.035694
0.088918 -0.021243 -0.015561
0.064260 -0.062155 -0.045851
-0.029829 0.033251 -0.019480
-0.046412 -0.018402 0.046216
-0.082680 0.007827 0.022953
-0.033827 0.034270 -0.018486
0.003711 0.017041 0.033526
-0.004559 0.019583 0.032469
0.003504 0.044780 0.020928
0.044795 -0.031115 -0.048009
0.014284 -0.061173 -0.032180
0.046370 0.062332 -0.030632
-0.064291 0.015563 0.031411
-0.039358 0.024216 0.030499
-0.024514 0.025927 0.029560
0.003434 0.052241 0.013203
0.007299 -0.045102 -0.021170
0.033763 0.064646 0.007253
-0.016449 0.026645 -0.020297
0.037961 -0.021981 -0.049381
0.003395 0.041260 -0.024111
-0.087054 -0.001539 0.022401
0.049081 0.061369 0.009682
0.071148 -0.012997 -0.042200
0.029187 0.065409 0.002549
0.005859 -0.036509 0.044566
-0.077672 0.013466 0.024252
-0.042645 -0.016578 0.046929
0.013714 -0.031012 0.039333
0.080164 -0.049225 0.015395
0.023864 0.062474 -0.031896
0.085703 -0.065832 -0.016828
0.002245 0.020383 0.031157
-0.027023 0.012722 0.042758
0.069960 0.056076 0.010820
-0.061335 -0.044428 0.038055
0.013066 0.027229 0.030457
0.017575 0.062603 -0.026199
-0.040662 0.033767 -0.013496
-0.030768 0.033477 -0.019316
0.083016 -0.032114 -0.024991
0.088959 -0.059188 -0.008453
0.007281 -0.024377 -0.022769
0.003538 -0.044110 -0.022980
-0.014061 -0.054532 0.024517
0.075669 0.052929 0.003437
-0.066521 0.025881 -0.002332
-0.046905 0.008571 0.048278
0.052528 -0.043104 0.033310
0.005446 -0.019343 -0.020932
-0.025402 0.030997 -0.019837
-0.078141 -0.046669 -0.002332
0.039502 0.061061 -0.036181
0.061977 0.059221 -0.004718
-0.016334 0.045984 -0.006732
0.074792 -0.023654 0.026899
0.047014 -0.044767 -0.046150
0.061808 0.043811 0.029181
0.024036 0.058803 0.025023
0.008514 -0.066432 -0.023344
0.024103 0.058517 -0.035966
0.065226 0.053227 -0.035250
-0.040071 -0.004517 0.046883
0.061372 -0.034151 -0.044197
0.012848 -0.038639 0.036911
0.035078 0.048755 0.031618
0.019970 -0.001908 0.035601
0.045697 0.061621 -0.009881
0.079723 0.044211 -0.023101
-0.051673 -0.020300 0.045847
-0.000365 -0.055184 -0.020932
-0.014547 0.025587 -0.020532
0.021995 -0.018722 0.035779
0.018336 -0.066432 -0.040432
-0.041954 0.034409 -0.011715
0.015606 0.010639 0.036676
0.085723 -0.066432 -0.016800
0.088220 0.018060 -0.011338
-0.067549 -0.054949 0.016609
0.072859 0.041128 -0.034552
0.043278 0.003727 0.037192
-0.074469 0.017672 0.023892
0.001569 -0.053297 -0.021001
0.086192 -0.051363 -0.006732
-0.028290 0.039726 -0.011468
0.062290 -0.064566 -0.046954
-0.023249 0.031354 0.024459
0.073734 0.052014 0.012943
0.007598 0.015773 0.033262
0.040720 -0.058974 0.036424
0.081198 -0.054735 -0.028330
0.044094 0.052707 -0.043584
0.022730 0.059313 -0.034654
0.075669 0.052929 0.003437
0.008639 -0.047727 0.033365
0.037176 0.064195 -0.005898
-0.043468 0.028673 0.027420
-0.040048 0.035016 -0.014676
-0.085210 -0.016720 0.024239
-0.008519 0.023009 0.030191
0.082324 -0.047517 0.011002
0.064923 -0.026943 -0.044942
0.006865 0.018091 0.033083
0.007125 -0.033664 -0.021549
0.050918 0.030133 0.034566
0.071173 0.054150 0.011717
0.054264 0.060957 -0.019267
0.039092 0.059533 -0.039352
0.065799 0.057608 -0.024184
0.014386 -0.046116 0.031044
0.031407 0.065083 0.004734
0.084037 -0.050370 -0.020256
0.050731 0.009114 -0.048924
0.001892 -0.055280 -0.023658
-0.008734 0.046302 0.011679
0.000482 -0.054176 -0.006132
0.060317 -0.039590 -0.043640
0.089640 -0.009901 -0.001533
-0.064656 -0.044820 0.032276
0.049132 0.050418 0.031493
-0.004628 -0.047239 -0.023396
-0.000857 0.053731 0.002774
0.002751 -0.036540 -0.022921
0.078993 0.049388 -0.012292
0.010946 0.016292 0.033544
-0.045678 -0.037063 0.046801
0.007676 -0.020009 -0.024943
0.045939 0.061585 -0.002253
-0.008106 -0.050703 -0.023508
-0.066145 0.023521 0.024839
0.058062 0.060492 -0.005271
-0.004830 -0.047736 -0.023532
0.072533 0.006665 0.028269
0.084417 -0.054830 -0.022188
-0.036851 -0.011149 0.047162
0.008316 -0.014308 -0.024567
-0.029242 0.006699 0.048145
0.031458 0.064482 0.000210
0.019133 0.002273 0.035764
0.069646 0.055256 -0.024213
0.030162 -0.061438 -0.046776
0.022334 -0.002203 0.034191
0.001059 -0.039789 -0.023027
-0.057671 0.011770 0.038725
0.014527 -0.038469 -0.028141
0.058567 -0.065731 0.033060
-0.007224 -0.050249 -0.023723
0.040788 0.063324 0.012477
0.074081 -0.036914 0.023011
0.071940 -0.042118 0.024292
-0.047076 0.028786 0.026899
0.044451 0.014561 0.036496
0.067798 -0.064618 -0.044297
0.008889 -0.055475 -0.023394
0.060716 0.054967 -0.036324
0.070078 -0.025553 -0.042385
0.086764 -0.035129 -0.006732
0.000367 -0.056730 0.002588
0.075138 -0.037142 -0.034158
0.037723 0.063912 -0.022151
0.077592 0.012487 -0.035708
0.079674 -0.012669 -0.034452
0.012445 -0.066432 0.017511
0.035489 0.064164 -0.022639
0.068291 0.006988 0.031024
-0.029859 0.037285 0.014289
0.076305 0.051332 -0.019150
-0.064975 -0.053806 0.026080
0.045632 0.057643 0.028889
0.060580 0.060168 -0.002705
-0.030677 0.034541 -0.018423
0.062865 0.059205 -0.018914
0.036939 0.063878 -0.006991
0.013853 -0.065731 -0.006132
0.076201 -0.031417 -0.034977
0.021221 0.061055 -0.032382
0.007792 -0.048488 0.031495
0.080731 0.010852 0.019737
0.067913 0.057383 0.009573
0.085518 -0.031991 -0.019072
0.001980 0.006299 -0.022296
0.021490 0.061737 -0.031944
-0.052653 -0.057901 0.027422
0.001613 -0.001078 0.047395
0.032231 -0.009129 -0.047801
0.005416 -0.051508 0.025524
-0.026454 0.030081 -0.002432
-0.042913 0.034642 -0.007099
0.001114 0.002111 0.048804
0.004754 -0.001938 0.048340
-0.022729 -0.057465 0.021937
-0.033891 0.033977 -0.018640
-0.085098 -0.033867 0.022636
0.061973 0.059192 -0.005448
-0.034356 0.008917 0.049553
0.012229 0.056521 -0.025510
-0.058982 0.007975 0.040748
0.069866 -0.065731 0.027377
0.043912 0.062001 -0.001600
-0.085519 -0.016400 0.027954
-0.016461 0.026873 -0.020511
-0.088725 -0.021842 0.022184
0.017965 -0.041481 0.034323
-0.006750 0.048626 -0.015569
-0.062369 -0.042000 0.039187
0.022177 0.000774 0.033918
-0.086114 0.003463 -0.002332
0.018796 0.061185 -0.030119
0.057462 -0.050708 -0.045157
0.017676 0.057263 -0.031132
0.011496 -0.021458 -0.033579
0.054505 0.060440 -0.006567
0.033741 -0.015400 -0.048369
0.006780 -0.011020 -0.020932
0.057590 0.048489 -0.042081
0.057349 -0.005484 0.036170
0.000046 -0.054643 -0.023483
0.053851 0.061091 0.011495
0.072249 -0.045875 -0.036378
-0.076397 0.017503 0.014824
0.002422 0.039242 0.024192
-0.006771 0.029812 -0.021184
-0.051834 -0.017248 0.045824
-0.012256 0.023885 -0.020563
0.081714 0.032054 -0.025811
0.067898 0.057981 0.003800
0.082251 -0.030662 -0.027346
-0.013462 0.043532 -0.016590
-0.008576 0.005342 0.049738
-0.054598 -0.004805 0.045603
0.023232 -0.011386 0.034282
0.015873 0.013057 0.034156
0.058493 0.060499 -0.005676
0.036307 -0.064611 -0.049044
-0.010387 -0.054249 -0.020932
-0.002993 -0.053439 0.007837
0.044208 0.063104 0.008486
-0.073364 0.017702 0.025148
0.042907 0.062925 -0.025249
0.029528 0.065007 -0.018469
0.020505 -0.018568 0.036468
-0.036182 -0.007436 0.047515
0.019133 0.002273 0.035764
0.089142 -0.025782 -0.011212
0.001569 -0.053297 -0.021001
0.057852 0.060914 -0.006324
0.077531 0.050296 -0.017374
0.002086 0.026627 -0.023724
0.081932 -0.052810 -0.026083
-0.027110 0.031566 -0.019641
0.022784 -0.020283 -0.043575
0.044488 0.061766 -0.006495
0.054369 0.017469 0.035422
-0.036686 0.034028 -0.017643
0.005756 -0.057579 -0.021117
-0.044672 -0.040273 0.044536
0.018321 -0.041011 0.034388
0.051501 0.003177 0.036947
-0.089621 -0.017187 0.012168
0.000581 -0.054217 0.007950
0.028809 0.065522 -0.011493
0.003684 -0.000337 0.048499
0.038908 0.054969 -0.042678
-0.004166 -0.046498 -0.023217
-0.072022 -0.015337 0.040422
0.081219 -0.035392 -0.026619
-0.032942 0.034247 0.019229
0.030185 0.064651 -0.006131
0.058360 0.059897 0.004428
0.017125 -0.027842 -0.034381
0.009270 0.049429 0.020868
0.006855 0.059425 -0.006732
0.066907 -0.021939 -0.044810
0.048049 0.062143 0.012187
0.013437 -0.036175 0.037886
-0.043503 0.018415 0.040059
0.006105 0.051791 -0.022496
0.085601 -0.062486 0.012437
0.016864 -0.048527 -0.030313
0.062056 0.058023 0.017267
-0.032754 0.038233 0.004168
-0.076770 -0.015396 0.036747
0.057242 0.060497 -0.022442
0.062517 0.059252 0.005941
0.012848 -0.038639 0.036911
0.033582 -0.017996 0.036519
0.066373 -0.060512 -0.044443
0.047976 0.059322 -0.036495
-0.077144 -0.019696 0.036248
0.016911 -0.046677 -0.030111
0.042835 0.062004 -0.034060
0.088324 -0.023677 0.005096
0.005466 -0.059072 -0.024847
-0.041954 0.034409 -0.011715
0.070016 -0.027676 -0.041752
0.087121 -0.008696 0.008884
-0.019805 -0.049833 0.033524
0.081572 -0.036926 0.013137
0.082645 0.045312 -0.008648
0.029988 0.065278 0.004111
0.007848 0.060188 -0.011939
0.075236 -0.062767 -0.038720
0.004985 -0.049443 0.031433
0.014073 0.065077 -0.009339
0.068854 -0.023293 -0.043572
-0.008540 -0.051779 -0.023888
-0.015988 0.026546 -0.020502
0.001896 -0.061499 -0.005169
0.018227 0.065114 0.004877
-0.066057 -0.047107 0.028997
0.076864 0.026145 0.022319
-0.019325 0.043062 -0.013033
0.017058 0.062681 0.013172
0.058572 -0.034717 -0.045063
0.056834 0.057245 0.023571
-0.059087 -0.029860 0.044764
-0.022104 0.025510 0.029794
-0.053882 -0.003959 0.045219
-0.064975 -0.053806 0.026080
0.058707 -0.036883 0.032317
0.035879 0.064162 0.000341
0.002788 -0.061499 0.002745
0.000282 -0.040183 -0.022791
-0.084649 -0.007752 0.028280
0.018531 -0.066432 0.024604
-0.017457 0.022412 0.033365
0.011478 0.063389 -0.006133
0.076260 0.051212 -0.018857
0.015950 -0.021395 -0.038261
-0.066452 0.022543 0.025918
-0.067219 -0.055599 0.012590
-0.054352 0.008726 0.042540
-0.064592 0.017475 0.029254
0.021092 -0.042899 -0.037475
-0.011121 0.022890 -0.020475
0.010579 0.007321 0.039224
0.075378 0.034872 -0.034091
0.005446 -0.019343 -0.020932
0.046098 0.061994 -0.032256
-0.012067 0.023546 -0.020290
0.033890 0.062765 0.021198
0.030091 -0.054856 -0.044713
-0.073655 -0.047915 0.025115
0.020158 -0.049655 0.029086
0.007857 0.015387 0.034061
-0.041850 -0.058378 0.028333
0.007290 -0.038226 -0.024202
-0.010865 0.041129 -0.019062
0.031394 0.065090 -0.017268
-0.010847 0.043223 -0.018050
-0.040662 0.033767 -0.013496
-0.077144 -0.019696 0.036248
0.058207 -0.048343 -0.044538
-0.031226 -0.052994 0.031108
-0.008028 -0.040438 0.041955
-0.080569 -0.041542 0.023125
-0.016449 0.026645 -0.020297
0.011951 -0.060907 0.021150
-0.088024 -0.004959 0.022253
0.049593 0.060942 -0.007466
0.082268 -0.066432 -0.025142
0.046010 -0.036258 0.034500
0.019386 -0.036217 -0.006132
-0.011171 -0.054321 -0.023637
0.038693 -0.035696 -0.046225
0.008134 -0.057478 0.018168
0.007209 -0.051044 -0.024452
0.084349 -0.062677 0.014935
0.064162 0.059213 -0.014502
-0.063836 -0.049631 0.027964
0.008454 -0.024391 -0.023936
0.007622 0.059846 0.004147
-0.064410 0.024475 0.024985
-0.046684 0.008788 0.048263
0.046128 0.062400 0.018161
-0.063817 -0.043169 0.034298
0.035027 -0.062789 -0.048574
0.025857 -0.021714 0.034268
0.027040 0.065788 -0.011183
0.055821 -0.064564 -0.048981
0.039999 0.061369 0.023320
-0.003059 0.046745 -0.019794
-0.025938 -0.057681 0.025260
0.041993 0.062623 -0.021713
0.012260 0.030968 0.029507
0.050430 0.061693 -0.024937
-0.003450 -0.045429 -0.020932
0.063704 0.058737 0.007005
0.017112 -0.046068 -0.034043
-0.078624 -0.046211 -0.020932
0.089087 -0.003891 0.001329
0.040884 -0.040198 -0.045934
0.036738 0.064203 -0.018153
-0.025199 0.031598 -0.020118
-0.014505 -0.054785 -0.020932
0.042204 -0.066432 -0.046961
0.050185 0.062052 0.008061
-0.045265 -0.043324 0.045015
-0.077672 0.013466 0.024252
0.030551 0.064656 -0.009665
0.039506 0.062894 -0.005619
0.012834 -0.020391 -0.032235
0.045005 0.062670 -0.024405
0.031236 -0.050686 -0.044067
0.010945 -0.020318 -0.030073
0.008322 -0.058858 -0.023755
-0.009509 0.048916 0.001857
-0.078083 0.015129 0.018501
0.022759 0.004501 0.033485
0.064278 -0.021353 -0.046130
-0.058693 0.029307 0.012841
0.077214 0.051501 -0.016404
0.053534 0.056352 0.027460
0.086496 -0.021129 -0.023215
0.089336 -0.064633 -0.013266
-0.067928 -0.020259 0.040996
0.053461 -0.044767 -0.045445
-0.042917 0.034265 -0.002331
0.018911 -0.040192 0.034422
-0.061488 -0.039442 0.038634
0.058355 -0.021793 0.036072
0.078818 -0.025642 -0.034654
0.053192 0.015432 -0.048084
0.021040 0.030724 -0.039429
0.006501 0.059632 -0.008328
-0.076554 -0.042790 0.027231
-0.076881 -0.031465 0.030447
0.010444 -0.064801 -0.032117
0.008457 -0.020145 -0.026327
0.014820 -0.044348 0.034038
0.065308 0.042845 -0.039810
0.086440 -0.034122 0.000732
0.020542 -0.009967 0.036276
0.077239 -0.004460 0.024764
-0.014078 0.025543 -0.020690
-0.083039 -0.003674 0.025128
0.006803 -0.017007 0.048041
0.002151 -0.058606 -0.016402
-0.069239 0.011548 0.034585
-0.089877 -0.018279 -0.002432
0.034145 0.064873 -0.005508
0.052129 -0.020969 -0.049707
0.024718 -0.022040 -0.044629
0.046472 0.029179 0.035029
-0.042294 0.034720 -0.010359
0.013022 0.061642 0.012241
0.033655 -0.054742 -0.045952
0.018581 0.005955 0.034514
0.014144 -0.058829 -0.031069
0.019632 -0.045969 -0.036385
0.073854 0.042774 -0.032863
0.042204 -0.066432 -0.046961
0.002806 -0.056671 -0.023353
0.040784 0.063643 0.007908
0.019932 0.005447 0.035539
0.065158 -0.055080 0.030947
0.068854 0.054581 0.016101
0.009502 -0.020163 -0.028138
0.002906 0.055734 -0.014405
0.065759 0.029880 0.029944
0.053744 -0.039829 0.033256
0.010989 0.043268 0.025022
0.005062 -0.056330 0.015533
0.030892 0.064399 -0.028455
-0.009232 0.049104 -0.010972
0.016199 -0.040038 0.034244
0.017098 0.065078 0.003913
0.088975 -0.012863 0.002822
-0.063035 0.021006 0.030537
-0.052717 -0.058628 0.026360
0.029732 0.065317 -0.015817
0.010718 0.034369 -0.029331
0.004097 0.010169 0.039641
0.089156 -0.062385 -0.006732
0.004896 -0.049287 0.032855
-0.049639 -0.038405 0.047873
-0.044799 -0.006243 0.046399
0.000019 -0.051175 0.030553
0.031384 -0.018177 0.036012
0.051695 0.060982 -0.031549
0.053380 -0.059180 -0.048564
-0.032326 0.009015 0.049747
0.027478 -0.065832 -0.042922
0.020608 -0.055442 0.027919
0.013806 0.064394 0.004394
-0.052556 -0.061921 -0.002332
-0.004917 -0.054493 -0.002183
-0.012438 0.032643 -0.020303
0.031640 0.062399 -0.033065
-0.088972 -0.021089 0.020035
-0.035389 0.033737 -0.018147
0.010033 0.041880 -0.027816
-0.054377 0.027832 0.026172
0.016392 0.012590 0.034226
0.021466 0.006730 0.033421
0.059549 0.056474 -0.035114
0.087030 0.028572 -0.001204
0.019394 -0.044796 0.030672
0.009917 0.062612 0.001659
0.048855 0.061988 -0.025184
0.034641 0.064445 -0.022475
-0.085154 0.003331 0.022595
-0.027968 -0.057849 0.026294
0.073289 -0.031775 0.025370
0.018641 -0.035973 -0.036306
0.049004 0.057622 0.027503
0.007640 -0.009554 -0.020932
0.008760 -0.020363 -0.026293
-0.036175 -0.007439 0.047215
0.003252 -0.059590 0.006509
0.064024 0.053550 0.022703
0.009143 -0.020315 -0.027220
-0.021710 0.025560 0.029186
-0.070228 -0.054003 -0.002432
0.070046 -0.062744 -0.042723
0.044690 0.061734 -0.004954
0.088413 0.002663 -0.015587
0.044795 -0.031115 -0.048009
0.002222 0.045952 -0.022670
0.022302 -0.003152 0.034399
-0.037933 0.036777 -0.005952
0.006764 0.046828 -0.024803
-0.017189 0.022593 0.030722
0.032975 0.064894 -0.013579
-0.002192 0.053378 -0.010815
0.081772 -0.023294 -0.031485
-0.005039 0.004432 0.049485
-0.051975 -0.060512 0.020131
-0.069761 -0.034479 0.035614
0.083235 -0.063510 0.017031
0.021764 0.066395 -0.006870
0.005139 -0.058460 -0.006132
-0.015988 0.026546 -0.020502
0.060261 0.054110 0.026110
-0.029435 0.032337 -0.019446
0.012205 0.042084 0.025961
0.066617 -0.031117 -0.042566
-0.060601 0.026027 0.025471
0.076036 0.051900 0.006224
0.023423 -0.026294 0.033876
0.007513 -0.035943 -0.021503
0.046477 0.062919 -0.018079
-0.052114 0.024395 0.031802
0.072487 -0.032091 -0.038167
0.017246 -0.025421 -0.038839
-0.016748 0.019505 0.036942
0.088924 -0.023689 0.002512
0.020749 -0.036622 -0.037927
-0.011987 0.026002 0.028096
0.027877 -0.044764 -0.041850
0.034916 0.064620 -0.023435
-0.053151 -0.059433 0.023336
0.046035 0.062466 -0.030279
-0.006875 0.023222 0.029715
0.071367 -0.054703 -0.039126
-0.062811 0.027891 -0.002332
-0.038911 0.034764 -0.016101
0.087905 -0.028530 0.002077
-0.059068 -0.032907 0.046130
-0.024810 0.016965 0.038254
0.031331 -0.015251 -0.047591
0.085454 -0.053074 0.005560
0.079123 0.049302 -0.000896
0.060676 0.059297 0.015484
0.079584 0.049079 -0.005033
0.055692 0.057993 0.022836
0.021781 0.003752 0.033757
-0.025616 0.041134 0.002692
0.047555 0.062473 -0.021112
0.056517 -0.034082 -0.045833
-0.005729 0.051073 -0.011203
-0.010847 0.043223 -0.018050
-0.062056 -0.036074 0.040339
-0.042441 -0.015550 0.046951
-0.061638 0.014633 0.034049
0.084299 0.030844 0.007784
0.043532 0.060312 -0.036733
-0.047324 -0.045320 0.039646
0.009710 -0.061431 -0.025651
0.081008 0.046251 0.001883
0.050582 0.054262 -0.042461
0.017534 -0.052603 -0.032149
-0.042994 -0.039353 0.048739
0.022573 -0.035252 0.032742
0.001623 -0.001099 0.047393
0.021321 -0.032644 0.034807
0.087724 -0.060352 0.005515
0.024103 0.058517 -0.035966
0.014073 0.065077 -0.009339
0.030734 0.063626 -0.031341
0.045021 0.061680 -0.007734
-0.036686 0.034028 -0.017643
0.079734 0.026275 -0.030934
0.023087 0.064666 0.011177
0.020890 -0.037664 0.033155
-0.082391 -0.022042 0.031020
0.048398 0.000881 -0.049617
0.032705 0.062281 0.021444
0.085333 0.038500 -0.008622
0.077316 0.040198 -0.029742
0.047890 0.062382 0.008889
0.028474 0.064554 0.013001
-0.004723 0.019577 0.034612
0.011103 -0.053893 0.023606
0.057926 0.060673 -0.006860
0.057270 -0.066432 -0.045536
-0.020729 0.042720 0.006158
0.071906 0.035334 0.024858
0.019322 -0.039433 0.034524
-0.004338 0.014330 -0.002432
0.042882 0.062959 0.009027
0.074581 0.050587 -0.006132
-0.006320 -0.052944 0.024932
0.059427 0.060283 -0.013223
0.084766 0.040189 -0.002716
0.019641 0.056462 0.024093
-0.028519 0.032044 -0.019529
0.020750 -0.019134 0.035882
0.077316 -0.013257 0.024782
0.063656 0.059201 0.006630
0.017158 0.065652 0.000644
0.074832 0.052320 0.008430
0.058174 0.059922 0.016358
-0.028130 0.031774 -0.019317
-0.026313 -0.010708 0.047764
0.012660 0.013006 0.034377
-0.080527 -0.029109 0.027375
0.065399 -0.025262 -0.045155
0.013386 -0.020233 -0.033473
0.076109 -0.063081 0.025700
0.013015 -0.019627 -0.006132
0.061083 -0.053085 0.032195
0.028490 0.065837 0.005756
0.083016 -0.032114 -0.024991
0.030722 0.054910 0.029550
-0.015122 0.012311 0.041791
0.068168 0.055293 -0.027702
0.015638 0.065277 -0.005621
0.001099 -0.058604 -0.002672
-0.072022 -0.015337 0.040422
0.048586 0.062035 0.012968
0.081011 0.044571 0.007388
0.036241 0.061662 0.022988
-0.065253 -0.039866 0.038759
0.019704 -0.009799 0.038185
0.074179 0.052739 0.009215
-0.008979 -0.053414 0.025691
0.028825 -0.062652 -0.045905
0.078421 -0.021962 0.023527
-0.073134 -0.005024 0.038612
-0.061947 -0.025751 0.044100
-0.088732 -0.008675 0.022189
-0.048110 0.031078 0.018569
0.005711 0.030922 0.028465
0.011754 -0.031787 -0.027030
0.069118 0.053709 -0.029851
0.055343 0.058055 -0.035217
0.017158 0.065652 0.000644
0.054902 0.060473 0.006740
0.042023 -0.037113 -0.046419
-0.066598 -0.002112 0.040467
-0.074318 -0.017725 0.036188
0.061476 0.056907 0.020045
0.031052 -0.025308 0.035173
0.004498 -0.037430 0.044522
-0.024614 0.031175 -0.020164
0.054512 0.060842 -0.023565
0.006449 -0.022229 -0.022769
-0.024211 0.030445 -0.002332
0.012458 0.062456 0.009458
0.084891 -0.055121 0.008958
0.088243 -0.066430 0.006035
0.072511 0.053556 -0.022957
0.072926 0.051421 -0.006132
-0.066252 -0.049192 0.026589
-0.001750 0.013157 -0.021330
0.011492 0.015103 0.034699
0.064392 0.058440 0.010713
0.008177 -0.048852 0.030171
0.087020 -0.065832 -0.008756
0.019890 0.007626 0.034654
0.089748 -0.021456 -0.010230
-0.073846 -0.049941 0.018272
0.020428 0.007219 0.033924
0.007553 -0.061068 0.015485
0.052701 -0.031339 -0.047405
0.018458 0.040784 -0.036003
0.054155 -0.010764 -0.049295
0.019057 -0.034208 0.034568
0.080875 0.024328 0.017374
0.073915 0.053573 -0.020636
0.032292 0.062664 0.020633
0.008852 0.048077 -0.025809
0.042546 0.060498 -0.036645
0.005150 0.058339 -0.010126
0.054245 0.060572 -0.020043
0.017231 0.063856 -0.023712
0.010122 -0.002891 0.045262
0.071614 0.054128 0.011785
-0.003219 -0.053172 0.016205
-0.054507 -0.047517 0.035364
0.030222 -0.048987 -0.043359
-0.030046 0.027096 0.028098
0.000050 -0.055063 -0.022951
-0.075282 -0.049652 -0.002332
0.055479 0.014955 -0.047674
0.025778 -0.014372 0.034496
-0.006320 -0.052944 0.024932
0.020837 -0.017953 0.034771
-0.024334 0.041373 0.005156
0.001400 0.054288 -0.015364
0.043029 0.063458 0.014397
0.089454 -0.060946 -0.006132
0.019089 -0.041539 -0.035839
0.066907 -0.021939 -0.044810
0.007334 -0.031343 -0.025846
0.058559 -0.025244 -0.047881
0.085331 -0.065731 0.005870
-0.054542 0.030937 0.007051
0.048366 0.061485 -0.014259
0.008268 0.015421 0.033727
-0.046192 -0.062089 0.016653
-0.000254 0.020880 0.031145
0.046463 0.062849 -0.026858
0.020747 0.010010 0.033050
0.000203 0.010215 -0.021864
0.046823 0.062698 0.005769
0.073399 0.054020 -0.020988
-0.003307 0.003749 0.049294
0.005983 -0.061883 -0.006132
-0.073125 0.006805 0.031011
0.031528 -0.043400 -0.043450
-0.066073 -0.010814 0.044374
0.065461 0.058334 -0.008040
-0.033737 -0.057991 0.028543
0.075398 0.047607 0.015675
-0.055315 0.023356 0.027826
0.045039 0.062530 -0.025505
0.060044 0.059439 -0.024820
0.062527 0.057100 -0.029962
0.006547 -0.037002 -0.023762
0.043720 -0.062789 -0.049894
0.065759 0.029880 0.029944
0.081407 -0.049223 0.013279
0.010404 -0.066432 0.014315
0.035238 0.059092 -0.040181
0.058250 0.060248 -0.006991
0.075504 0.053389 -0.010668
0.007975 0.060804 -0.009103
0.038079 0.059729 -0.039135
0.023423 -0.026294 0.033876
0.085781 -0.048338 -0.012300
0.089689 -0.062804 -0.008727
0.071971 0.053575 0.012796
0.012229 0.056521 -0.025510
0.077251 -0.032096 -0.033508
-0.074546 0.004158 0.034541
0.005552 -0.053992 0.020426
0.048366 0.061485 -0.014259
0.085058 -0.039831 0.002932
0.012468 0.063587 -0.015229
-0.007703 0.020071 -0.020777
0.032975 0.064894 -0.013579
0.006396 -0.026282 -0.025914
0.049762 -0.052808 -0.047092
-0.032369 0.038170 -0.011408
0.042073 0.062274 -0.006688
-0.071129 0.021230 0.020732
0.047524 0.059411 0.024265
0.031394 0.065090 -0.017268
0.010538 0.060115 -0.019703
0.089749 -0.066430 -0.001749
0.049592 0.059137 0.024206
0.024570 -0.002080 0.033922
-0.077985 -0.000281 0.033267
0.021951 -0.028912 0.034799
0.039728 -0.066432 -0.046658
0.082565 -0.050469 0.011486
0.034111 -0.023695 -0.048315
0.053513 0.061185 0.010753
0.070720 0.053162 0.015985
-0.012148 0.047083 -0.012307
0.088654 0.012796 -0.011272
-0.027797 -0.056304 0.029935
0.018300 0.005528 0.037308
0.053367 0.058418 -0.035714
-0.058511 -0.038701 0.040834
0.010110 -0.066431 0.019415
0.040115 -0.050280 0.033957
0.027685 0.061721 0.022519
-0.009239 -0.053855 -0.023933
-0.042164 0.034007 -0.010371
0.061569 0.058657 0.014559
0.008225 -0.024361 -0.024900
0.009485 0.061806 -0.006732
-0.043032 -0.063081 -0.002332
0.075707 0.051556 -0.019422
0.027966 0.065628 -0.000652
0.009608 -0.047264 0.033481
-0.035602 0.033528 -0.017906
0.037880 0.058817 -0.040686
-0.087726 -0.027382 0.019758
0.072918 0.051301 0.014503
0.089286 -0.061386 -0.001448
-0.008800 0.033911 -0.020785
-0.067488 -0.051291 0.027301
0.037491 -0.059180 -0.048374
0.037013 0.064269 -0.006312
0.013437 0.062246 -0.022039
0.080942 0.046261 -0.014331
0.042416 0.062911 -0.017047
-0.035454 0.034111 -0.018157
0.005446 -0.019343 -0.020932
-0.016645 0.044416 0.006675
-0.070115 -0.002451 0.040291
0.004896 -0.049287 0.032855
0.089640 -0.009901 -0.001533
0.013038 0.031963 -0.031892
-0.029862 0.032169 0.022715
0.085947 -0.066432 0.003579
0.053813 0.056444 -0.039024
-0.004896 0.047404 -0.018306
0.030760 0.050071 0.030633
-0.076554 -0.042790 0.027231
0.004847 -0.058320 0.012116
0.046912 0.061825 -0.015136
0.075875 -0.050490 0.021356
0.076474 0.051200 0.006666
0.030889 0.064586 -0.001348
-0.073732 0.015528 0.027261
-0.064433 0.012953 0.036935
0.010025 -0.057534 0.020092
0.049736 -0.055135 0.035475
-0.049875 0.025815 0.026715
0.082326 -0.054757 -0.026435
0.085363 -0.054805 -0.019680
0.085848 -0.064608 -0.024608
0.031633 -0.031245 -0.045457
-0.073846 -0.049941 0.018272
0.000943 -0.055478 -0.022977
0.072499 0.055634 -0.004484
0.012421 -0.046063 0.033014
-0.051545 0.031591 0.012302
0.025968 0.062055 0.021330
0.008512 -0.032376 -0.026978
0.071000 0.055821 0.008647
0.076103 -0.012980 0.025955
0.057863 -0.055136 0.033911
0.079589 0.049077 -0.007258
0.076665 0.050157 0.009951
0.013677 0.012070 0.034766
0.050744 0.055746 -0.041628
0.000943 -0.054386 0.001948
0.055742 0.056033 -0.038449
0.056562 0.055765 0.026531
0.003068 0.047626 -0.022539
0.019010 -0.039797 0.034550
0.063635 0.056523 0.018572
0.037013 -0.027692 -0.048157
-0.054217 -0.057620 0.026924
0.067131 0.058645 -0.006200
-0.000365 -0.055184 -0.020932
-0.011997 0.027190 -0.020644
0.013606 0.064501 0.003422
0.072595 -0.052787 -0.037465
0.021938 -0.031827 0.033902
-0.064656 -0.044820 0.032276
0.031240 0.064635 -0.000077
0.066182 0.053996 -0.032713
0.079597 0.049078 -0.006139
0.075811 -0.065731 0.022207
0.071181 0.051964 -0.006132
0.003384 -0.054849 0.016484
0.058345 -0.061076 0.035594
0.080993 0.047133 -0.012316
-0.003372 -0.054444 -0.020932
-0.061624 0.021384 0.026862
0.086440 -0.034122 0.000732
0.080334 -0.003760 -0.033493
0.046952 0.059569 0.024328
-0.042193 0.034555 -0.010921
0.000880 0.015171 -0.022355
0.089465 -0.012892 0.000119
0.052994 -0.027185 -0.048691
0.059722 -0.031782 -0.045475
-0.057298 -0.041824 0.042088
0.046387 0.062415 -0.025405
0.005668 -0.055606 0.017565
-0.087605 -0.001457 0.013157
0.049343 0.061317 -0.021890
0.050254 -0.008361 0.037546
0.009773 -0.047686 0.031692
0.084450 0.012658 0.012907
0.079924 -0.024398 0.021429
0.019392 0.008905 0.034512
-0.000247 -0.052716 -0.020934
0.029468 0.062941 0.019439
0.047050 0.062269 0.009303
0.082892 -0.042119 0.009257
0.004317 -0.057112 0.010668
-0.005729 0.051073 -0.011203
-0.065253 -0.039866 0.038759
0.015798 -0.049034 -0.029406
0.073370 -0.066432 0.024556
-0.055043 -0.033451 0.045531
0.009875 -0.011827 0.043701
0.024682 -0.044863 0.031024
0.043585 0.057785 0.028972
0.003567 -0.059858 -0.019491
-0.079411 -0.038306 0.023349
0.026775 0.066048 -0.001256
0.043414 -0.066432 0.034790
0.009132 0.058480 -0.019656
0.003271 -0.040549 -0.022900
0.062404 0.056949 -0.030469
0.077887 -0.047528 0.018298
0.032200 -0.050016 0.032175
0.022947 -0.008376 0.034312
0.007385 -0.048648 -0.021418
0.028127 0.065498 -0.012619
-0.012799 0.024273 -0.020524
0.021510 0.061930 -0.030796
0.052747 0.057792 -0.037589
-0.072319 -0.046991 0.027686
0.025492 -0.050070 -0.041164
0.075901 0.051568 -0.019413
0.044788 0.060027 0.024396
0.020514 0.064495 -0.022571
0.049873 -0.060115 0.037003
0.043160 0.009313 -0.049106
-0.000231 0.010319 -0.006132
0.061928 0.054263 0.024696
0.028738 -0.016107 0.035376
0.071148 -0.012997 -0.042200
0.041903 -0.048338 -0.046243
0.065275 0.053399 -0.034059
0.043150 0.062041 -0.006861
-0.051515 0.004980 0.046080
-0.078435 -0.026720 0.033930
0.037686 0.061356 0.023318
-0.076173 0.018305 -0.002332
0.009971 0.058114 -0.021409
0.022058 -0.014030 0.035755
0.077239 -0.004460 0.024764
0.089575 -0.012456 -0.011597
0.019745 0.008224 0.034540
0.066023 -0.064593 -0.045253
0.043205 -0.037452 0.034184
0.045697 0.061621 -0.009881
-0.002988 0.030387 0.027478
0.061061 0.059979 -0.008054
-0.079015 -0.026211 0.030142
0.022072 0.064526 -0.023265
0.037572 0.063827 -0.006021
0.052705 0.061374 -0.025017
0.050618 0.058937 -0.036301
0.043585 0.057785 0.028972
0.008393 -0.025580 -0.024462
0.060629 -0.043103 0.031061
0.034506 0.065034 -0.006400
0.054289 0.058256 -0.035546
0.006118 -0.052406 0.023695
0.016743 -0.059810 -0.034407
0.011854 0.064142 0.001498
-0.012897 -0.054339 0.017375
0.028885 -0.040718 -0.042404
0.062707 0.058984 -0.016809
-0.027590 0.008845 0.049985
0.009645 0.061900 -0.006132
0.009051 0.038125 -0.027593
-0.001641 0.042465 -0.021881
0.024815 0.064815 -0.022415
-0.018510 0.038270 -0.018035
0.064299 0.058763 -0.020382
0.057669 0.054105 -0.039946
0.052350 0.041704 0.032623
0.055216 0.060916 -0.005576
0.031075 0.030016 -0.044724
-0.085742 -0.012436 0.027561
0.079879 0.017582 -0.032355
0.021432 0.052519 -0.035963
0.000396 -0.052264 0.024527
0.012525 -0.049662 0.027839
0.050634 0.062003 -0.026004
0.006306 -0.058004 -0.021430
0.027642 -0.066432 0.030557
0.009897 -0.039377 -0.026861
0.028468 0.065381 0.006719
0.029165 0.063650 0.016416
-0.083162 -0.038893 0.015803
0.089764 -0.023316 -0.008511
-0.036821 0.034200 0.017542
-0.086126 -0.031346 0.022563
0.016840 -0.042990 0.033200
0.079285 -0.041919 -0.028261
-0.087718 -0.028198 0.016157
0.027218 0.060939 0.023963
0.006823 -0.066432 0.010977
0.045973 0.062670 -0.015379
0.011744 -0.035254 -0.025930
0.009773 -0.047686 0.031692
0.005542 -0.003543 -0.024454
-0.013515 0.030624 -0.020358
-0.070207 0.000285 0.036921
0.078801 0.049470 0.000872
-0.016491 0.038358 -0.018492
0.008769 -0.066432 -0.023461
0.050536 0.062123 0.014134
0.038901 -0.020815 0.037338
0.074612 0.050522 -0.025109
0.006790 -0.011882 0.048050
0.088029 0.022549 -0.008992
0.047692 0.062210 -0.024515
0.061747 0.059723 -0.015699
0.087905 -0.028530 0.002077
0.060024 0.059622 -0.025908
-0.087932 -0.003382 0.017869
0.007669 -0.045221 -0.024291
0.089847 -0.008567 -0.004644
0.020837 -0.017953 0.034771
-0.002908 -0.054474 -0.020932
-0.000619 -0.053791 0.007221
0.057253 -0.046343 0.032353
0.052698 0.061644 -0.025429
0.033994 0.064922 -0.006595
0.040450 0.062917 -0.020777
-0.042612 0.024470 0.029992
0.082733 0.028094 0.012845
0.062426 0.059305 0.005617
0.020025 0.062810 -0.029164
-0.066132 -0.031537 0.039733
0.021066 0.004049 0.034699
0.079996 0.047879 -0.016900
0.071438 -0.044657 0.024724
0.042812 0.060428 0.024324
-0.063103 0.015960 0.035404
0.004252 -0.035690 0.042766
0.043828 0.058179 0.028422
-0.009471 0.032071 0.025926
0.022558 -0.026870 0.034235
-0.016978 0.027115 -0.020442
0.062313 0.056904 0.018472
0.025002 0.039681 -0.040728
-0.027487 0.036010 -0.017536
-0.089643 -0.014160 0.012782
0.058402 0.055534 0.025168
0.000669 0.048547 0.015653
-0.010521 0.022305 -0.006132
-0.026937 0.031949 -0.019933
0.013370 -0.063999 -0.035623
0.052452 0.058581 -0.035922
0.007024 0.049699 0.019123
-0.078667 0.002861 0.027535
0.020252 0.004227 0.034705
0.010330 0.044831 0.024021
-0.004588 0.051867 0.000529
0.015681 -0.059724 0.024583
-0.071261 0.012998 0.031904
-0.006382 -0.049355 -0.023642
0.003691 -0.052004 -0.020936
0.010830 -0.040168 0.040139
0.050430 0.061693 -0.024937
0.033570 0.064672 -0.005781
-0.089221 -0.010408 0.017749
0.056927 0.060105 -0.018010
0.042546 0.060498 -0.036645
0.039506 0.062894 -0.005619
0.028952 0.063376 -0.029606
-0.069180 0.023783 0.013455
-0.045698 0.008762 0.045191
0.065550 -0.026281 0.032567
0.004754 -0.001938 0.048340
0.076517 -0.023455 0.025335
0.078399 0.037783 -0.029234
-0.035991 0.037001 0.005254
-0.082929 0.007551 0.022840
0.088619 -0.024967 0.003051
0.027516 0.061380 -0.035559
0.005104 -0.028615 -0.023767
0.053314 0.053445 0.029801
0.001662 -0.054766 0.007416
0.010228 0.063308 -0.001212
-0.041833 0.001112 0.047213
0.066041 0.058652 -0.019797
0.031452 0.062845 -0.032435
0.051378 0.061674 -0.025515
0.086434 -0.050045 -0.008467
-0.002162 -0.044742 -0.023340
0.004509 -0.001403 0.048367
-0.051851 0.031934 -0.002332
0.040418 0.063772 -0.019770
-0.051399 0.009132 0.043410
0.084952 0.040120 -0.006132
-0.055681 0.029641 0.017161
0.084419 0.039810 -0.006132
0.016474 -0.066432 0.022376
0.057481 -0.059945 0.035580
0.080820 0.032108 0.015234
0.033366 0.062122 -0.033962
-0.019628 -0.038348 0.050101
0.072261 -0.036890 0.024669
-0.009077 -0.053440 0.010671
0.009054 -0.020382 -0.026535
0.056899 0.059980 -0.017883
0.028994 -0.066431 -0.046751
0.072699 -0.066432 -0.041077
0.027388 -0.043205 0.031572
-0.011105 -0.054430 -0.023405
0.020090 0.061135 0.020198
0.052367 0.051690 0.030612
0.045301 0.059824 0.024317
-0.007703 0.020071 -0.020777
-0.044905 0.008832 0.048548
-0.009757 0.047175 0.008382
0.005840 -0.066432 0.011987
0.001578 0.001758 0.048749
0.003847 -0.029967 0.048468
-0.010929 0.023134 0.031123
0.033035 0.061547 0.023522
0.039123 0.061100 -0.035960
0.060653 0.051994 0.027238
0.080283 0.005090 -0.033121
0.025687 -0.041635 0.031629
0.044560 0.061753 -0.005995
0.085900 -0.044769 -0.008439
0.065396 0.036636 0.028925
0.031643 0.064074 -0.025973
-0.040346 0.019338 0.036192
0.087433 -0.000405 0.007110
-0.059889 0.028034 0.018574
0.030142 0.064804 -0.006816
0.086793 -0.055130 0.002620
0.043862 -0.032149 0.035409
0.014848 0.049112 0.024443
-0.011873 0.044142 0.013265
0.019902 0.066314 -0.006633
-0.029562 0.027209 0.027550
0.047101 0.062147 0.005730
0.055709 0.054841 0.028115
0.029866 0.065199 -0.018011
0.020157 0.008716 0.033459
0.008095 -0.020295 -0.025337
-0.007100 0.005112 0.049590
-0.025716 0.041358 -0.000241
0.000077 -0.056730 -0.013142
0.068423 -0.066432 0.031735
0.077327 0.048750 0.009888
0.007628 -0.020201 -0.024613
0.006980 -0.059893 0.014960
0.060112 -0.013165 0.035506
0.010067 0.060298 -0.018439
0.057163 0.049936 0.029604
0.006627 -0.047882 -0.021078
0.028490 0.065837 0.005756
-0.016876 0.043475 0.009737
0.036487 0.063709 -0.019104
-0.013287 0.024040 0.029679
0.082236 -0.034015 0.013169
0.089203 -0.026486 -0.003528
-0.047745 0.032885 0.010523
0.026088 0.004769 -0.044677
0.063109 0.049453 -0.039100
0.005730 -0.029691 -0.024322
0.079341 -0.033985 0.017834
-0.001600 -0.053572 -0.006132
-0.000254 0.020880 0.031145
0.007388 -0.020340 -0.023673
-0.042422 0.033790 -0.007228
0.050143 -0.043104 0.033635
-0.085088 -0.033789 0.022679
0.020017 -0.004503 0.036175
0.006823 -0.066432 0.010977
0.022749 -0.054775 -0.040756
0.089441 -0.006071 -0.011745
-0.088213 -0.020048 0.022347
0.021940 -0.001537 0.034819
-0.001891 -0.039701 0.044699
0.014102 0.017788 0.031788
0.030942 0.062606 -0.032786
0.033076 0.049478 -0.042519
-0.061116 -0.027220 0.044301
0.041960 0.062349 -0.003264
-0.001973 0.015864 -0.021424
0.032231 0.065161 -0.001089
0.055852 0.057824 0.022503
0.011976 0.064461 -0.007179
0.012751 -0.061725 -0.030471
0.008225 -0.024361 -0.024900
0.010535 -0.021497 -0.032408
0.071242 -0.062185 -0.041819
0.081524 -0.022933 0.019612
0.041750 0.060642 0.024307
0.065355 -0.052792 -0.042400
0.081517 -0.045915 -0.024595
0.023423 -0.026294 0.033876
0.073699 -0.023295 -0.040133
0.076885 0.050197 -0.021761
0.009215 -0.025351 -0.030306
-0.039652 0.033735 -0.014951
-0.070094 -0.048105 0.024411
-0.001880 -0.053201 0.016041
0.082633 0.045271 -0.002827
-0.046224 0.029519 0.023671
-0.026389 0.038378 -0.015483
0.067635 0.057259 -0.022015
0.069793 0.043528 -0.036427
0.074590 0.053342 0.007218
-0.000338 0.045308 0.018602
0.016565 -0.019298 0.039195
0.086215 0.025621 -0.016599
0.066382 -0.008483 0.032742
0.054864 0.060946 -0.022393
0.061743 0.059250 -0.009119
-0.050564 -0.029181 0.046200
-0.067293 0.024179 0.019250
0.000987 -0.050590 0.032390
0.042979 0.062107 -0.008606
0.035489 0.064164 -0.022639
0.019009 0.065641 0.005243
0.049169 0.061822 0.009090
-0.075981 0.012569 0.027677
0.073219 0.036867 0.023322
-0.012256 0.023885 -0.020563
0.023822 -0.044767 -0.039490
-0.089458 -0.015232 -0.018932
0.013661 0.042240 -0.030923
0.079341 -0.033985 0.017834
-0.048185 -0.052814 0.031382
-0.088796 -0.004984 -0.002332
0.000146 -0.050036 0.032414
-0.001406 -0.054555 -0.023168
0.036487 0.063709 -0.019104
0.011991 -0.066432 0.021866
-0.021510 0.043169 0.000262
-0.039757 0.034711 -0.015405
0.079836 -0.050672 -0.028627
-0.046196 0.018317 0.039774
0.027840 0.065189 -0.020441
0.087586 -0.064601 -0.020273
0.017981 0.064866 0.005677
0.039431 0.052219 -0.043376
-0.050715 -0.039184 0.043932
0.073915 0.053573 -0.020636
0.009783 0.062196 -0.012156
0.086417 -0.057952 0.007474
0.003330 -0.058137 0.009090
0.032063 0.032417 0.033254
0.022207 -0.026026 0.034902
-0.071032 0.002976 0.037835
-0.025950 0.008710 0.050040
0.059739 -0.004619 0.035433
0.034779 0.037970 -0.044853
0.067860 0.033147 -0.040460
0.006191 -0.047261 -0.020944
-0.004499 -0.032499 0.047993
0.013018 -0.059105 -0.033897
0.040788 0.063324 0.012477
0.038559 0.061239 -0.035945
0.007285 -0.026632 -0.022154
-0.055982 0.023836 0.031056
0.068438 0.052905 0.019939
0.046650 0.062691 -0.018519
-0.046572 -0.058529 0.027795
0.021157 0.060031 0.022285
0.076799 -0.035399 -0.032812
0.015129 -0.044188 0.033998
0.085953 -0.042554 -0.006732
0.020810 -0.016638 -0.042208
0.070121 0.055885 -0.023316
0.077887 -0.047528 0.018298
0.087403 0.023679 0.000461
-0.001561 -0.053578 -0.000144
0.013342 0.037407 -0.031420
0.003072 0.014408 0.036248
0.072984 0.052182 0.013792
0.050583 0.042923 0.032703
0.051782 0.057096 0.027068
0.033167 -0.021958 -0.048185
0.070423 0.055041 0.011534
0.086970 -0.052822 -0.009310
-0.070387 0.008454 0.032425
-0.070125 -0.043958 0.028622
0.078619 0.048641 -0.020553
0.020107 0.060709 -0.031692
0.068396 0.053649 -0.030723
0.010427 -0.029943 -0.026191
0.007005 -0.035588 -0.024292
0.030708 -0.064522 -0.047389
-0.011606 -0.053920 0.027273
0.015892 -0.061784 -0.034213
-0.003417 -0.054826 -0.009960
0.022731 -0.010843 0.034892
-0.011434 -0.053959 -0.020932
-0.006851 0.019522 -0.020918
0.008876 0.059579 -0.017259
-0.059712 0.016698 0.036730
-0.000261 -0.056890 -0.007627
0.063094 0.058919 -0.018576
0.073243 0.049355 0.017279
0.026705 -0.066431 0.033457
0.016537 0.007283 0.038138
0.088576 -0.057891 -0.004115
-0.049509 0.007972 0.047892
0.003409 0.019696 0.031672
0.031587 0.064557 0.015348
-0.069248 -0.044090 0.033036
0.041236 0.062469 -0.004838
0.054411 0.060451 -0.006333
-0.051697 0.007373 0.047502
0.052968 0.055610 0.028682
-0.081683 -0.041580 0.012521
0.050468 0.057267 -0.039631
0.011076 0.063111 -0.014648
0.000943 -0.054386 0.001948
0.071418 0.051942 -0.028265
0.020816 -0.019596 0.034772
0.048606 0.058499 -0.038433
0.017175 -0.057472 0.025742
0.029059 0.052193 0.029799
-0.026374 0.026597 0.028101
0.067125 -0.060457 0.031748
-0.004313 -0.054567 -0.011495
-0.062222 -0.029198 0.045405
0.055433 0.060794 0.010722
0.025072 -0.006401 0.034149
0.078700 0.018443 0.021509
-0.007486 0.022485 -0.020922
-0.001152 0.016444 0.037545
0.088081 -0.025896 -0.016821
0.036667 0.063688 -0.007133
-0.085418 -0.006183 0.022665
0.017908 -0.049996 -0.031826
0.073990 0.043821 0.019931
0.059547 -0.046342 0.031603
0.033676 0.064199 0.004087
0.026713 0.065431 -0.003426
-0.019142 -0.044281 0.040042
0.010666 -0.024754 -0.032233
0.051630 0.060911 -0.012573
0.021624 -0.009198 -0.042612
0.014339 0.013360 0.034031
0.060261 0.054110 0.026110
-0.066410 -0.011971 0.044329
-0.086946 -0.029142 0.022453
0.048350 0.059257 0.024206
0.079623 0.040438 0.013631
0.064919 0.058379 0.008467
0.081371 -0.028493 0.017826
0.033005 0.064800 0.006942
0.004016 -0.051597 0.025618
0.078255 -0.013244 0.023807
0.011754 -0.031787 -0.027030
0.066112 -0.064471 0.032939
0.007772 0.018091 0.032216
0.034957 0.064658 0.011218
0.045298 0.062091 -0.014991
-0.021124 0.034276 -0.019181
0.035868 0.059495 -0.039813
-0.004559 0.024310 0.029159
0.046992 0.057631 -0.040689
0.031926 0.038481 -0.043948
-0.002012 -0.043677 -0.022981
0.072487 -0.032091 -0.038167
-0.016648 -0.055125 0.026325
0.062072 -0.066432 -0.043825
-0.002028 -0.054449 -0.023180
0.012927 0.064545 -0.013502
0.000146 -0.050036 0.032414
-0.084355 0.003261 0.022786
-0.055455 -0.061246 -0.002432
0.076260 0.051212 -0.018857
-0.062331 0.027813 0.012301
0.015638 0.065277 -0.005621
-0.042721 0.033984 -0.007320
-0.047212 0.031950 0.016539
-0.063133 0.024238 0.026256
0.046511 0.061882 0.020042
-0.088189 -0.006079 0.022331
0.005442 0.017794 0.033953
0.082949 0.044436 -0.011084
0.033847 0.062956 -0.033237
-0.010302 -0.054268 -0.023810
0.056064 0.060566 -0.022779
0.046246 0.056796 0.029650
0.041306 0.063008 -0.031292
0.071137 -0.047517 0.025212
0.001733 -0.059589 -0.011407
0.036329 -0.027841 0.035770
-0.021637 -0.058515 -0.002332
0.067354 -0.031561 0.029740
0.051868 0.061013 0.008411
-0.002332 0.019146 0.032132
0.049663 0.061804 0.012863
-0.041227 -0.059043 0.027667
0.049169 0.061822 0.009090
0.046905 0.061689 0.020479
0.084302 -0.044223 0.005245
-0.036721 0.009149 0.049403
-0.039113 0.034539 -0.016083
0.023758 -0.042625 0.031351
0.019610 0.008310 0.034611
0.018982 0.051635 -0.034213
0.089367 -0.066432 0.001137
0.085577 -0.053714 -0.017935
-0.016640 -0.054844 0.030458
0.030214 -0.063799 0.034451
0.036059 -0.066432 -0.045923
0.062000 0.059195 -0.006135
0.087350 -0.053928 -0.006732
-0.049707 0.015354 0.038633
0.018319 0.010952 0.033615
0.016938 -0.042477 0.034306
-0.039313 0.034963 -0.015517
-0.067728 -0.052260 0.025775
-0.044798 0.028801 0.027172
0.089919 -0.022162 -0.006132
-0.008561 0.024093 0.029169
0.054422 0.061074 -0.024321
-0.028941 0.026701 0.029078
-0.023846 0.032726 0.023339
-0.053875 0.021256 0.031001
-0.089821 -0.017931 -0.002332
0.005865 -0.059546 -0.025192
0.015172 0.002378 -0.036897
0.020134 -0.004484 0.036018
0.081016 -0.066432 0.015100
-0.019389 0.034696 -0.019208
0.053534 0.056352 0.027460
-0.088272 -0.006082 0.022232
0.018813 -0.037796 -0.036054
0.031742 0.064356 0.012912
0.011788 0.015764 0.033717
-0.043451 0.010590 0.044104
0.001929 0.002298 0.045733
0.001662 -0.054766 0.007416
0.086523 -0.065167 0.010871
0.008548 -0.024382 -0.024822
0.010000 -0.013955 0.043668
0.075193 0.052014 -0.020113
0.041121 -0.052547 0.034580
-0.074218 0.009971 0.027637
0.003818 -0.060816 -0.019423
0.033805 0.064296 -0.028476
-0.061764 -0.029837 0.045526
0.048237 0.061125 -0.006230
0.018787 -0.034600 0.034760
0.061077 -0.036899 -0.043724
0.057488 0.060403 0.004184
-0.007158 -0.052737 0.031527
-0.030768 0.033477 -0.019316
0.078416 0.049718 0.002660
0.008901 -0.024332 -0.026229
0.039671 0.050921 0.031668
0.086794 0.031886 -0.004439
0.087448 -0.032290 -0.004233
-0.049027 -0.000466 0.046399
0.015165 0.064132 -0.020212
0.082040 0.042539 0.006588
0.019391 0.031503 -0.038107
0.068012 -0.045449 -0.039556
0.027685 0.061721 0.022519
0.013825 -0.000177 0.039923
0.048075 0.061270 -0.001600
0.002961 0.000291 0.048553
0.034056 0.064868 -0.024408
-0.018555 0.042025 0.011928
0.053951 -0.053074 0.034288
-0.015159 0.022246 0.030984
0.082298 0.006326 -0.030048
0.071260 0.056425 -0.007258
0.001430 -0.059589 -0.005157
0.026596 0.065970 0.005301
0.035214 0.064781 -0.023878
0.070595 0.052252 -0.006132
0.082040 0.042539 0.006588
0.005500 -0.026857 0.048230
0.078867 0.048470 0.007898
-0.036860 -0.011151 0.047462
0.019838 -0.002968 0.036106
0.008887 -0.061431 -0.024978
0.070059 -0.047130 -0.038269
0.050415 0.058972 0.024069
0.056625 0.060879 -0.006629
0.051356 -0.060395 -0.049183
0.067076 -0.065832 -0.041467
-0.040989 0.031039 0.021719
0.000401 -0.057696 -0.005131
0.081413 0.046792 0.000185
0.021097 0.036748 0.030136
0.043042 0.058529 -0.040050
-0.045150 0.000806 0.046360
0.086936 -0.066432 -0.006770
0.015203 0.058531 0.019095
-0.038158 -0.003552 0.047355
0.062000 0.059195 -0.006135
0.059583 -0.055129 0.033351
-0.032292 0.036788 -0.015117
0.049697 -0.032739 -0.047396
0.015696 -0.007279 -0.037817
-0.088211 -0.024282 0.022328
0.002707 -0.002422 0.047254
0.089087 0.011487 -0.006732
-0.058394 -0.045980 0.038384
-0.037644 0.034651 -0.016994
0.045831 0.062515 -0.018908
-0.021121 -0.057938 0.013084
0.012697 0.055084 -0.026687
0.020208 -0.006752 0.036299
-0.082047 0.000112 0.024815
0.075172 0.052935 -0.018962
0.087917 -0.020372 0.007093
-0.047579 0.030001 0.021833
0.007746 -0.050610 0.026950
-0.000339 0.018397 0.035035
-0.007520 -0.033359 0.048191
-0.074549 -0.037647 0.032955
-0.040103 -0.046648 0.042592
0.081040 -0.044220 0.013079
0.075601 -0.066432 -0.034439
0.068952 0.056903 0.009829
0.077652 -0.027901 -0.035072
-0.039618 0.034434 -0.015651
0.030581 0.065206 -0.015468
-0.061513 -0.057797 0.018670
0.001227 -0.050426 0.032512
0.084646 -0.035592 0.006618
0.081663 -0.043292 -0.024133
0.006618 -0.009007 -0.025367
-0.056803 0.027294 0.025866
-0.044620 -0.052100 0.036542
0.019512 -0.039338 0.033984
0.062424 0.059349 0.004244
0.065068 -0.039830 0.029174
0.015765 0.014048 0.032809
0.000406 -0.056059 -0.018484
0.072535 -0.048334 -0.036442
-0.065008 -0.006231 0.042454
-0.049097 0.032584 0.009214
-0.070459 0.019993 0.025454
0.079729 -0.058036 -0.032283
0.024152 -0.065731 0.028803
0.085527 -0.057971 0.009894
-0.067293 0.024179 0.019250
0.016333 0.065205 -0.013236
0.078372 0.019253 -0.034036
0.072293 0.052510 -0.026717
0.072487 -0.032091 -0.038167
-0.086977 -0.003992 0.023634
0.013433 -0.047765 0.029611
0.059335 0.054820 0.025987
0.039937 -0.042958 0.033360
-0.026183 0.035825 -0.017886
0.055661 -0.000483 0.036394
-0.085517 -0.027309 0.025702
0.048818 0.061136 -0.002036
0.006838 -0.066432 -0.021744
0.040844 0.062945 -0.021469
-0.051241 0.007375 0.047612
0.015877 -0.007611 0.041448
-0.005459 0.006377 0.048040
0.063955 0.051393 -0.037662
0.032264 0.062340 0.021188
0.056627 0.057810 0.022394
0.039888 0.061208 -0.035599
0.063957 0.059278 -0.018899
-0.002980 -0.053647 0.013060
0.088419 -0.026530 0.002360
-0.014156 -0.037278 0.050009
0.030257 0.064806 -0.008392
0.063714 0.059250 -0.013430
0.070360 -0.036890 0.026196
-0.058831 0.029573 -0.002332
0.087945 -0.028365 -0.014361
0.018003 0.065835 -0.014443
0.069584 -0.042121 0.026166
0.032236 0.059099 0.027547
0.007589 -0.055939 0.019078
-0.001270 -0.043175 -0.023192
0.067085 -0.044221 0.027837
-0.032503 0.028316 0.026051
0.053684 0.055464 -0.040775
-0.032857 0.008987 0.046203
-0.039797 -0.058158 0.028860
-0.043092 0.032422 0.018234
0.004607 -0.055735 -0.021247
0.013923 -0.024644 0.042809
-0.010855 -0.054440 -0.023689
-0.078391 -0.045784 0.014625
0.011812 -0.048975 0.028628
0.021040 0.030724 -0.039429
-0.019805 -0.049833 0.033524
-0.011450 -0.053707 -0.023394
-0.022182 0.023547 0.030172
0.021854 0.064371 -0.023127
0.018879 0.008185 0.035462
0.027040 0.065788 -0.011183
0.077039 0.050482 -0.017877
0.067594 0.056519 -0.024890
0.045289 -0.066432 -0.047288
0.065437 0.056437 0.016448
0.029120 0.063552 -0.028787
-0.042372 0.034417 -0.010228
-0.068793 0.015083 0.032190
-0.022069 0.014200 0.040856
0.028336 0.003170 -0.045826
-0.014692 -0.055236 -0.002332
0.085737 -0.049147 -0.006132
0.008232 -0.024723 -0.023041
-0.019998 0.029080 -0.020459
0.029083 0.065311 0.002658
0.085460 -0.042599 -0.012368
-0.043807 0.028757 0.027321
0.070594 0.051512 0.018824
0.009485 0.061806 -0.006732
0.062917 0.000188 -0.046323
0.021397 -0.042896 0.031212
0.011403 -0.013293 0.044979
0.046159 -0.037131 -0.046602
-0.016648 -0.055125 0.026325
0.045789 0.062862 0.006263
0.071825 0.053934 0.011439
-0.056297 -0.054608 0.030526
0.081242 0.047139 -0.002533
0.044926 0.062579 0.013216
0.081435 -0.021010 0.019877
0.003951 -0.062125 -0.019311
0.001641 -0.037446 -0.022438
0.007729 -0.063178 -0.027938
0.056483 -0.062744 -0.048662
0.077843 -0.024427 -0.036059
0.086053 -0.047119 -0.008448
0.019214 0.062660 -0.028825
0.019942 0.066275 -0.001711
0.007729 -0.063178 -0.027938
0.012927 0.064545 -0.013502
-0.026858 0.040668 -0.010084
-0.057949 -0.057455 0.025711
0.068601 -0.060617 -0.043195
0.007273 -0.051506 -0.021662
0.075726 0.020146 0.024386
0.009737 0.001981 0.044562
0.045381 0.062788 0.005953
-0.027171 0.034157 -0.018897
-0.031029 0.032865 -0.019259
0.005481 -0.038850 0.039936
0.052698 0.061644 -0.025429
0.062476 0.059591 -0.014185
0.022164 0.066404 -0.005337
0.087670 0.020543 -0.013115
0.023911 -0.026611 0.033724
