-0.034806 0.050476 0.062738
-0.054561 -0.038659 -0.138450
-0.030806 -0.037855 -0.072726
-0.033202 0.042862 0.061768
0.051538 -0.050292 -0.121094
-0.015402 0.055872 0.148184
0.017124 0.035560 0.055156
-0.044015 0.054026 0.085226
-0.024245 -0.081928 -0.106247
0.003056 0.082028 0.139155
-0.025230 0.086808 0.120646
0.007159 0.034018 -0.108475
0.017044 -0.021670 0.148195
-0.033670 0.082241 0.098304
-0.050239 -0.022642 -0.108078
-0.038365 0.054317 0.072481
-0.030792 0.021877 -0.107879
0.013714 0.087664 0.127111
-0.041072 -0.068760 -0.108994
-0.029537 0.024227 0.065592
0.051469 -0.031621 -0.111278
-0.009775 -0.088931 -0.115783
0.016873 0.063630 -0.016914
-0.049072 0.064613 0.116931
-0.008484 0.063268 -0.023423
-0.024598 0.045190 -0.077823
0.042986 0.004412 -0.098404
0.025471 0.042476 0.050021
-0.037847 0.071984 0.127430
-0.054005 -0.043260 -0.133873
0.038550 0.065508 0.134581
-0.032688 0.049755 0.055499
0.044656 -0.019153 -0.081803
0.000845 0.031997 0.053662
-0.014238 -0.081682 -0.099067
0.038471 0.074318 0.081180
0.014222 0.038792 0.043964
0.017056 0.047223 -0.085948
-0.014943 0.080552 0.137383
0.027374 -0.083909 -0.120711
-0.047296 0.049146 0.095842
0.043008 0.062287 0.087226
-0.018302 0.039756 0.047347
-0.025109 0.087036 0.116196
0.036669 0.020239 -0.095127
0.029072 -0.048377 -0.076488
0.036795 0.004687 -0.140311
0.027522 0.086937 0.104681
0.017044 -0.021670 0.148195
-0.029525 0.085808 0.105476
0.005991 -0.091905 -0.141918
-0.008488 0.021052 -0.033552
-0.037049 0.045068 0.068780
-0.014879 -0.087038 -0.111280
-0.008488 0.066908 -0.003198
0.029826 0.081260 0.082153
0.023722 0.069337 0.039077
0.050070 -0.017026 -0.114072
0.030124 0.042369 -0.056392
-0.025848 0.042270 0.051542
-0.020781 0.071884 0.042888
-0.047799 -0.064805 -0.143183
-0.014528 0.090116 0.118917
0.043454 -0.003373 -0.145995
0.047288 -0.007792 -0.128719
0.004979 0.025453 -0.120819
-0.002746 -0.065247 -0.079970
-0.035572 -0.021670 0.071312
-0.014476 0.091222 0.106433
-0.029552 0.048276 -0.025166
0.018052 0.082990 0.131493
0.009717 0.087283 0.080630
0.030225 0.016030 -0.120874
-0.041371 0.062062 0.123478
0.032300 0.084983 0.106843
-0.028343 0.071395 0.134611
-0.020651 0.013600 -0.151065
0.019168 0.088895 0.094352
-0.022093 -0.085945 -0.118034
0.034647 0.027527 -0.052991
-0.026190 0.043380 0.044468
-0.007674 0.031892 -0.109734
0.020766 -0.038226 -0.068216
-0.023925 0.041782 0.045351
0.020456 0.087734 0.090903
-0.050100 -0.042455 -0.105582
-0.043530 0.074370 0.105474
0.014254 -0.055355 -0.075024
-0.046587 -0.063575 -0.118991
-0.012221 -0.043674 -0.069034
0.035724 0.076986 0.082329
0.043148 0.052646 0.123868
-0.045417 -0.006379 -0.093277
0.027652 0.073444 0.133664
0.051874 -0.047241 -0.119635
-0.005538 0.038228 0.046140
-0.047267 0.066034 0.119072
0.039357 0.001883 -0.142020
0.035660 0.067605 0.073712
-0.029328 0.022890 -0.108522
-0.053739 -0.042471 -0.130158
-0.053620 -0.025772 -0.142707
0.033156 -0.042883 -0.076281
-0.019723 0.085296 0.081729
-0.010567 0.062774 -0.024679
-0.017968 -0.024270 -0.062300
-0.047511 0.054245 0.100998
0.020540 0.073595 0.049326
0.042669 -0.006463 -0.076837
-0.053711 -0.047853 -0.138356
0.052102 -0.019808 -0.143686
-0.036335 0.012074 -0.116142
0.022900 0.078143 0.066229
0.040530 -0.066011 -0.100710
0.052112 -0.040173 -0.116089
0.037920 0.010569 -0.063336
0.048243 -0.039904 -0.095552
0.043576 0.073720 0.109631
0.020006 0.076531 0.054482
0.011544 0.080593 0.137175
0.032533 0.068473 0.132467
0.041134 0.072573 0.082871
-0.006194 0.045539 -0.099887
-0.054874 -0.033923 -0.151081
-0.016760 0.035423 0.055139
0.025623 0.079576 0.073591
0.024314 0.017076 -0.127656
-0.016645 -0.011348 -0.057088
0.036025 0.024579 0.071787
-0.005718 0.087407 0.079627
-0.029979 -0.066471 -0.090119
0.033651 0.005661 -0.057940
-0.045993 -0.029596 -0.085896
-0.042753 0.064863 0.117664
-0.016010 0.058714 -0.045248
-0.006999 0.066375 0.151552
0.024797 -0.047025 -0.073659
-0.043380 -0.071397 -0.146080
-0.004763 0.067847 0.000056
-0.019223 -0.088567 -0.131639
0.047908 0.064154 0.121135
-0.038652 -0.076599 -0.129790
-0.030983 0.031448 -0.092318
0.015481 0.059760 -0.036022
-0.008485 0.065216 -0.015360
0.027363 0.042243 0.054039
0.030610 -0.021670 0.066535
-0.028374 0.066238 0.050440
-0.004412 0.089737 0.125750
0.042104 -0.072132 -0.124582
0.019750 0.043338 -0.090825
0.025506 0.087656 0.101011
-0.010956 0.048669 -0.091385
0.033276 0.082631 0.109105
-0.034518 0.009821 -0.127805
-0.022852 0.087357 0.119153
0.024007 0.076329 0.059932
0.053401 -0.032541 -0.126347
-0.028443 0.045585 0.042031
0.029068 0.044454 0.053082
-0.013980 0.044802 -0.099650
-0.012500 0.052956 -0.070003
-0.002052 0.078488 0.140813
0.038000 0.079620 0.097754
-0.023884 0.027020 -0.028813
-0.014719 0.091103 0.104162
0.023190 0.072558 0.051651
0.033897 0.040584 0.064183
-0.027386 0.044277 0.042082
0.020131 0.073104 0.040248
0.019351 0.085898 0.083174
0.054897 -0.037556 -0.145077
-0.052097 -0.027262 -0.118310
-0.042363 0.070882 0.105765
-0.026949 0.010486 -0.152863
-0.014812 0.024103 0.057826
0.019377 -0.048197 -0.072317
-0.038000 0.008212 -0.121511
0.038437 0.000375 -0.066786
0.050006 -0.014394 -0.147063
-0.006159 0.088470 0.083225
0.022899 -0.087289 -0.133139
-0.030538 0.018164 -0.115544
0.003841 0.044053 -0.103068
-0.021417 0.072555 0.039183
-0.010779 0.064985 -0.012452
-0.012038 0.068276 0.007135
0.049417 -0.014034 -0.114608
0.036704 0.078801 0.109649
-0.042753 0.064863 0.117664
0.034988 -0.075320 -0.108453
0.028852 -0.064444 -0.087447
-0.015448 0.063117 -0.021338
0.014302 0.021632 -0.125812
-0.025041 0.077133 0.066979
-0.007107 0.017154 -0.151180
-0.036992 0.021312 -0.064370
0.013659 0.049255 -0.082560
-0.046013 -0.047261 -0.091723
-0.037065 -0.003868 -0.066212
0.032347 0.059159 0.050082
0.026821 0.011959 -0.140744
0.044785 0.072872 0.106627
-0.013816 0.016364 -0.145648
0.042173 0.066822 0.089722
-0.037547 0.065134 0.128150
-0.028959 -0.071711 -0.094901
-0.047790 -0.021670 0.106738
0.002410 0.053599 -0.076408
-0.047452 0.067557 0.087813
0.045762 0.050062 0.089242
-0.012622 0.068642 0.007071
0.017958 -0.046135 -0.070921
-0.015394 0.029209 0.150147
-0.021811 0.056641 0.150232
-0.009836 -0.089700 -0.121225
-0.040839 -0.001301 -0.071669
-0.008489 0.065960 -0.011207
0.029360 0.046972 0.046085
-0.024182 0.071942 0.041011
-0.021308 0.062077 0.144159
-0.033422 0.032383 -0.080470
0.050264 -0.027220 -0.105494
-0.028806 0.015140 -0.047230
0.050142 0.066476 0.100261
0.025094 0.038094 0.057027
0.015867 0.053281 -0.073071
0.041660 -0.021670 0.127106
-0.008493 0.063626 -0.024004
-0.003578 -0.075039 -0.088180
-0.029031 0.066906 0.054361
0.026769 -0.054503 -0.078829
-0.027308 0.010591 -0.148025
0.045480 -0.056787 -0.100055
0.002630 0.032835 0.053354
0.049944 -0.051601 -0.113322
0.039267 0.069010 0.069667
0.000705 0.069405 0.146568
-0.002990 0.069763 0.007652
0.044306 -0.001640 -0.124813
0.006350 0.062423 0.154074
0.027648 0.078212 0.129018
-0.043571 -0.016158 -0.079106
-0.022507 0.024014 -0.032859
0.013445 0.074936 0.045391
0.020346 0.052960 0.146564
0.021612 0.030052 0.147570
-0.052192 -0.054825 -0.151739
0.041810 -0.045438 -0.085169
-0.052968 -0.025496 -0.131009
0.033499 0.031599 -0.047901
0.045365 0.056322 0.116777
-0.021251 0.068531 0.015938
0.025079 0.040958 -0.087742
0.014222 0.038792 0.043964
-0.013887 0.066902 0.001027
0.045797 0.052254 0.117045
-0.037420 0.002839 -0.153228
0.016903 0.090533 0.112245
0.054981 -0.036475 -0.150603
0.010114 0.083995 0.071255
-0.006365 -0.021670 0.150899
-0.035850 0.054451 0.134637
0.003199 -0.091251 -0.129713
-0.026732 0.054135 0.142770
-0.000413 0.020574 -0.133480
0.016980 0.052759 -0.067397
0.019058 -0.088973 -0.138256
0.044953 -0.004026 -0.133009
-0.022501 0.029025 -0.021602
0.006580 -0.065975 -0.080740
0.028886 0.019341 -0.115879
-0.014632 0.090028 0.094637
-0.033567 0.032135 0.067457
-0.024666 0.019342 -0.121670
-0.010518 0.031026 -0.110291
-0.044839 0.052188 0.086920
0.024695 0.076601 0.065166
0.042805 0.062589 0.119803
0.034950 -0.080114 -0.142678
-0.026946 0.050186 -0.073304
0.005771 0.025652 0.055699
-0.024232 -0.086858 -0.155599
-0.002982 -0.092099 -0.141619
0.000415 -0.092307 -0.145064
0.003283 -0.089480 -0.115230
-0.036290 0.022210 -0.059918
-0.014723 0.072515 0.142250
-0.011274 0.061719 -0.029633
-0.017933 -0.086588 -0.113367
0.006509 -0.061608 -0.077770
0.014867 0.031080 0.056731
-0.037680 -0.077121 -0.125649
-0.051762 -0.043400 -0.115684
-0.035118 0.029414 -0.076622
0.030773 0.054757 0.040754
-0.045005 -0.055049 -0.095769
0.032607 0.023972 -0.046234
-0.000084 0.026211 -0.021844
-0.040876 -0.049959 -0.086734
0.019639 0.022539 -0.033553
-0.048040 -0.055187 -0.108890
0.031677 -0.082540 -0.134018
-0.048405 -0.063663 -0.146812
0.034510 0.006426 -0.058683
0.020303 0.037547 0.054625
0.022184 0.040916 0.046139
-0.019316 0.016309 -0.137053
-0.025162 0.049943 -0.076893
-0.038372 -0.075492 -0.120244
-0.008040 -0.090398 -0.125170
0.039711 0.074873 0.097811
0.026192 0.031127 -0.023101
-0.019754 -0.006215 -0.055487
-0.035140 0.022897 -0.095563
0.046064 0.068769 0.116408
-0.027777 0.051631 -0.029270
-0.002988 0.067083 -0.005156
-0.025948 0.038255 0.057544
-0.017169 0.059027 -0.037397
-0.029263 -0.084169 -0.139292
-0.047296 0.049146 0.095842
-0.019351 -0.002766 -0.053737
0.046565 -0.066746 -0.133615
0.040725 0.073883 0.103868
-0.034300 0.035959 0.066912
-0.017046 -0.070846 -0.087165
-0.028405 0.079614 0.128633
0.027197 0.074904 0.066232
0.054633 -0.043801 -0.149938
-0.005832 -0.091945 -0.142604
0.045337 -0.065952 -0.119076
-0.049670 -0.040944 -0.155599
-0.000143 -0.089557 -0.115248
0.000632 0.037468 0.047842
-0.018090 -0.060497 -0.079224
0.040115 0.073478 0.095043
0.004725 0.079196 0.055895
0.028362 0.068660 0.031608
-0.034327 0.049157 0.061207
-0.033353 -0.081388 -0.138439
-0.030523 0.042711 -0.046519
-0.028720 0.036873 0.060830
-0.012293 0.085899 0.077732
0.044711 0.061272 0.115161
-0.015356 0.039181 0.048780
-0.037364 -0.078033 -0.140870
0.030926 0.022162 -0.044334
0.036148 0.033002 0.070349
-0.036382 -0.057607 -0.087648
-0.027854 -0.085008 -0.140401
0.005014 -0.059017 -0.076094
-0.004557 0.003346 -0.049121
-0.026921 0.040678 0.055782
0.043689 0.064898 0.092287
0.031489 0.050982 0.048746
-0.039385 -0.073856 -0.118004
-0.043604 0.066798 0.095454
-0.010575 0.071520 0.147162
-0.006147 0.086524 0.131982
-0.017968 -0.024270 -0.062300
0.035935 -0.075247 -0.110809
0.013581 0.061737 -0.027529
0.043797 -0.070876 -0.133771
0.018176 -0.001614 -0.052939
-0.015450 0.065686 -0.004231
-0.043349 0.001956 -0.115020
0.045105 -0.051308 -0.092868
-0.013966 0.034442 -0.104701
-0.026296 -0.024978 -0.065849
0.030268 0.044363 -0.038435
-0.019375 -0.087079 -0.118799
0.001335 0.053933 -0.070472
-0.014136 0.085547 0.130463
-0.008487 0.064164 -0.018632
-0.010753 -0.090157 -0.126320
0.047594 -0.008086 -0.123769
0.018606 -0.084986 -0.107988
-0.037628 0.076155 0.092389
0.034454 0.011460 -0.123224
0.005420 0.091738 0.116816
-0.031003 0.040505 -0.021643
0.000949 -0.087212 -0.105641
-0.028476 0.053297 -0.056827
-0.052666 -0.041586 -0.120725
0.023961 0.056584 -0.031802
0.025660 -0.003536 -0.056372
0.024286 0.041407 0.051133
-0.047217 -0.021670 0.095249
0.054354 -0.029812 -0.143921
-0.030419 0.038106 -0.084626
-0.049536 -0.021836 -0.104225
-0.039342 -0.054775 -0.088358
-0.028308 0.004343 -0.053688
-0.034760 0.074881 0.123361
-0.029525 0.085808 0.105476
-0.048693 -0.062288 -0.129837
-0.004948 -0.073042 -0.086359
0.046098 0.055443 0.114589
0.028169 0.044148 -0.080671
0.033273 0.029326 -0.044863
-0.019947 0.085049 0.127294
-0.017855 0.039436 0.049680
0.022947 0.035481 0.057836
0.010503 0.087989 0.128029
-0.046435 -0.038556 -0.088725
-0.033315 0.011808 -0.125126
0.046829 -0.048236 -0.094226
-0.004548 0.069070 0.007051
0.041158 0.062673 0.134443
-0.004517 0.069011 0.006692
0.039730 0.009087 -0.111498
-0.001320 0.092462 0.108464
0.031283 0.052047 0.046131
-0.021595 0.033541 -0.101698
-0.049082 -0.039160 -0.099264
0.045566 -0.062053 -0.110407
-0.031606 0.083742 0.097440
-0.017422 0.073866 0.040313
-0.031559 0.046681 0.055147
0.005481 0.030792 0.054600
0.021848 0.013138 -0.150453
-0.029792 0.022725 0.065882
-0.019926 0.088388 0.093014
-0.047273 -0.065440 -0.133034
0.025405 0.013379 -0.137832
0.023385 0.086875 0.119872
-0.004121 0.028382 0.151142
-0.021842 0.055455 -0.057589
0.041395 -0.000584 -0.073426
0.026904 -0.080427 -0.106072
0.038742 -0.074716 -0.118554
0.030468 0.085178 0.103653
-0.012273 0.056185 -0.056636
-0.006819 0.089981 0.124365
0.031261 0.065096 0.058974
-0.044291 -0.061676 -0.104499
-0.028563 0.074109 0.132224
0.033636 0.014117 -0.118358
0.027485 0.050002 -0.040525
-0.025778 0.002140 -0.053396
0.004798 0.062920 0.148879
0.031257 0.034707 -0.032633
-0.046357 -0.042908 -0.090143
-0.021271 -0.064776 -0.083601
-0.007523 0.087197 0.130570
-0.045506 -0.037470 -0.155599
0.040095 0.053935 0.076213
-0.051725 -0.018921 -0.138586
-0.031080 0.079270 0.082338
-0.021511 0.030300 0.059580
0.030989 0.054937 0.011525
-0.017330 0.077382 0.137594
0.049406 0.049828 0.108880
-0.035183 0.010751 -0.123130
-0.027678 0.019846 -0.116632
-0.029480 -0.046805 -0.075890
0.031143 0.075176 0.131626
0.052024 -0.027003 -0.117732
0.017040 0.032725 -0.105509
0.050688 -0.042903 -0.108908
-0.037517 0.054338 0.132630
-0.034450 0.031561 -0.070805
-0.010873 0.025072 -0.120056
-0.019060 -0.089084 -0.148018
-0.050635 -0.038586 -0.106849
0.007642 -0.090844 -0.129016
0.044574 -0.069271 -0.127763
0.000304 0.070297 0.149533
-0.015328 0.058064 -0.044851
0.015467 0.090673 0.114195
0.027056 0.032825 0.061742
-0.009178 0.044305 -0.101925
0.010108 0.052279 -0.079843
-0.037461 0.007588 -0.125460
-0.041735 -0.065264 -0.102968
0.022328 0.022117 -0.118474
0.051399 -0.057128 -0.145623
-0.013952 0.066901 0.001080
0.047228 -0.059092 -0.111919
0.000632 0.037468 0.047842
-0.025919 0.082725 0.126764
0.026202 -0.021975 -0.064690
-0.032355 0.079237 0.121067
-0.009666 0.038604 0.047171
0.027545 0.051630 0.142492
0.014107 -0.090329 -0.136675
-0.042798 -0.041796 -0.084646
0.017021 -0.005495 -0.054610
0.019351 0.085898 0.083174
0.006509 -0.061608 -0.077770
-0.019006 0.046450 -0.086071
0.012198 0.027680 -0.017820
-0.043555 0.061539 0.088215
-0.019219 0.090064 0.110344
-0.031916 -0.082115 -0.128932
0.022280 0.004700 -0.050506
0.038237 0.034652 0.132266
0.004257 -0.091318 -0.130939
-0.011366 0.080164 0.061254
-0.004654 0.069370 0.008852
-0.046406 0.057291 0.111519
0.031419 0.024884 -0.101675
-0.033072 0.035258 -0.057711
0.036698 0.079369 0.101380
0.018075 -0.089442 -0.147787
0.028688 0.074620 0.062614
-0.025310 0.021469 -0.116483
-0.008724 0.044511 -0.094824
0.035780 -0.070990 -0.100444
-0.032606 0.084758 0.105149
0.045563 0.070577 0.090479
0.025867 -0.086027 -0.155598
-0.034044 -0.074115 -0.103126
-0.020604 0.073487 0.049109
0.039885 0.010154 -0.106850
0.031149 0.009631 -0.053078
0.013714 0.087664 0.127111
0.013009 0.045167 -0.092715
-0.041461 -0.001226 -0.150095
-0.015768 0.058847 -0.044794
-0.036799 0.030403 0.071939
0.028485 0.080020 0.127964
0.051841 -0.054381 -0.132028
-0.037145 -0.070549 -0.101789
-0.002990 0.069953 0.011453
0.029914 -0.083110 -0.125631
0.052768 -0.032332 -0.120603
-0.051260 -0.056187 -0.131961
0.030184 0.048279 0.046594
-0.053760 -0.025906 -0.149938
0.024791 0.065000 0.141009
0.003046 0.052958 0.151021
0.018502 -0.082786 -0.103263
0.035029 0.043429 0.064761
-0.027838 -0.066266 -0.088432
0.027636 0.069276 0.054780
-0.009973 0.067927 0.003617
-0.024329 0.030553 0.060943
0.034229 0.025359 -0.049729
0.028660 0.039628 0.058649
0.025840 0.043046 0.044278
0.016083 0.015150 -0.153004
-0.034555 0.045250 0.062998
-0.024910 0.036859 0.058004
-0.029237 0.046763 0.046585
-0.029965 0.076508 0.070346
0.048515 -0.047726 -0.101489
0.035557 0.004893 -0.146867
-0.051002 -0.028325 -0.109531
0.031017 0.039392 -0.023287
0.034631 0.081587 0.100189
0.041918 0.003511 -0.119293
-0.003878 -0.078756 -0.092289
-0.011724 0.066540 -0.002903
-0.011191 0.067560 0.002434
0.016977 0.028156 -0.017833
-0.036858 0.065447 0.074310
-0.026921 0.040678 0.055782
0.038239 0.031735 0.073771
0.027444 0.037186 -0.090248
0.024175 0.088348 0.110466
-0.028012 0.042028 -0.075455
-0.015468 0.081606 0.134521
0.010799 0.020896 -0.129678
-0.010739 0.034446 0.053930
0.024220 0.049622 0.144730
-0.046299 -0.064958 -0.121429
0.022184 0.040916 0.046139
-0.035961 -0.052047 -0.083362
0.031190 -0.021670 0.139795
-0.003626 0.070219 0.010632
-0.016555 0.008819 -0.046617
-0.027060 0.087185 0.105436
0.015382 0.049607 -0.080408
0.029489 0.032134 -0.030058
-0.028053 0.055994 -0.043911
-0.008484 0.024444 -0.027405
-0.010098 0.064223 -0.017217
-0.019006 0.046450 -0.086071
-0.009584 -0.069096 -0.083562
-0.035640 0.033618 0.135395
0.032677 0.034367 -0.043054
-0.037688 0.018615 -0.093673
0.027548 0.064240 0.145252
0.053837 -0.035842 -0.129308
-0.028719 -0.038366 -0.071701
-0.008485 0.062133 -0.029284
0.029489 0.032134 -0.030058
-0.039785 -0.075653 -0.135201
0.019442 0.044997 -0.088411
-0.047519 -0.007765 -0.113836
0.011864 -0.067627 -0.082834
-0.040239 -0.066337 -0.100604
-0.009414 0.065944 0.151404
0.027363 0.042243 0.054039
-0.008049 0.074534 0.145332
0.034678 0.034168 0.068042
0.034188 -0.057559 -0.085712
0.034671 -0.039544 -0.075955
-0.030619 0.026706 -0.100282
-0.017467 0.076020 0.140784
-0.044329 -0.003901 -0.139153
0.048796 -0.011784 -0.144567
0.036797 0.062723 0.071759
0.011544 0.078628 0.138932
-0.045714 -0.052420 -0.094828
-0.023864 0.038488 0.055755
-0.019376 0.018849 -0.128813
-0.006768 0.068571 0.005311
-0.038647 -0.021670 0.131729
0.006407 0.075801 0.142356
-0.013724 -0.039645 -0.067513
-0.031024 0.084806 0.104170
-0.001949 0.089830 0.125862
0.016981 0.090665 0.104721
0.045105 -0.051308 -0.092868
-0.016756 0.079199 0.062310
-0.047769 0.042950 0.106923
0.016969 0.024253 -0.118617
-0.045698 -0.040645 -0.155599
0.003329 0.005025 -0.048073
0.043565 -0.071191 -0.145680
0.045936 -0.004935 -0.127080
-0.036381 -0.078857 -0.143991
0.029360 0.046972 0.046085
0.024992 0.069966 0.047360
0.033514 0.082482 0.098846
0.050062 -0.053420 -0.116675
-0.030767 0.073678 0.130249
0.012445 -0.089950 -0.127141
-0.021200 0.057039 -0.050031
0.023009 0.087991 0.116409
0.034867 -0.027000 -0.072113
0.051844 -0.043348 -0.116065
0.019391 0.081173 0.134298
0.037768 0.013072 -0.108497
0.018143 0.075233 0.051347
0.001506 0.087737 0.130652
-0.010068 0.062594 -0.025922
-0.041903 0.057602 0.081265
-0.000070 0.062731 -0.028943
-0.015585 0.090371 0.116218
-0.003460 -0.010284 -0.055703
0.053332 -0.045361 -0.128776
0.023274 0.027315 -0.108681
-0.043941 0.067542 0.105860
0.029167 0.042415 -0.066241
-0.031703 0.039294 -0.049152
-0.045276 -0.004043 -0.129059
0.023214 0.057427 -0.045353
-0.040751 0.073599 0.100160
-0.025751 0.034706 0.059984
0.018512 0.033574 -0.103688
0.051844 -0.043348 -0.116065
-0.005292 0.031438 -0.110730
0.030311 -0.070763 -0.094887
0.052883 -0.052554 -0.145095
-0.041403 0.057763 0.125691
-0.008527 0.034073 -0.108171
0.030109 0.081663 0.120705
-0.011050 0.016413 -0.155599
-0.030750 0.043475 -0.023630
0.015515 -0.086013 -0.108025
-0.032076 0.017387 -0.114244
-0.043574 0.052158 0.083699
-0.043984 0.060693 0.118070
0.019051 0.046294 -0.086398
0.033684 0.033702 -0.063660
-0.035675 -0.061145 -0.089915
-0.047413 0.052320 0.109142
-0.009809 0.075784 0.046183
-0.002718 -0.047571 -0.070208
-0.033774 0.080115 0.090586
-0.044772 -0.004148 -0.135898
0.018129 0.025729 0.058933
-0.048050 0.067015 0.114319
0.046633 -0.063301 -0.118446
-0.025073 0.030360 -0.022592
-0.044663 0.057919 0.118004
0.016596 -0.033421 -0.065415
0.031574 0.084344 0.102021
-0.025082 0.087949 0.102295
0.029582 0.058698 0.034454
-0.031075 0.056730 0.048509
0.005385 0.066023 0.147732
-0.005718 0.075939 0.044963
0.032867 0.062654 0.061390
0.040115 0.073478 0.095043
-0.004172 0.079105 0.055502
0.045537 0.059691 0.093361
0.002019 -0.080510 -0.094378
0.023078 -0.009904 -0.058276
-0.001629 0.047133 -0.090892
0.022144 0.064346 0.148178
-0.045041 -0.058219 -0.100844
-0.001360 0.059414 0.150071
-0.008832 0.055055 -0.063825
0.030158 0.027574 -0.037775
-0.010881 0.067241 0.000385
0.047527 0.050867 0.097706
-0.042904 0.004271 -0.093914
-0.039195 0.065153 0.125438
0.019295 0.073460 0.046498
-0.050564 -0.051142 -0.116314
0.025061 0.029140 -0.025875
-0.028271 0.068536 0.030601
0.021705 0.048965 -0.074159
0.009323 0.047248 -0.089497
0.036701 0.070424 0.125176
-0.010511 0.083139 0.069093
0.031434 0.084195 0.099596
-0.013997 0.034402 -0.106323
-0.035890 0.078524 0.087062
-0.027321 -0.048233 -0.075483
0.034952 0.027306 -0.055405
-0.047413 0.052320 0.109142
0.040458 0.002665 -0.130931
0.031079 0.010151 -0.136573
-0.000532 0.017898 -0.147076
0.030319 0.027072 0.065792
-0.030225 0.042039 -0.057010
-0.010532 0.044742 -0.094121
0.005915 0.017371 -0.149878
-0.030078 0.048335 0.044630
-0.026328 0.080465 0.127678
0.021711 0.024193 -0.115158
-0.045776 0.051611 0.089607
-0.032856 0.035463 -0.050382
0.035338 0.057332 0.061340
-0.005383 0.075321 0.145153
-0.046630 -0.065595 -0.126088
-0.009809 0.075784 0.046183
-0.020101 0.024496 -0.115934
-0.035053 -0.077200 -0.114547
-0.022878 0.042164 -0.094118
-0.001663 0.036547 0.049851
0.045105 -0.051308 -0.092868
-0.019426 0.021160 -0.123097
0.009702 -0.090203 -0.125312
0.023015 0.031546 0.059901
0.024698 0.034891 0.059214
-0.029650 0.044068 -0.050913
-0.037782 0.059838 0.072504
-0.039941 0.002743 -0.133309
0.023525 0.054700 -0.043525
-0.051265 -0.056682 -0.134542
-0.008485 0.062293 -0.030864
-0.024180 0.063238 0.142097
-0.027071 0.070432 0.056010
0.010643 0.078665 0.140929
0.038369 0.005569 -0.129084
0.037945 -0.077512 -0.139730
-0.044772 -0.004148 -0.135898
-0.010540 0.088091 0.127793
-0.008850 0.077973 0.140224
-0.013800 0.016111 -0.147868
-0.053307 -0.033881 -0.124913
0.050458 -0.040733 -0.106552
-0.026667 0.076133 0.134721
-0.042764 0.058635 0.122545
0.047235 -0.021670 0.095249
0.000151 -0.065389 -0.080020
0.028755 0.076126 0.130100
0.033211 0.080591 0.090335
-0.028964 0.062589 0.044765
0.008553 0.030316 0.055313
0.037268 0.030814 0.072490
0.017062 -0.008537 -0.055966
-0.031733 -0.063866 -0.089002
0.005368 -0.092219 -0.155599
0.018430 0.029572 0.149018
-0.050635 -0.038586 -0.106849
0.001682 0.037156 0.048737
-0.011694 -0.066192 -0.081679
0.026500 -0.030535 -0.067899
-0.026714 0.053800 -0.027308
-0.044437 0.065658 0.097938
0.029302 -0.015691 -0.064022
-0.009039 0.046400 -0.091425
0.026134 0.030236 -0.101734
0.023348 0.040080 0.053048
0.033317 -0.081337 -0.132893
-0.023147 -0.054123 -0.076936
0.024524 0.074018 0.058851
-0.026374 0.043614 0.046495
-0.050413 -0.017054 -0.118881
-0.024806 0.014282 -0.044992
0.026349 0.068692 0.048393
-0.010069 0.063041 -0.025999
0.030345 -0.054960 -0.081164
0.042702 0.069464 0.109632
0.040450 0.063856 0.081730
-0.047642 0.049328 0.098497
-0.003499 0.086496 0.132454
0.039976 0.063885 0.124969
-0.012866 0.090504 0.095530
0.046680 -0.006713 -0.104038
-0.025966 -0.029980 -0.067442
0.041788 -0.069576 -0.113687
-0.031703 0.039294 -0.049152
0.054571 -0.030654 -0.149499
-0.001847 -0.072092 -0.085299
0.023928 0.073701 0.056767
0.028277 0.012737 -0.048480
-0.028123 0.036471 -0.090112
-0.037640 -0.041741 -0.079291
0.035338 0.057332 0.061340
0.015924 -0.039130 -0.067538
-0.035533 0.082093 0.106110
-0.042685 0.049567 0.125118
0.032630 0.035166 0.065319
0.044744 -0.061508 -0.105887
-0.042662 -0.063300 -0.101905
0.048278 -0.009700 -0.120081
-0.005512 0.068859 0.006307
0.042723 0.001112 -0.124000
-0.041903 0.057602 0.081265
0.024221 0.001790 -0.052868
-0.028118 0.023354 -0.109518
-0.036683 0.077759 0.113432
0.039024 0.071964 0.125645
0.031277 0.083102 0.093424
0.000072 0.047122 -0.096837
-0.047023 0.069739 0.093871
-0.049955 -0.054004 -0.117086
-0.040639 0.072139 0.093902
-0.026069 -0.085975 -0.145651
-0.029083 0.046660 0.044721
-0.007179 0.037993 0.048447
-0.014872 0.039257 0.046972
-0.048971 0.066838 0.110923
-0.013824 0.061830 -0.027186
0.017863 -0.080859 -0.099624
-0.014640 0.067009 -0.000247
-0.015453 0.067820 0.005057
0.021509 0.029301 -0.018512
0.032468 -0.079635 -0.115738
-0.046808 0.048917 0.093247
-0.024463 0.076136 0.136457
0.015647 0.054387 -0.061848
-0.036309 0.010099 -0.060129
0.048515 -0.047726 -0.101489
0.043641 0.073702 0.094631
-0.008662 0.061704 -0.032097
0.027733 0.026132 0.064040
0.014814 0.056290 -0.059405
0.009323 0.047248 -0.089497
0.025765 0.049306 -0.056377
-0.007047 -0.088127 -0.109119
-0.016496 -0.088397 -0.121878
-0.034537 0.061442 0.065251
-0.041077 -0.064136 -0.098822
-0.031910 0.025999 -0.098883
-0.028839 0.086193 0.107076
-0.013393 0.052009 -0.073344
-0.040790 -0.031065 -0.078840
0.030702 0.076748 0.076631
0.025602 -0.082582 -0.110485
-0.036180 0.057349 0.133578
0.039885 0.010154 -0.106850
0.027462 0.073645 0.064249
-0.024758 -0.039560 -0.070221
-0.009417 -0.080120 -0.095019
0.023271 0.018447 -0.125502
-0.032587 0.047475 0.056911
0.025955 0.043031 0.048883
0.036501 0.046711 0.067301
0.047760 -0.064903 -0.138934
-0.025296 0.053128 -0.041170
-0.020147 0.089820 0.104352
0.051077 -0.050607 -0.118554
0.024181 0.011942 -0.155599
-0.025155 0.042646 0.047284
0.019776 0.046984 -0.083758
0.009948 0.016714 -0.151150
-0.029688 0.028641 -0.035629
0.030707 0.082068 0.088655
-0.008488 0.063334 -0.025466
-0.023033 -0.058098 -0.079430
-0.045561 -0.064526 -0.116344
0.037057 0.043270 0.136933
-0.050635 -0.038586 -0.106849
-0.016975 0.069945 0.142818
-0.012504 0.067410 0.002647
0.013981 0.081350 0.066135
-0.016645 -0.011348 -0.057088
-0.032324 0.013502 -0.052278
0.013793 0.016669 -0.143696
-0.004700 0.050648 -0.081316
0.019911 0.019467 -0.037820
0.030834 0.042960 -0.024699
0.011719 0.016289 -0.152984
-0.036362 0.033636 0.136407
-0.020800 -0.088381 -0.140258
0.027047 -0.085376 -0.134695
-0.026457 0.087123 0.100142
-0.002841 -0.044163 -0.068730
-0.004274 0.092082 0.114383
-0.004260 0.034391 0.052572
-0.007206 0.066247 -0.010392
-0.008774 -0.084313 -0.101377
-0.015446 0.062785 -0.023200
0.047490 -0.049002 -0.097953
-0.014738 0.039457 -0.102764
-0.050238 -0.056698 -0.123970
-0.046524 -0.020608 -0.089320
0.032574 0.069869 0.053385
0.014441 0.042173 -0.095743
0.031993 0.078358 0.078720
-0.009137 -0.066503 -0.081453
-0.000015 0.080450 0.140976
0.029295 0.062523 -0.002322
-0.003414 0.072836 0.144605
0.026575 0.086356 0.115691
0.042099 0.071448 0.105182
0.030852 0.004682 -0.055490
0.030521 0.074779 0.129504
-0.046060 0.054540 0.085182
-0.035977 0.018555 -0.101579
-0.039196 0.074236 0.093273
-0.046942 0.070475 0.105041
-0.026415 0.023962 -0.110705
0.047023 -0.041945 -0.091079
0.046187 0.039937 0.116174
-0.002748 0.038056 0.045187
0.041853 -0.048628 -0.086995
0.009171 -0.058732 -0.076242
0.001809 0.086888 0.132032
-0.013311 0.045755 -0.097786
-0.039528 0.034868 0.132571
-0.034271 0.047437 0.061399
0.029460 0.014116 -0.127201
0.029291 0.066227 0.142451
-0.025239 0.069321 0.045772
0.004656 0.072257 0.147730
0.030622 0.048285 0.049402
0.019051 0.046294 -0.086398
0.030966 0.050855 0.041173
-0.027658 0.068241 0.141864
-0.038375 0.008867 -0.118122
0.047337 -0.065640 -0.143122
0.022190 0.045874 -0.082117
-0.030959 0.050819 0.042771
0.027759 0.040056 0.057329
-0.014723 0.072515 0.142250
0.036617 0.072419 0.123138
0.019936 0.079096 0.065126
-0.044883 0.062473 0.094000
0.052102 -0.019808 -0.143686
-0.034519 0.081671 0.106934
-0.025524 0.078352 0.070548
0.041250 -0.000839 -0.148047
0.026332 -0.085488 -0.129747
0.033866 0.080745 0.092585
-0.052639 -0.052052 -0.134876
0.053453 -0.024483 -0.149392
-0.009927 0.084941 0.073808
0.003237 0.091379 0.119822
-0.028563 0.074109 0.132224
-0.047655 0.052425 0.106409
-0.048478 0.068718 0.102649
0.013532 0.075467 0.140733
0.022899 -0.087289 -0.133139
-0.016834 0.071240 0.025641
-0.019376 0.018849 -0.128813
0.028626 0.068039 0.055257
0.052202 -0.022787 -0.126964
-0.011958 0.085819 0.131131
-0.002943 0.017475 -0.155599
-0.034562 -0.080402 -0.142678
0.025388 0.039013 0.056310
-0.024796 -0.051018 -0.075822
-0.011613 0.065337 -0.009778
0.020602 0.050227 -0.071638
-0.034386 0.027757 -0.088468
0.025828 -0.086105 -0.138114
0.048307 -0.010196 -0.113748
-0.041410 0.068857 0.116469
-0.036102 0.004813 -0.143472
0.035407 0.063218 0.068666
-0.021652 0.028128 0.060181
0.053961 -0.028392 -0.139230
-0.016245 0.075484 0.139605
0.022339 0.026233 -0.028750
0.020051 0.013993 -0.148925
-0.012859 0.067070 0.001040
-0.033791 -0.080951 -0.146472
0.033724 0.049618 0.059155
-0.033913 0.068583 0.130737
-0.028162 0.072948 0.064399
0.029170 0.015413 -0.124288
0.019860 -0.006233 -0.055526
-0.032549 0.028234 -0.043255
0.024864 0.015731 -0.130627
0.038696 0.008075 -0.119389
-0.023132 0.011280 -0.046524
0.049261 -0.049200 -0.106713
-0.014217 0.066930 0.001496
-0.023197 0.079511 0.133582
-0.043351 -0.020402 -0.079482
0.023808 0.074102 0.051571
0.045537 0.059691 0.093361
-0.005355 0.059140 -0.046988
0.023550 0.075082 0.059572
-0.052665 -0.036863 -0.119228
-0.012449 -0.079613 -0.095274
0.004794 0.032935 0.053573
-0.050610 -0.057799 -0.130745
0.000666 0.033946 0.052513
-0.013493 0.054089 -0.064630
-0.054553 -0.030628 -0.149833
0.026479 0.013943 -0.133479
-0.031975 -0.039819 -0.074204
-0.004656 0.070135 0.010646
0.027138 0.079065 0.074715
-0.045802 -0.053189 -0.095858
-0.033414 0.048844 0.058429
-0.041231 0.066042 0.130513
0.052494 -0.036763 -0.117865
-0.007938 0.071048 0.148115
-0.045785 0.062577 0.105282
-0.051547 -0.025052 -0.115701
-0.030473 0.071379 0.132541
0.037760 -0.035543 -0.077118
-0.030862 0.049333 -0.021940
0.000228 0.035795 0.050778
0.009360 0.087878 0.128741
-0.002242 0.069970 0.149665
-0.044671 -0.002453 -0.094000
0.030225 0.016030 -0.120874
0.013906 0.076458 0.141921
-0.022982 0.080406 0.130914
-0.011242 0.066512 -0.006082
0.036220 0.073968 0.084054
-0.035569 0.028447 -0.074235
-0.046782 0.058923 0.103395
-0.031250 -0.006710 -0.061566
0.011598 0.031330 0.055680
0.019051 0.046294 -0.086398
-0.027801 0.044438 0.049884
0.049448 -0.013370 -0.155598
0.036025 0.027031 -0.077253
0.050688 -0.042903 -0.108908
0.008751 -0.091331 -0.137053
0.014179 0.056685 0.148453
0.037249 0.013027 -0.061250
0.026013 -0.083177 -0.113443
0.016091 0.089897 0.095598
0.022806 0.088978 0.104708
-0.030663 0.020081 -0.111444
0.015440 0.054082 0.148432
-0.007486 -0.073122 -0.086763
-0.041371 0.069982 0.114680
0.027191 0.069312 0.053325
0.031030 0.058337 0.138605
-0.019779 0.087182 0.123471
0.025941 0.042355 0.051474
0.054600 -0.035636 -0.139138
0.038006 0.002986 -0.144039
0.031881 0.053207 0.051202
-0.021836 0.027668 -0.109371
-0.020100 0.034720 0.056971
0.049590 -0.021182 -0.104924
0.047003 -0.064860 -0.125696
0.024679 0.083158 0.081497
-0.029294 0.009174 -0.150742
0.007824 -0.087416 -0.107350
-0.043484 -0.070965 -0.129217
0.034321 0.078850 0.117739
0.008390 0.045372 -0.093520
0.022715 0.047046 -0.089012
0.002709 0.060615 0.149724
0.012619 0.031026 -0.109644
-0.031352 0.039507 -0.058862
0.022640 -0.055710 -0.077703
0.009621 0.074227 0.145217
-0.019797 0.049922 -0.074231
0.038441 -0.017913 -0.072468
-0.007107 0.017154 -0.151180
0.042702 0.069464 0.109632
0.044906 0.064508 0.108640
0.032659 0.032846 -0.041080
-0.052088 -0.020527 -0.134855
-0.029688 0.028641 -0.035629
-0.035424 -0.079386 -0.127989
0.013039 -0.090895 -0.147043
-0.038369 -0.069225 -0.101845
0.040962 0.048021 0.077720
-0.005887 0.067033 -0.004037
-0.031973 0.043398 0.059373
-0.050771 -0.044926 -0.110891
-0.004169 0.033933 -0.108933
-0.031846 0.033406 -0.036628
-0.035382 0.004641 -0.152799
-0.046808 0.048917 0.093247
0.000088 -0.089998 -0.118322
-0.043887 0.053011 0.122103
-0.027146 0.079270 0.075225
0.044407 -0.003863 -0.138183
-0.042107 -0.058675 -0.094664
0.039374 0.042124 0.074162
-0.009815 0.074774 0.041995
-0.017600 0.061826 -0.026326
0.005766 0.076838 0.048357
0.022717 -0.072319 -0.091347
-0.046630 -0.065595 -0.126088
0.037986 0.020857 -0.077074
-0.006770 0.067465 -0.003712
0.033056 -0.081599 -0.141567
-0.019316 0.016309 -0.137053
-0.012521 0.067275 0.001899
-0.036032 0.036517 0.069121
0.027762 0.040588 -0.081649
-0.027185 0.050974 -0.037958
0.038098 -0.049471 -0.083626
0.005872 0.087208 0.130952
0.029079 0.058078 -0.029550
-0.003848 0.067780 -0.003408
0.051235 -0.019636 -0.122349
0.031219 0.059259 0.040005
0.028450 0.043218 -0.067567
0.026821 0.011959 -0.140744
0.008389 0.078518 0.141687
0.032531 0.053538 0.054769
-0.021168 0.076590 0.136057
0.039301 -0.008944 -0.070784
0.024840 -0.030343 -0.067018
-0.001968 0.067341 0.151471
0.045342 0.056039 0.089768
0.053019 -0.044097 -0.124910
-0.021214 0.074321 0.053114
0.024145 0.069384 0.041128
0.034386 -0.074930 -0.105897
0.009827 0.068895 0.149306
-0.017004 -0.006438 -0.055044
0.049261 -0.049200 -0.106713
0.042145 0.066594 0.117465
0.009621 0.074227 0.145217
0.025733 0.060185 -0.024711
0.029225 0.017022 -0.046164
0.042335 -0.040898 -0.083694
-0.010067 0.062509 -0.028732
-0.048007 -0.016415 -0.099268
-0.002904 0.046112 -0.092864
-0.029132 0.018760 -0.044703
0.036759 -0.040166 -0.077863
0.049870 -0.044949 -0.105896
-0.026695 0.077353 0.067168
-0.007940 0.075420 0.043715
-0.031075 0.056730 0.048509
-0.024113 0.082561 0.128864
0.011743 0.014394 -0.041586
0.014184 0.059855 0.147776
-0.036745 0.062086 0.139787
-0.031096 0.064196 0.045451
0.041660 -0.021670 0.127106
-0.017186 0.034539 0.055913
-0.012541 0.067648 0.001419
-0.022471 0.086069 0.123021
-0.009309 0.091946 0.110195
0.030862 0.036470 -0.027858
0.010144 0.038174 0.049265
-0.052681 -0.025907 -0.126363
-0.041707 0.001251 -0.129889
0.027212 -0.076241 -0.099295
0.054981 -0.038465 -0.150603
0.012552 -0.072076 -0.086860
-0.023411 0.022984 -0.115720
0.039374 0.001142 -0.148824
-0.028012 0.042028 -0.075455
0.048756 -0.014709 -0.106209
0.035848 0.075157 0.125637
0.007154 -0.084484 -0.101221
-0.041735 -0.065264 -0.102968
-0.031814 0.036618 0.063798
0.018237 0.049515 -0.085261
-0.046166 0.052917 0.123377
-0.045940 -0.049038 -0.092687
0.034327 0.028157 -0.087873
-0.016940 -0.089804 -0.155598
0.002150 0.017501 -0.155599
0.013472 0.081776 0.136704
-0.000688 0.074835 0.039069
0.037260 0.065384 0.075190
0.021564 0.038502 0.054147
0.044922 -0.001533 -0.117493
0.035935 -0.075247 -0.110809
0.004197 -0.091930 -0.139575
-0.004220 0.040670 -0.099451
0.003591 -0.061889 -0.077781
0.029620 0.078011 0.129541
0.030521 0.074779 0.129504
0.029864 0.055706 0.140203
-0.039921 0.073977 0.095760
-0.012504 0.067410 0.002647
0.004964 0.053964 0.150756
0.030871 0.042009 -0.044673
-0.020111 -0.088662 -0.155599
-0.039131 -0.072066 -0.111325
-0.002992 0.068672 0.001317
-0.015434 0.060869 -0.033582
0.049960 -0.014198 -0.129892
0.022899 -0.087289 -0.133139
-0.025176 0.087453 0.098227
0.002063 0.059060 0.150117
-0.050238 -0.056698 -0.123970
-0.040518 -0.039620 -0.081189
0.015350 0.090466 0.115932
0.048419 0.058129 0.117726
0.040654 0.034087 0.077577
0.029906 -0.080944 -0.113843
0.011741 0.022588 -0.031490
0.014379 -0.080496 -0.097289
-0.002987 0.067640 -0.001964
0.024192 0.078717 0.131778
0.011524 0.048760 -0.090935
0.033543 0.008783 -0.134457
0.036900 -0.002680 -0.065538
0.020968 -0.087172 -0.123352
0.025492 -0.086306 -0.141576
-0.049149 -0.045878 -0.103060
0.032212 0.055608 0.054215
0.027654 0.086391 0.117488
-0.027388 0.036942 -0.090765
-0.035140 0.022897 -0.095563
-0.008496 -0.019762 -0.059647
0.051518 -0.056007 -0.134746
0.022718 -0.075555 -0.095114
0.015712 0.061309 -0.027358
0.037988 0.077167 0.097198
-0.006762 0.045547 -0.093463
-0.008487 0.000200 -0.051045
-0.045141 0.063121 0.096566
-0.026664 0.071890 0.046757
-0.040909 0.035490 0.130616
-0.008488 0.064610 -0.018709
-0.002617 0.034200 -0.107180
-0.047344 -0.064031 -0.125141
-0.037232 0.074512 0.087731
0.015370 0.086460 0.128407
0.007840 0.091027 0.119809
-0.002764 -0.081350 -0.095570
0.000781 0.088531 0.129137
-0.038372 -0.075492 -0.120244
0.020107 0.028171 -0.020997
-0.032429 0.032921 -0.039724
-0.032587 0.047475 0.056911
-0.003982 0.088314 0.082185
0.020009 -0.088732 -0.143291
-0.043485 -0.003770 -0.155599
-0.026190 0.043380 0.044468
0.011678 -0.021670 0.056939
0.012416 -0.086254 -0.106621
-0.026789 -0.021670 0.143133
-0.025354 0.082820 0.125380
0.047631 0.042405 0.108598
-0.026052 -0.085988 -0.138744
-0.016579 0.020717 -0.035211
-0.018036 0.060726 0.146102
0.047908 0.044133 0.103264
0.005576 0.072102 0.144810
0.013781 0.046816 -0.088962
0.038437 0.000375 -0.066786
0.043565 -0.071191 -0.145680
-0.008845 0.072480 0.143999
-0.024329 0.030553 0.060943
0.035032 -0.054672 -0.084326
0.007903 0.044626 -0.094818
-0.010383 -0.021670 0.056618
-0.021257 0.072054 0.035828
-0.001598 0.089096 0.127830
-0.000340 0.070231 0.009202
-0.014271 0.068308 0.006660
-0.046357 -0.042908 -0.090143
-0.018100 0.072027 0.037557
-0.015400 0.086029 0.080135
0.021190 0.052240 -0.072981
-0.022012 0.026570 -0.027671
-0.000178 -0.086422 -0.103942
-0.022492 0.035655 0.057480
0.042788 -0.067465 -0.111865
-0.047882 0.049654 0.103216
0.032097 0.035277 -0.037338
0.026239 0.054235 0.143102
-0.012305 0.090105 0.120985
-0.015208 0.056835 -0.056303
-0.018643 0.045693 -0.095527
0.016273 -0.068904 -0.085125
-0.033429 0.032811 -0.049754
0.006399 0.025519 -0.024463
-0.050976 -0.057735 -0.136439
0.047333 0.048833 0.095954
-0.013093 0.036629 0.052783
-0.024158 0.088462 0.108529
-0.027199 -0.009231 -0.059990
-0.017004 -0.006438 -0.055044
0.050646 -0.058276 -0.133388
-0.027627 0.042600 0.053839
-0.004276 0.081917 0.139115
-0.007745 0.066897 0.147023
-0.025761 0.055727 -0.024466
0.034990 -0.011535 -0.066832
0.006108 0.086162 0.132510
-0.001510 0.037922 0.046019
-0.013860 0.007239 -0.047358
0.027865 -0.057992 -0.081747
0.048678 -0.059807 -0.121099
-0.049828 0.056045 0.103197
0.044922 0.065067 0.106282
0.043823 -0.070762 -0.150431
-0.025718 -0.084666 -0.120150
-0.020073 -0.088705 -0.143280
-0.006143 0.077707 0.140979
0.029851 0.044793 -0.043307
-0.013396 0.067458 0.003695
0.038744 -0.068835 -0.101883
0.031334 0.053783 0.047438
-0.005966 0.069395 0.006994
0.041660 -0.021670 0.127106
0.028465 -0.084666 -0.139241
-0.051312 -0.047797 -0.116721
0.045883 -0.065870 -0.121851
0.017903 -0.087319 -0.117270
-0.041642 -0.021670 0.127106
0.025941 0.042355 0.051474
0.052937 -0.050822 -0.134677
-0.016579 0.020717 -0.035211
0.048617 0.067225 0.091590
0.020636 0.025756 0.060027
0.040826 0.061235 0.080589
-0.004948 -0.073042 -0.086359
-0.030646 0.043056 -0.039465
0.008345 0.060404 0.154914
0.032260 0.072623 0.072848
0.015587 0.049669 -0.086463
0.023673 0.019588 -0.122334
-0.037866 0.004288 -0.064726
0.046152 -0.066800 -0.127935
-0.045545 0.039269 0.118214
-0.014823 -0.085545 -0.106385
-0.029431 0.047251 -0.033829
-0.013687 0.039040 0.045833
-0.041503 0.068904 0.090720
0.010551 0.000573 -0.050995
-0.015450 0.063613 -0.018542
0.031797 0.081542 0.117605
0.022874 0.051300 -0.061839
-0.014632 0.090028 0.094637
-0.033182 0.025051 0.068693
0.005011 0.088007 0.129707
0.008664 0.035704 0.052409
-0.006440 0.082059 0.138580
-0.022540 0.088602 0.113970
0.027981 0.069577 0.140433
-0.031154 0.039549 -0.076577
0.011115 0.085820 0.131488
-0.011129 0.073675 0.145257
-0.047769 0.042950 0.106923
-0.045166 -0.002718 -0.121749
0.012187 -0.088999 -0.119041
-0.026358 0.079818 0.075282
-0.008611 -0.087327 -0.107427
0.017268 0.072808 0.034815
-0.017329 0.010299 -0.045672
-0.006067 -0.091185 -0.131077
-0.030217 0.039683 -0.072075
-0.028504 0.045530 0.048419
-0.027381 0.071664 0.059838
-0.030862 0.049333 -0.021940
0.020079 0.040178 0.048108
0.032050 -0.048070 -0.078124
0.009436 0.037649 0.050139
-0.000705 0.087894 0.130397
-0.031162 0.082881 0.092368
0.018723 0.023081 0.059293
-0.003626 0.069774 0.010709
0.032413 0.083768 0.103481
0.051406 -0.052407 -0.123431
-0.006983 0.006321 -0.047397
0.043416 0.069766 0.081420
-0.012570 0.066868 -0.000347
-0.018405 0.039731 0.048495
0.034717 0.028933 -0.056095
-0.039440 0.075807 0.104527
0.019953 0.051812 -0.066553
0.017099 0.014813 -0.155599
0.044711 0.061272 0.115161
-0.034330 0.015104 -0.054557
-0.016689 0.014986 -0.151986
-0.032498 0.007294 -0.147027
-0.034496 0.053155 0.136332
-0.031510 0.084246 0.100593
0.016693 0.032199 0.056933
-0.021141 0.060344 -0.031325
0.034140 0.017415 -0.109580
-0.008812 0.090045 0.123296
0.046064 0.068769 0.116408
-0.042637 -0.002490 -0.147798
-0.033092 0.063544 0.062819
0.042751 0.055520 0.123926
0.036641 0.056366 0.064848
-0.034541 0.002675 -0.060392
0.019284 0.084269 0.128973
-0.032325 0.031634 -0.040005
0.027726 0.086233 0.098119
-0.017222 -0.073141 -0.089513
-0.024113 0.054993 -0.039266
-0.006984 0.071033 0.017177
0.038104 -0.067896 -0.099284
0.020121 0.020240 -0.124595
-0.029883 0.054429 0.140395
0.040559 -0.070742 -0.112406
0.000072 0.047122 -0.096837
0.036703 0.074302 0.120441
0.043960 0.059601 0.119004
-0.016970 0.052533 0.148031
0.006793 -0.088328 -0.109914
0.005588 0.085649 0.133290
0.011550 0.051281 -0.083056
-0.028872 0.025808 -0.104471
-0.040964 0.066783 0.120370
0.028576 0.008455 -0.051475
0.054966 -0.035033 -0.155599
-0.033899 0.052760 0.141446
-0.028400 -0.082867 -0.118144
0.020767 0.043866 -0.088769
0.041656 0.003382 -0.121381
0.022525 0.074295 0.055497
-0.020908 0.048170 -0.078456
-0.051261 -0.017543 -0.155599
0.016980 0.052759 -0.067397
-0.021197 -0.081709 -0.103221
-0.000585 0.044517 -0.095566
0.027295 0.063726 -0.000480
0.004925 0.060357 0.155371
0.027716 0.048182 -0.047746
0.031776 0.081040 0.088075
-0.023915 0.020069 -0.039034
0.006383 -0.021670 0.150899
0.032042 0.080230 0.119854
0.009945 0.055868 -0.059698
0.006584 0.038981 -0.101103
-0.034463 0.082579 0.098214
-0.020879 0.040385 0.048820
-0.051895 -0.047869 -0.120541
-0.046960 -0.041006 -0.090654
0.032902 0.057996 0.058451
0.047392 -0.055370 -0.106012
-0.015968 0.017043 -0.138624
-0.017975 0.018096 -0.132470
-0.000760 0.052651 -0.075213
0.045129 -0.055798 -0.096990
-0.035378 0.012448 -0.118022
-0.008489 -0.013880 -0.057384
-0.030371 0.079051 0.127140
-0.022298 0.053504 0.145528
-0.028093 -0.078590 -0.103661
-0.046553 0.070856 0.096966
0.039301 -0.008944 -0.070784
-0.004748 -0.069184 -0.083007
0.036507 0.024670 -0.066600
0.046572 -0.006497 -0.130083
0.041643 -0.000202 -0.138490
-0.024086 0.069289 0.040479
0.047333 0.048833 0.095954
0.039918 0.054694 0.129200
0.029086 0.085616 0.111626
0.018434 -0.086297 -0.112774
-0.025429 0.028595 -0.027754
0.004425 0.091226 0.094497
0.023670 0.028229 -0.025799
0.024856 -0.062693 -0.083632
0.019743 -0.057851 -0.078003
-0.008485 0.014662 -0.041056
0.029295 0.041993 0.056957
0.042304 0.068535 0.075890
-0.004485 -0.050723 -0.071711
0.023199 0.058027 -0.027105
0.026965 0.070407 0.055570
0.035338 0.057332 0.061340
0.031215 0.036716 -0.029635
0.051837 -0.022121 -0.123598
0.029605 0.066253 0.136720
-0.041270 0.046801 0.131798
0.004982 0.084857 0.135772
0.002362 0.038000 0.045682
0.022670 0.050128 -0.067309
0.048869 -0.062692 -0.136620
0.036959 0.016838 -0.102005
-0.031812 0.035334 -0.034976
-0.013740 0.067651 0.005087
-0.014199 0.060582 0.153576
0.007931 0.018976 -0.137617
0.040653 0.011404 -0.084322
-0.044389 -0.041828 -0.086724
0.018120 0.024778 -0.116881
0.013341 0.020810 -0.128491
0.009413 0.016850 -0.038927
-0.015208 0.056835 -0.056303
-0.046484 0.054664 0.113288
0.045729 -0.063058 -0.113437
-0.004781 0.082361 0.137087
0.048077 -0.009410 -0.127145
-0.020714 0.076994 0.060252
-0.044092 0.069980 0.083849
-0.050036 -0.055260 -0.119726
0.033821 0.050320 0.059464
-0.005064 0.091669 0.097722
0.012638 0.073734 0.144761
-0.015448 0.068961 0.011391
0.031165 0.070545 0.052275
-0.019195 0.052641 0.147113
-0.011516 0.064960 -0.011985
0.033547 0.075038 0.125162
-0.043193 -0.002944 -0.144787
0.052896 -0.052265 -0.141392
0.007984 0.030946 -0.111011
0.040456 -0.074034 -0.124151
-0.002989 0.069143 0.004051
-0.029174 0.042475 -0.080107
-0.004695 -0.087916 -0.107702
-0.053151 -0.041235 -0.124217
0.015043 0.090869 0.101491
-0.024622 0.088047 0.111520
0.018581 0.039792 0.046940
0.027657 0.051216 -0.067940
-0.021806 0.064827 -0.004333
-0.027801 0.044438 0.049884
0.042359 0.005885 -0.102654
0.039555 -0.075733 -0.150191
-0.008484 0.061845 -0.030787
0.022028 0.087741 0.119103
-0.042693 -0.072245 -0.132486
-0.013587 0.066932 0.000916
0.031334 0.053783 0.047438
-0.042975 -0.070203 -0.121148
0.025005 -0.017132 -0.062189
-0.016265 -0.087328 -0.114580
0.001350 -0.075065 -0.088083
-0.001712 0.032421 -0.109631
-0.032855 0.081789 0.118009
0.022874 0.051300 -0.061839
0.002918 0.092323 0.112004
0.029817 0.046129 -0.034620
-0.003718 0.048151 -0.094186
-0.024975 0.070017 0.047564
-0.052694 -0.021721 -0.155599
-0.037493 0.004739 -0.136389
-0.054784 -0.039081 -0.143126
-0.013691 0.066920 0.000943
0.017567 0.018926 -0.130403
0.017173 0.090071 0.098382
-0.048866 -0.011729 -0.116509
-0.024069 0.086558 0.119715
-0.018177 0.028292 -0.018173
-0.030938 0.010867 -0.134150
0.025955 0.043031 0.048883
-0.010211 0.018432 -0.138439
-0.023903 -0.085353 -0.119089
0.044854 -0.021435 -0.082373
0.016474 0.050381 -0.076942
-0.015448 0.065426 -0.005696
-0.044708 -0.005573 -0.089223
0.007517 0.063456 0.148337
0.037529 0.067516 0.126454
0.046662 -0.037573 -0.088868
0.024950 0.042492 0.046104
0.044228 0.049660 0.084966
-0.034451 0.077630 0.086635
-0.033580 -0.078103 -0.113340
0.032114 0.037889 -0.045690
0.020060 0.046521 -0.084517
0.042075 -0.008260 -0.075094
-0.021511 0.030300 0.059580
0.043529 -0.057509 -0.095465
0.016869 0.089257 0.093151
0.032557 0.083062 0.093200
0.007962 0.026652 0.055944
0.017579 0.087671 0.127157
-0.012571 0.087727 0.127589
-0.013461 0.050983 -0.083281
-0.002931 0.027192 -0.117784
-0.045178 -0.066449 -0.119863
0.039684 0.062455 0.136407
-0.017532 -0.089496 -0.139166
0.044922 0.065067 0.106282
-0.008754 0.047417 -0.089240
0.025857 0.071615 0.055711
0.003433 0.075129 0.143169
-0.029191 0.030739 -0.031543
-0.034131 0.020473 -0.051640
0.054767 -0.032263 -0.155599
-0.020007 -0.052010 -0.074568
0.054038 -0.030254 -0.136291
-0.040277 0.064141 0.081580
0.016676 0.087717 0.124980
-0.031439 0.035029 -0.033064
0.024851 0.081205 0.130032
0.037804 0.007795 -0.123636
0.004903 0.065564 0.152367
-0.025236 0.049265 -0.059524
0.048678 -0.059807 -0.121099
-0.027854 -0.085008 -0.140401
0.016750 -0.089825 -0.142215
-0.015848 0.090653 0.113577
-0.021868 0.031725 0.059254
-0.052283 -0.020443 -0.143475
-0.024059 0.059585 -0.031525
-0.049379 -0.056731 -0.118629
-0.049009 0.046065 0.097262
-0.024532 -0.047800 -0.073951
0.039131 0.006604 -0.122327
-0.025239 0.069321 0.045772
-0.012832 0.038808 0.044736
0.025593 0.003053 -0.052791
-0.003636 0.082288 0.064654
0.050458 -0.040733 -0.106552
0.024900 0.072380 0.055372
0.007016 0.075580 0.043920
-0.047288 -0.065109 -0.130125
-0.052543 -0.028868 -0.120956
-0.046535 -0.031220 -0.087545
-0.044457 0.072441 0.110794
-0.030280 0.042497 -0.052865
-0.014270 0.067859 0.006738
0.018668 0.025851 -0.114640
0.036617 0.072419 0.123138
-0.043766 -0.000553 -0.123802
-0.047894 -0.021670 0.103401
0.040418 -0.000787 -0.070665
-0.024090 0.041423 0.050777
-0.019989 0.053828 -0.067379
-0.013306 0.021388 -0.127011
-0.015450 0.063160 -0.018464
0.031271 0.061452 0.054986
-0.033868 0.032281 -0.076557
0.046882 -0.054235 -0.101902
0.013854 0.087930 0.129121
-0.036644 0.020147 -0.095398
-0.007095 0.091949 0.113700
-0.018906 -0.087845 -0.123021
0.009598 -0.088340 -0.112097
0.048155 -0.009984 -0.134636
0.047252 -0.026459 -0.091020
0.029987 0.085054 0.098885
-0.008662 0.061704 -0.032097
0.002196 -0.021670 0.151255
0.002696 0.081455 0.062182
0.017976 -0.084683 -0.106581
-0.015449 0.064432 -0.013904
-0.038287 0.029083 0.074303
-0.030642 0.014883 -0.122822
-0.022985 0.056036 0.144774
0.028242 0.085287 0.115635
0.027334 0.031555 0.062425
-0.004715 0.048339 -0.087781
0.013317 0.047739 -0.086931
0.019284 0.084269 0.128973
-0.013962 0.015823 -0.151043
-0.021308 0.062077 0.144159
0.033254 0.022402 -0.101954
-0.018022 0.044559 -0.090541
-0.013903 0.064021 -0.015158
-0.048363 -0.059906 -0.119615
-0.034867 -0.036841 -0.075151
-0.046013 -0.047261 -0.091723
-0.011444 0.069314 0.009906
0.045303 0.054030 0.088731
-0.004146 0.084279 0.070223
0.025959 -0.084413 -0.119222
-0.026228 -0.052526 -0.077362
0.041469 -0.073840 -0.139415
0.030497 0.059310 0.048093
-0.040314 -0.007134 -0.071821
0.025660 -0.003536 -0.056372
-0.012853 0.080359 0.136926
0.030371 0.047066 -0.052276
-0.039565 -0.035422 -0.078788
-0.020781 0.071884 0.042888
-0.001051 -0.088128 -0.107772
-0.024307 0.068801 0.039094
0.035851 0.039743 0.067709
0.011874 -0.052448 -0.073045
0.017658 0.088486 0.122023
0.011094 -0.045224 -0.069593
0.009540 0.065533 0.147215
0.019008 -0.087425 -0.120243
-0.022707 0.077004 0.063043
-0.018769 0.014709 -0.146645
-0.028000 0.086534 0.109543
