0.006643 -0.008624 -0.058710
-0.037735 -0.046615 -0.105197
-0.048981 -0.025902 -0.049349
-0.015644 -0.004879 -0.053387
-0.015984 -0.087938 -0.059066
-0.006367 -0.056824 -0.134501
0.004271 0.054735 -0.126266
0.030341 -0.053780 -0.102143
-0.052307 -0.000500 -0.017017
0.016966 -0.126937 0.001576
-0.052279 -0.034630 -0.034180
0.050568 -0.075018 0.015790
0.007666 -0.128757 -0.004440
0.004477 -0.066256 -0.094993
0.030523 0.045760 -0.126593
-0.054245 -0.000500 -0.009124
0.032905 -0.107919 0.032104
0.054888 -0.003587 -0.122658
0.012486 -0.008435 -0.056972
0.023199 -0.091166 0.044329
-0.035224 -0.044529 -0.127232
-0.037786 0.001821 -0.089106
-0.041009 -0.011052 -0.040145
-0.001694 0.054977 -0.172467
0.023485 -0.112620 0.034350
-0.050985 0.020636 -0.182032
-0.040105 -0.038760 -0.142849
-0.013248 -0.122584 0.024448
-0.008005 0.036617 -0.100217
-0.039125 -0.113000 -0.012943
0.042535 -0.003027 -0.035002
0.021217 -0.124669 -0.009779
0.023833 -0.107369 0.039707
-0.020269 -0.069824 0.050164
-0.044029 -0.008259 -0.081338
-0.023145 -0.000500 -0.049898
-0.054995 -0.013331 -0.001021
-0.034152 0.043117 -0.171192
0.046194 0.002939 -0.095879
-0.053219 -0.031527 -0.022428
0.051119 -0.021091 -0.138395
-0.042382 -0.109567 0.013730
0.051132 -0.025870 -0.061574
-0.002985 -0.120341 0.031576
-0.023225 -0.070857 0.048666
0.024695 -0.001344 -0.081715
-0.033914 -0.114471 -0.020469
0.022733 -0.069026 -0.079340
-0.032887 -0.106748 0.032947
0.007927 -0.062207 -0.104398
-0.014705 -0.116205 0.034553
-0.054571 -0.006860 -0.184075
0.040836 -0.037705 -0.148168
0.040863 -0.071030 -0.052549
-0.048070 -0.011654 -0.029156
0.041257 -0.107032 -0.021428
-0.052376 -0.051997 -0.047489
-0.025375 -0.109826 -0.036336
0.022988 -0.094032 -0.049688
0.001783 -0.068145 -0.091377
-0.027296 0.047753 -0.142488
-0.019978 -0.001996 -0.051311
0.004733 -0.009259 -0.061020
-0.014053 -0.080112 0.050366
0.018981 -0.054548 -0.125901
-0.007954 -0.009166 -0.059853
0.042459 -0.068219 -0.053034
0.016031 -0.107357 0.043456
-0.047996 0.026798 -0.121941
0.040690 -0.054484 -0.079395
-0.049936 -0.010909 -0.085763
-0.010545 0.053868 -0.126286
-0.053122 -0.015935 -0.016823
-0.001194 0.054214 -0.123011
0.042386 -0.109786 -0.013105
-0.045309 -0.015804 -0.067639
0.044123 -0.106811 0.014840
-0.041895 -0.075659 -0.044804
0.045392 0.018617 -0.105504
0.007261 -0.006788 -0.056301
0.048224 -0.078940 -0.024575
-0.051779 -0.019134 -0.077152
0.049264 -0.028285 -0.112601
-0.008942 -0.126392 -0.016546
-0.054258 -0.012408 -0.109802
-0.021782 -0.051306 -0.152400
0.012641 -0.054796 -0.145280
0.031760 -0.106836 0.033999
-0.007969 -0.112194 0.041285
0.044212 -0.003044 -0.032844
0.012059 -0.007552 -0.055971
0.052556 -0.072636 0.008743
0.041580 -0.090724 0.027902
0.031586 -0.075692 -0.060812
0.038987 -0.013427 -0.047458
-0.024680 0.049157 -0.142395
-0.038634 0.039153 -0.169100
0.009806 -0.107474 0.045201
0.039886 -0.089832 0.030568
0.029631 0.028238 -0.101056
-0.018862 -0.090854 0.046444
0.028736 -0.122078 0.000921
0.002906 -0.007105 -0.057227
-0.040421 -0.014528 -0.047565
-0.054570 -0.030443 -0.071435
0.017488 -0.111491 0.039011
0.042248 -0.106835 0.019528
-0.021738 -0.007401 -0.052400
0.030874 0.044987 -0.123882
-0.011081 -0.001599 -0.053912
-0.009204 -0.007308 -0.056382
0.054315 -0.000543 -0.107206
0.038109 -0.115710 0.001559
-0.032892 -0.119518 -0.002695
-0.017683 -0.125822 -0.010272
0.029409 0.012402 -0.092892
0.008201 -0.115094 -0.038002
-0.044374 -0.109322 -0.006018
0.050014 -0.043161 -0.074354
0.047477 -0.011507 -0.030244
0.050450 -0.024961 -0.114962
-0.048773 0.018470 -0.109767
0.051629 0.010379 -0.107589
0.013207 -0.073088 -0.078977
0.045436 -0.107363 -0.009034
0.053034 -0.017357 -0.084443
0.011360 0.038358 -0.102033
0.046535 -0.021602 -0.049199
-0.006870 -0.055041 -0.159077
-0.044538 0.031861 -0.121734
-0.034892 -0.100232 0.033018
0.045882 -0.107582 0.005685
-0.050322 -0.034322 -0.090705
0.054911 -0.007856 -0.104436
-0.043124 -0.017214 -0.048727
-0.031509 -0.060077 -0.085453
-0.008901 -0.104122 -0.047737
0.034577 -0.117937 -0.007007
0.029685 -0.107900 0.035119
0.030695 0.045645 -0.168646
-0.050809 0.011254 -0.106807
-0.029457 0.044322 -0.119528
0.017893 -0.061195 -0.099794
0.034410 -0.091603 -0.041495
-0.047691 -0.019980 -0.037398
-0.030134 0.008043 -0.090690
-0.002050 0.054966 -0.180615
-0.021321 -0.061791 -0.094788
-0.021217 -0.121575 -0.020680
0.032778 -0.107404 0.032687
-0.046463 -0.020040 -0.057444
0.049264 -0.028285 -0.112601
-0.035269 -0.052218 -0.096016
-0.048673 -0.025808 -0.167849
-0.042760 0.034603 -0.173597
0.006634 0.054510 -0.126378
0.045435 0.002879 -0.192000
0.045963 0.023992 -0.110924
-0.045750 -0.107633 -0.006289
-0.041149 -0.037461 -0.145741
-0.002679 0.052631 -0.118329
-0.028223 -0.074764 -0.065683
-0.034779 -0.011719 -0.049328
0.040582 -0.037279 -0.170339
-0.019837 0.048922 -0.119433
0.046492 -0.106797 -0.002184
0.045753 -0.058754 -0.059456
-0.053772 -0.062851 -0.013655
-0.038483 -0.040067 -0.151175
-0.026803 0.021873 -0.096530
0.021343 0.049091 -0.121404
0.039987 -0.014250 -0.060391
0.008809 -0.009277 -0.064666
-0.053659 -0.018572 -0.085054
0.006035 -0.107386 0.045905
-0.029492 0.035646 -0.106689
0.023692 -0.065174 -0.085286
-0.030342 -0.055706 -0.097013
-0.027191 -0.122687 -0.004688
-0.046795 -0.000500 -0.028908
0.013391 0.019335 -0.091478
-0.052677 -0.012229 -0.090490
0.005268 -0.121361 -0.029539
0.045888 -0.003005 -0.030440
0.021917 -0.123546 0.013754
0.006035 -0.107386 0.045905
0.054152 -0.062269 -0.009998
-0.028714 0.010490 -0.091618
-0.036807 -0.108044 0.027374
-0.006037 0.054144 -0.124180
-0.002225 -0.113964 -0.040104
0.045212 -0.017240 -0.040860
0.054680 0.005992 -0.168948
0.027366 -0.120015 0.017030
0.043084 -0.008602 -0.035773
-0.037637 -0.108043 0.026239
0.046575 -0.071233 -0.038597
-0.052962 -0.026188 -0.069133
0.021969 -0.053245 -0.126348
-0.019577 -0.064429 0.051383
-0.054042 0.000179 -0.106676
-0.005383 0.035677 -0.099316
-0.021863 -0.076221 -0.069281
0.054152 -0.062269 -0.009998
-0.028958 0.014258 -0.093673
0.012476 -0.057168 -0.121437
0.028022 0.047332 -0.126836
-0.049101 -0.033923 -0.097212
-0.043447 -0.109795 0.008879
-0.016698 -0.007787 -0.054813
-0.024673 -0.111528 0.034869
-0.041930 -0.088172 -0.032846
0.009302 -0.008845 -0.058577
-0.053305 -0.024603 -0.073605
0.002791 -0.128783 0.008235
-0.003648 -0.106677 0.046442
0.050472 -0.063667 -0.035047
0.027404 -0.090737 0.041942
-0.035125 -0.067005 -0.068094
0.054314 0.008771 -0.116051
-0.036052 -0.106861 0.029396
0.010272 -0.075882 -0.075905
0.043740 -0.014189 -0.039712
0.003182 0.001790 -0.081386
0.032183 -0.052622 -0.101615
0.008200 -0.123162 -0.025355
0.014821 -0.005185 -0.075373
0.023986 -0.111682 -0.035152
0.035620 -0.114716 -0.016654
-0.052902 0.015099 -0.192000
-0.010551 0.047113 -0.110490
0.018429 -0.052250 -0.160339
-0.052517 -0.021301 -0.107365
0.004906 -0.064311 -0.099676
0.004371 -0.127010 -0.016261
-0.047230 -0.006425 -0.087421
0.025825 -0.082349 -0.058734
0.003409 0.007446 -0.084627
-0.050917 0.013873 -0.109248
0.027366 -0.120015 0.017030
-0.030342 -0.055706 -0.097013
-0.046776 0.028938 -0.171631
-0.039183 -0.043853 -0.109590
-0.006714 -0.116036 0.037140
0.031915 -0.116552 0.018923
0.053565 0.011092 -0.114553
-0.041883 -0.111717 0.007395
0.005832 -0.126273 0.018253
-0.046463 -0.020040 -0.057444
0.049157 -0.022635 -0.060743
-0.053579 -0.012551 -0.168486
-0.018396 -0.124852 0.013713
-0.041475 0.036123 -0.167198
0.031696 -0.069338 -0.069353
0.040582 -0.037279 -0.170339
-0.021154 -0.070334 -0.078506
-0.030117 -0.009671 -0.068969
-0.006116 -0.059456 -0.115551
-0.032315 0.006172 -0.090269
-0.049150 -0.024155 -0.056790
0.038605 -0.005271 -0.081597
-0.020896 -0.119688 0.025218
0.025033 -0.009292 -0.052718
0.036979 0.031909 -0.108307
-0.004763 0.053332 -0.120710
0.012617 -0.118873 -0.031513
0.054960 -0.000500 0.002215
0.053945 -0.037381 -0.019967
-0.053932 0.010849 -0.150369
0.035899 -0.045402 -0.116636
0.002873 -0.085917 0.051113
-0.045542 -0.107181 -0.008958
0.042464 -0.080452 -0.038561
0.030990 -0.010360 -0.066949
0.037538 -0.091808 -0.037297
0.023031 0.037971 -0.105665
0.017590 -0.121567 -0.023890
-0.028029 -0.122418 -0.001898
0.009685 -0.119344 -0.031822
0.039048 0.038373 -0.123020
0.046360 0.029104 -0.121019
-0.027568 -0.001610 -0.082162
0.043825 -0.078412 -0.037630
-0.044055 -0.107392 -0.014264
-0.046453 -0.084711 -0.025027
-0.039612 0.018840 -0.101087
0.048741 -0.074392 -0.027531
0.001575 0.007656 -0.084654
0.008261 0.052185 -0.118896
0.031271 -0.061051 -0.083896
0.049937 -0.089346 0.005890
0.054899 -0.013863 -0.097624
0.024832 0.023053 -0.096396
0.002564 -0.008208 -0.058646
-0.029341 -0.110877 -0.031895
0.002240 -0.110289 -0.043837
0.020705 -0.114709 0.033441
-0.050549 -0.069718 -0.025589
-0.009490 0.044966 -0.107504
0.045269 -0.107737 0.008817
0.054888 -0.003587 -0.122658
0.037777 -0.090768 0.032847
-0.039252 -0.013516 -0.047151
-0.054093 -0.010280 -0.097554
-0.054451 -0.025189 -0.010652
0.054640 -0.006237 -0.104288
0.054911 -0.026619 -0.080224
-0.045070 -0.107780 -0.009595
0.054187 -0.010527 -0.117704
-0.009281 -0.110005 -0.043176
-0.049474 -0.022629 -0.034148
-0.023356 -0.052643 -0.125677
-0.037240 -0.012992 -0.050046
0.014212 -0.009241 -0.058188
-0.045009 -0.006824 -0.032424
-0.040170 -0.002089 -0.086355
0.016241 -0.052547 -0.192000
-0.017868 0.008974 -0.087531
0.008854 -0.060278 -0.110325
-0.046524 -0.030596 -0.134561
-0.040127 -0.107592 -0.022888
-0.054316 -0.006891 -0.008783
0.050472 -0.063667 -0.035047
-0.041565 -0.106976 -0.020853
-0.009534 0.053323 -0.123086
0.004611 0.021896 -0.091460
-0.014335 -0.008288 -0.069152
0.050800 -0.037864 -0.081487
0.025349 -0.119869 0.020252
-0.004763 0.053332 -0.120710
-0.047832 -0.004892 -0.090085
-0.024808 -0.123532 0.007442
0.016031 -0.107357 0.043456
-0.040903 -0.064398 0.036645
-0.024825 -0.009149 -0.052601
0.038792 -0.002676 -0.039099
-0.051208 -0.053533 -0.049965
-0.050735 -0.037978 -0.081533
0.045643 -0.049094 -0.077234
-0.046433 -0.106726 -0.003397
-0.039332 -0.038419 -0.181938
-0.034469 -0.092310 -0.040895
-0.041719 -0.078139 -0.042452
-0.044723 -0.106962 -0.012712
-0.029858 -0.050485 -0.114989
-0.021862 -0.051754 -0.144475
0.047983 0.019284 -0.109256
-0.051651 0.009366 -0.106865
-0.005228 -0.126631 0.017267
-0.015189 -0.106394 0.044116
0.028688 -0.120939 0.011025
-0.043073 0.025208 -0.108251
-0.049720 0.023366 -0.120628
-0.020261 -0.106696 0.041940
-0.035413 -0.069984 -0.063288
0.011278 -0.105067 -0.046546
-0.054741 -0.005908 -0.116278
-0.049905 0.016287 -0.109629
-0.031735 -0.097655 -0.039959
-0.047258 -0.046135 -0.078096
-0.003822 -0.107978 0.045769
-0.038007 0.039764 -0.167004
-0.031587 -0.007271 -0.075383
0.038610 -0.092688 -0.035080
0.037322 -0.003395 -0.040605
0.044791 -0.069484 -0.045801
0.051644 -0.068064 0.016101
-0.054038 -0.006006 -0.101812
0.035915 0.034344 -0.109903
-0.043820 -0.106865 -0.015662
0.043802 0.031076 -0.117023
-0.050358 -0.056675 -0.047723
0.021216 -0.123202 -0.015985
-0.040350 -0.054538 -0.080052
-0.002408 -0.055418 -0.159004
-0.013242 -0.079378 -0.069969
0.029469 0.041565 -0.114181
-0.038661 -0.115198 0.002893
-0.051640 -0.017277 -0.023054
-0.046334 -0.008282 -0.030826
-0.039866 -0.010127 -0.074327
-0.030665 -0.010169 -0.049697
0.040269 -0.106940 0.023255
0.032365 -0.009444 -0.070856
0.008659 -0.009467 -0.061667
0.019290 -0.051572 -0.173526
0.027770 -0.063192 -0.084503
0.009984 -0.090407 0.049260
-0.044810 -0.107274 -0.011954
0.008200 -0.123162 -0.025355
-0.044182 0.027933 -0.112714
0.022991 -0.008853 -0.053295
0.007137 -0.055181 -0.155528
-0.006482 -0.118532 0.033826
-0.049489 -0.072976 0.019938
0.052040 -0.068285 -0.019015
0.014226 -0.074868 -0.075801
0.005231 -0.109603 -0.044215
0.053564 -0.012459 -0.186119
0.041387 -0.038272 -0.126109
0.054916 -0.015550 -0.096950
-0.046522 -0.106703 -0.002022
0.055001 0.000446 -0.179932
-0.016795 -0.000500 0.052386
-0.053653 -0.012092 -0.181943
0.026197 -0.072547 -0.070750
-0.043141 0.007753 -0.096925
0.046033 -0.010192 -0.032129
0.000752 -0.128347 0.011214
-0.021772 -0.093463 -0.050933
-0.036329 -0.004393 -0.081672
-0.038212 -0.106969 -0.026555
-0.041219 -0.073612 -0.048578
-0.051073 0.008343 -0.105217
0.043132 -0.016292 -0.059831
0.009622 -0.065051 -0.095993
0.054241 0.009140 -0.173170
-0.038370 -0.042322 -0.120701
0.054844 -0.047506 -0.042462
-0.013372 -0.054000 -0.155423
0.014707 -0.071009 0.051873
0.006719 -0.124453 0.022904
0.034971 0.010458 -0.094105
0.048715 -0.012322 -0.081342
0.046229 -0.107272 -0.003652
0.016091 -0.088280 -0.058662
-0.034818 -0.116709 -0.012257
0.041580 -0.090724 0.027902
0.035811 -0.070512 0.040317
0.053662 -0.013632 -0.117559
-0.050891 -0.022369 -0.123215
0.039280 -0.007706 -0.078403
-0.051944 -0.019621 -0.121527
-0.053122 -0.015935 -0.016823
0.012495 0.053456 -0.126325
0.045610 -0.089271 -0.023679
-0.050907 -0.029906 -0.097375
0.052387 -0.077254 0.001386
0.030955 -0.108179 -0.033705
0.018355 -0.002131 -0.079632
-0.019308 -0.007874 -0.070916
0.016966 -0.126937 0.001576
-0.007331 -0.000500 0.054536
-0.005769 -0.005850 -0.055906
0.027430 -0.010653 -0.061802
-0.017040 0.052302 -0.171821
0.023197 -0.110187 -0.037391
0.014075 -0.119747 -0.029444
-0.053582 -0.035789 -0.073144
-0.037938 -0.013591 -0.051898
-0.013994 -0.008823 -0.057206
0.024201 -0.073469 -0.071236
0.029901 -0.109603 0.033005
-0.026383 0.034378 -0.103953
-0.051024 -0.068892 0.017654
0.044565 -0.032390 -0.170239
0.054699 -0.006420 -0.116322
-0.040878 -0.006805 -0.037748
-0.015004 -0.119026 0.030208
0.019692 0.051360 -0.183418
-0.049994 -0.023297 -0.158448
-0.040416 -0.107913 -0.021924
-0.050649 -0.086587 0.003656
0.038485 -0.013934 -0.055585
-0.036602 0.040920 -0.124614
-0.028195 -0.058008 -0.094908
0.004664 -0.055097 -0.163449
0.007636 0.044274 -0.106325
-0.001632 -0.000500 -0.054979
-0.021274 -0.006550 -0.052044
0.034768 -0.107404 -0.030607
-0.019534 0.051418 -0.158534
-0.006225 0.054656 -0.172187
-0.031585 0.045027 -0.165437
0.020679 -0.069127 -0.080908
-0.054957 -0.052383 -0.026240
0.016996 -0.055845 -0.121274
-0.002200 -0.006927 -0.071597
0.023987 0.001360 -0.084001
-0.047398 -0.021385 -0.056994
0.030083 -0.010685 -0.064553
-0.034360 -0.107387 0.031039
-0.019350 -0.061725 -0.096982
-0.032379 0.004687 -0.089222
-0.034408 -0.111726 0.024978
0.037856 0.003807 -0.090860
-0.054985 0.001470 -0.179396
-0.041220 -0.106621 -0.021801
-0.024343 -0.049784 -0.159503
-0.053066 0.007164 -0.108336
-0.018397 -0.115383 0.033858
-0.038584 -0.000296 -0.087425
0.019447 -0.091917 -0.053588
-0.003020 -0.114605 0.039346
0.006295 -0.009434 -0.062902
0.046191 -0.107613 0.000989
-0.004598 -0.107315 0.046109
0.035679 -0.083969 -0.046522
0.033276 -0.006732 -0.076978
-0.051215 -0.081611 -0.006052
0.052365 -0.056664 -0.038114
0.007601 -0.079014 -0.072279
0.045610 -0.089271 -0.023679
-0.029082 -0.004830 -0.078582
-0.003306 -0.054907 -0.181746
-0.049545 -0.089509 0.008541
-0.053039 -0.026661 -0.092125
0.019304 0.039971 -0.105959
0.046957 -0.022255 -0.047623
-0.032775 0.040301 -0.115385
0.053667 -0.016687 -0.107500
0.032680 -0.004249 -0.080482
-0.047832 -0.004892 -0.090085
0.052931 -0.029506 -0.023085
0.034280 0.043017 -0.171894
0.027935 -0.010713 -0.054581
0.045297 -0.063937 0.031068
0.042338 -0.000500 -0.035120
-0.006454 -0.086623 0.050636
-0.037008 0.034350 -0.111052
-0.023493 -0.063871 0.049755
-0.046308 -0.107378 0.001205
-0.005125 -0.070905 0.053712
-0.044374 -0.109322 -0.006018
0.027014 -0.100070 -0.042364
-0.039745 0.021831 -0.102907
0.045908 0.029055 -0.118902
-0.054273 -0.060549 -0.012846
0.001326 0.041706 -0.103270
0.046023 -0.107761 -0.002571
0.049799 -0.024008 -0.146585
0.032219 0.032899 -0.105712
-0.051253 -0.000500 -0.019974
0.054864 -0.051870 -0.030837
-0.029554 0.024561 -0.098953
-0.010268 -0.107473 -0.045195
-0.043416 -0.090301 0.025127
0.053533 -0.013288 -0.013946
-0.029457 0.044322 -0.119528
0.041223 -0.112019 0.009113
-0.016456 0.052493 -0.127337
0.031856 -0.005850 -0.045571
-0.049562 0.023857 -0.192000
-0.025260 0.045312 -0.117018
0.008145 -0.007652 -0.056942
0.006519 -0.001996 -0.054680
-0.022236 -0.107215 -0.040826
-0.054568 -0.006632 -0.007049
-0.007042 0.045384 -0.107410
-0.041979 -0.036138 -0.154487
-0.048962 -0.027859 -0.117138
0.014186 -0.064188 -0.095396
-0.044147 -0.059029 -0.063255
-0.013597 0.012279 -0.088239
0.044539 0.032269 -0.176073
0.024075 -0.099698 -0.044675
-0.051391 -0.074605 -0.014454
-0.025313 -0.104045 -0.040950
0.014862 -0.085877 -0.061680
0.054988 -0.001660 -0.150370
-0.030966 -0.047748 -0.129151
0.029343 -0.114115 0.027176
-0.047695 0.027400 -0.132452
-0.002912 0.020617 -0.090705
0.014036 -0.122470 -0.024229
-0.054869 -0.060214 0.003590
0.051983 -0.033928 -0.046811
-0.052303 -0.017377 -0.155400
0.023585 0.049694 -0.180458
0.045586 0.020333 -0.107008
0.051475 -0.020304 -0.131810
-0.039217 -0.007883 -0.078072
0.054403 -0.027151 -0.011436
-0.031008 -0.069812 -0.069504
0.039511 0.038267 -0.169797
-0.041582 -0.004987 -0.036461
0.033047 0.004196 -0.089105
-0.045954 -0.106966 -0.007046
0.029383 0.005219 -0.088574
0.043027 -0.092748 -0.027245
-0.033310 -0.005772 -0.078551
0.027603 -0.010829 -0.058930
0.054989 0.001114 -0.134787
0.044562 -0.107576 -0.012222
0.013457 -0.123086 0.023205
-0.052866 -0.036011 -0.030098
-0.019811 -0.117544 -0.029821
0.001254 0.054917 -0.126482
-0.045536 -0.075031 -0.037028
-0.046252 -0.107018 -0.004561
0.054139 -0.043278 -0.041390
0.008201 -0.115094 -0.038002
0.031707 0.043676 -0.121385
-0.009551 -0.054163 -0.181521
-0.052205 -0.002624 -0.099661
0.000121 -0.092082 -0.058580
-0.052403 0.003073 -0.104312
0.001486 0.054609 -0.124772
0.016411 -0.055515 -0.125520
-0.053860 -0.013996 -0.112006
0.043786 0.012582 -0.100367
-0.052709 0.009614 -0.109443
-0.051099 -0.000335 -0.099440
-0.036516 0.041134 -0.143852
0.036292 -0.107418 -0.028763
0.005802 0.054696 -0.181420
-0.042658 -0.013307 -0.040474
-0.012618 -0.127942 0.003825
0.049779 -0.006444 -0.091180
-0.049547 -0.002805 -0.023960
0.026696 -0.113063 0.031302
-0.007724 -0.003589 -0.076817
-0.054571 -0.006860 -0.184075
0.052892 -0.004316 -0.099770
-0.026282 -0.080029 0.045147
0.035619 -0.116795 0.009211
-0.039169 0.032868 -0.111761
0.048849 -0.062319 -0.043877
-0.052800 -0.063942 -0.020839
0.053647 -0.000500 -0.012147
-0.028154 -0.049964 -0.125561
0.033181 0.031097 -0.104808
-0.032863 -0.050297 -0.107149
0.010944 0.042182 -0.105075
0.001623 0.014828 -0.087844
0.033318 -0.043734 -0.182542
-0.024374 -0.056942 -0.103570
-0.054717 -0.003639 -0.106870
0.005832 -0.126273 0.018253
0.030885 -0.050030 -0.113930
0.000743 -0.129392 0.001359
-0.031229 -0.108113 0.033538
0.037051 0.026407 -0.103949
0.029013 -0.047712 -0.148539
-0.019516 0.013847 -0.090410
-0.011416 -0.061470 -0.104508
0.054165 -0.000500 -0.009570
-0.024819 0.049087 -0.150929
-0.044918 0.021895 -0.107508
0.052500 -0.024663 -0.069766
-0.038254 -0.004898 -0.081933
-0.042764 -0.034547 -0.183398
0.008229 -0.064905 0.054306
0.023197 -0.110187 -0.037391
0.042924 -0.107618 -0.017035
-0.027113 -0.007437 -0.049459
0.005097 -0.009099 -0.060283
-0.054374 -0.009762 -0.114994
0.016704 -0.004003 -0.077243
0.030379 0.042211 -0.116210
0.052094 -0.030874 -0.056154
0.041580 -0.090724 0.027902
-0.009688 -0.110110 0.042983
-0.048063 -0.005865 -0.027204
-0.030357 -0.047226 -0.142059
0.047290 -0.080835 -0.025925
-0.018468 -0.052792 -0.149433
0.048237 -0.008608 -0.027534
-0.042719 -0.080421 -0.038045
0.048925 -0.091278 -0.009584
-0.028958 0.014258 -0.093673
0.008725 0.041656 -0.104092
-0.047533 0.020325 -0.109574
-0.028695 -0.120197 -0.014058
0.022428 -0.009500 -0.054807
-0.046776 0.028938 -0.171631
0.040326 -0.014569 -0.059376
-0.039320 -0.013951 -0.048592
0.001160 -0.007851 -0.069543
-0.033888 -0.071892 0.041653
-0.051321 -0.037019 -0.080971
0.032382 -0.044761 -0.164453
0.046289 -0.037855 -0.099810
0.029845 -0.011195 -0.057184
0.043802 0.031076 -0.117023
-0.050047 -0.007342 -0.090614
-0.000752 -0.111151 -0.043072
-0.003940 -0.059297 -0.117428
-0.000020 -0.097138 -0.054063
0.021218 -0.111466 0.037134
-0.038661 -0.115198 0.002893
0.032207 0.027905 -0.102072
0.014834 -0.083548 -0.064272
0.048367 -0.019418 -0.066047
-0.031942 0.035632 -0.108143
0.050750 0.001029 -0.099943
0.053715 -0.062907 -0.014250
0.018150 -0.124062 0.016869
0.046961 0.028640 -0.171255
0.017886 0.049279 -0.118490
-0.053203 -0.018376 -0.108396
-0.040350 -0.054538 -0.080052
0.038109 -0.115710 0.001559
-0.054072 -0.063512 -0.007973
-0.054948 0.002666 -0.192000
-0.019815 -0.119678 -0.026081
-0.053739 0.011737 -0.192000
0.040692 -0.113433 0.002284
0.044459 0.032381 -0.127156
0.054748 -0.000545 -0.109168
0.048712 0.016277 -0.107647
-0.013529 0.053323 -0.142572
0.043505 0.032545 -0.119708
0.034077 -0.110414 -0.027496
0.045118 -0.010528 -0.033817
-0.015500 -0.007514 -0.054960
0.034851 -0.098367 -0.036126
0.001782 0.052894 -0.118865
0.003808 0.042419 -0.104025
-0.027278 0.047763 -0.158513
-0.018396 -0.119293 0.027786
-0.017897 -0.113286 0.036798
0.053662 -0.020202 -0.015413
-0.041565 -0.106976 -0.020853
-0.032122 0.044651 -0.142558
0.033852 -0.047440 -0.115329
-0.017897 -0.113286 0.036798
0.007026 -0.069109 -0.088294
0.031524 -0.084373 -0.051186
-0.008832 -0.125805 0.018513
-0.007620 0.052359 -0.119067
0.036478 -0.001157 -0.085531
0.053934 -0.027815 -0.015547
0.002386 -0.059933 -0.114984
0.000824 -0.056801 -0.138849
0.054387 -0.008233 -0.180585
0.003736 -0.129211 0.003152
0.054187 -0.015950 -0.103257
-0.016701 0.052411 -0.155358
-0.048168 -0.015542 -0.031768
0.035762 -0.106846 0.029752
-0.047258 -0.046135 -0.078096
-0.019516 0.013847 -0.090410
-0.046660 -0.069278 -0.040878
-0.033167 -0.118083 0.011375
-0.034776 -0.042596 -0.181322
0.053349 -0.057082 -0.030808
0.000700 -0.006847 -0.057129
0.001160 -0.007851 -0.069543
-0.046487 -0.031303 -0.124053
-0.019985 -0.006335 -0.074236
-0.023353 -0.094957 -0.048730
-0.043885 -0.005853 -0.033755
0.054607 -0.000500 -0.006608
0.018156 -0.107434 -0.042665
-0.028823 -0.122022 0.001009
-0.027369 -0.008383 -0.071582
0.004225 -0.054839 -0.177847
-0.032863 -0.050297 -0.107149
-0.047652 0.027471 -0.158236
-0.010118 0.006153 -0.084582
-0.030833 -0.119741 0.010771
0.005697 0.043723 -0.105450
0.045172 -0.072996 -0.040343
0.035773 -0.006118 -0.042622
0.021220 -0.117729 0.028538
0.045446 -0.002893 -0.192000
-0.045635 -0.018644 -0.059268
0.000626 0.024222 -0.092511
0.014834 -0.083548 -0.064272
0.005223 -0.054845 -0.170825
0.047631 -0.036584 -0.097373
0.054947 -0.002542 -0.158181
-0.044892 -0.044767 -0.088293
0.052992 -0.067688 0.010750
-0.032622 -0.107387 0.032857
0.033882 0.042355 -0.121845
0.051250 -0.074748 0.013492
-0.005036 -0.060911 -0.110061
0.017939 -0.005169 -0.052722
-0.024673 -0.111528 0.034869
-0.009534 0.053323 -0.123086
0.054798 -0.005990 -0.112407
-0.053852 0.006112 -0.109898
0.052480 0.016527 -0.192000
0.015492 -0.109773 0.041577
-0.046346 -0.106929 0.004005
-0.049842 -0.015841 -0.077623
-0.054222 -0.045241 -0.028594
-0.028183 -0.048015 -0.152418
-0.036516 0.041134 -0.143852
-0.046745 -0.071837 0.026238
-0.054033 -0.042565 -0.024720
-0.023392 -0.067931 -0.080625
-0.006194 -0.056111 -0.142904
0.051692 -0.033052 -0.037328
-0.005755 -0.096259 -0.054320
0.008807 -0.107942 0.045105
0.014465 -0.099000 0.046158
0.052325 0.011631 -0.110375
-0.037826 -0.006722 -0.079106
-0.041700 0.023345 -0.105416
0.039730 0.008016 -0.094942
0.054302 -0.005475 -0.103344
0.053108 -0.015776 -0.119491
0.028321 -0.056605 -0.098166
0.043559 -0.085587 -0.031592
0.029842 -0.106959 -0.035780
-0.042843 -0.109451 -0.012667
-0.050092 -0.025922 -0.114642
0.037980 -0.112790 -0.016555
0.032098 0.042131 -0.118150
0.023492 -0.005137 -0.050390
0.046563 -0.031783 -0.119967
0.020121 -0.087562 -0.057297
-0.049817 -0.013123 -0.026047
0.021610 -0.004797 -0.051158
-0.024243 -0.010328 -0.061086
-0.051208 -0.053533 -0.049965
-0.054595 -0.009152 -0.110805
0.008323 -0.107333 0.045574
-0.051242 -0.012254 -0.021851
0.012812 0.048054 -0.112858
-0.046295 -0.063917 0.029559
-0.050484 -0.087983 0.000425
-0.021218 -0.115012 0.032688
0.043047 0.018595 -0.103382
-0.031071 -0.050859 -0.109970
-0.021024 0.000034 -0.082210
0.042983 -0.043677 -0.096901
0.023487 -0.049718 -0.182511
0.054686 -0.012132 -0.006226
-0.046235 0.029797 -0.134987
0.039487 0.017320 -0.100173
-0.040978 0.036693 -0.179413
0.053105 -0.027995 -0.066675
0.053333 -0.025179 -0.072762
-0.053245 -0.071921 0.001044
0.006114 -0.008332 -0.068377
0.054427 -0.008144 -0.152801
0.025699 -0.064241 -0.084935
-0.003737 -0.110233 -0.043787
-0.037478 0.031055 -0.107933
0.031246 -0.079921 0.041867
0.041257 -0.107032 -0.021428
0.038062 -0.043209 -0.117390
0.031586 -0.075692 -0.060812
0.045354 -0.032814 -0.126988
-0.041338 -0.112708 -0.003765
-0.023833 0.038756 -0.106842
-0.031238 -0.046144 -0.150374
0.051310 -0.030841 -0.035656
-0.037243 -0.001893 -0.040523
-0.037533 0.005989 -0.092411
-0.042760 0.034603 -0.173597
0.030523 0.045760 -0.126593
0.020679 -0.069127 -0.080908
0.053546 -0.018320 -0.084984
-0.014993 -0.009371 -0.058309
0.024710 -0.056801 -0.103447
-0.045688 -0.106666 -0.009076
0.019394 -0.006501 -0.073839
-0.038443 -0.006966 -0.040427
0.048697 -0.096968 0.000315
0.042648 -0.036981 -0.123703
0.043787 -0.034108 -0.147676
-0.041930 -0.088172 -0.032846
0.031023 -0.093678 -0.043549
-0.049115 -0.022915 -0.059826
-0.038254 -0.004898 -0.081933
0.009328 -0.124662 -0.021450
-0.038994 -0.065457 -0.063994
-0.030622 -0.008859 -0.048073
0.039072 -0.109549 -0.021454
0.049300 -0.093687 0.003071
-0.029993 -0.111033 0.031090
-0.048697 -0.094631 -0.006527
0.018398 -0.115100 -0.034251
-0.041582 -0.004987 -0.036461
-0.055000 0.000639 -0.168674
-0.044182 0.027933 -0.112714
0.008200 -0.113111 -0.040263
-0.039217 -0.007883 -0.078072
0.052627 -0.012986 -0.017622
0.047527 -0.089989 0.016199
0.025352 -0.120445 -0.018749
0.054989 0.001114 -0.134787
-0.003655 0.050459 -0.113901
-0.002200 -0.006927 -0.071597
-0.038705 -0.055716 -0.081281
0.022608 -0.121067 -0.020478
-0.006194 -0.056111 -0.142904
0.012640 -0.059424 -0.110402
0.001359 -0.007551 -0.057861
-0.054986 -0.055633 -0.014911
-0.040100 -0.038034 -0.161302
-0.053668 -0.005308 -0.012152
-0.016313 -0.052572 -0.174486
-0.027285 -0.009326 -0.051174
0.009519 -0.074045 0.052558
-0.006325 0.042347 -0.104271
0.016965 -0.120034 0.027355
-0.043329 -0.009980 -0.036164
0.031482 -0.047643 -0.126017
-0.012616 -0.125774 0.016235
0.035441 -0.063639 -0.072967
-0.051948 0.010681 -0.108512
-0.029529 0.033774 -0.104973
0.033647 0.041528 -0.119151
-0.036496 0.041151 -0.160904
-0.033914 -0.114471 -0.020469
-0.013651 -0.106809 0.044502
0.036831 -0.043577 -0.122412
0.017886 0.049279 -0.118490
0.037437 0.040300 -0.125965
0.054509 -0.029269 -0.072897
0.053163 0.014122 -0.127224
-0.001626 0.005799 -0.083753
0.041368 -0.073729 0.033648
0.028688 -0.120939 0.011025
-0.031053 -0.108269 -0.033515
-0.050917 0.013873 -0.109248
-0.053991 -0.043791 -0.032532
0.042386 -0.109786 -0.013105
-0.003986 0.012581 -0.086949
-0.053571 -0.040973 -0.031226
-0.029546 -0.120775 -0.009420
0.054617 -0.006843 -0.126347
0.052770 -0.015724 -0.163287
-0.051459 -0.032835 -0.042384
0.039121 -0.113453 -0.011297
-0.020269 -0.069824 0.050164
-0.036298 -0.107577 -0.028596
0.011349 -0.107958 0.044521
0.039027 -0.004956 -0.039228
-0.002959 -0.001884 -0.054966
-0.047682 0.027448 -0.192000
0.007925 -0.106388 0.045986
0.035162 0.021340 -0.099885
-0.035660 -0.107849 0.029095
-0.003648 -0.106677 0.046442
-0.050211 -0.028663 -0.049139
0.044992 -0.018676 -0.044796
-0.047731 -0.098335 0.008329
0.041488 -0.095109 -0.028619
0.043853 -0.107243 -0.015108
0.039386 -0.038350 -0.183856
-0.000948 0.030094 -0.095768
0.029863 -0.089912 -0.047740
-0.034353 -0.111228 -0.025874
-0.020507 0.030824 -0.099254
0.022616 -0.120161 0.022640
0.051784 0.018535 -0.173330
-0.049281 -0.025729 -0.127380
0.043897 0.021275 -0.105945
0.023540 0.049713 -0.171585
0.054254 -0.061427 0.008580
-0.009234 0.048481 -0.112025
-0.043943 -0.017835 -0.046844
-0.031336 -0.004412 -0.045559
0.012781 -0.069738 -0.084868
0.028028 -0.122042 -0.006578
-0.038614 0.038067 -0.120534
0.007601 -0.079014 -0.072279
0.019244 -0.119920 0.026040
0.021173 0.049748 -0.123074
-0.054565 -0.048154 -0.025158
-0.026673 0.032542 -0.102639
-0.043451 -0.110600 -0.003584
-0.053269 -0.014105 -0.149982
-0.016164 -0.070973 0.051441
-0.016664 -0.101556 -0.047209
-0.019268 0.002032 -0.083446
0.049774 -0.023808 -0.156768
-0.044696 0.016070 -0.103185
0.022586 0.047068 -0.118001
-0.021274 -0.006550 -0.052044
-0.027219 -0.049727 -0.134778
-0.040769 -0.014771 -0.059729
-0.050879 -0.020954 -0.175118
-0.041958 0.035566 -0.184093
-0.054896 -0.056549 -0.015218
0.040326 -0.014569 -0.059376
0.053677 -0.007186 -0.012251
0.041429 -0.106705 -0.021335
0.029471 -0.065564 -0.078130
-0.028240 -0.122034 0.005790
0.013831 -0.000500 -0.053239
-0.031866 -0.109733 -0.030920
-0.051260 -0.078067 0.010891
0.044758 -0.083803 -0.030311
-0.024819 0.049087 -0.150929
-0.017878 -0.125223 -0.012861
0.044561 -0.096889 0.019845
-0.041934 -0.067921 -0.054563
0.016407 -0.064502 0.052478
0.045630 -0.075800 -0.035895
-0.026623 0.015793 -0.093576
-0.046592 -0.017610 -0.065631
-0.044110 -0.088233 -0.028208
0.018450 -0.064132 -0.092252
0.012510 -0.055586 -0.135868
-0.054588 -0.031947 -0.010125
-0.008934 -0.063866 -0.099263
0.028089 -0.107777 -0.036538
0.000749 -0.125430 0.021465
-0.047731 -0.098335 0.008329
0.039541 -0.083675 0.032960
-0.002296 -0.003310 -0.055206
-0.046532 -0.039754 -0.094125
0.018358 -0.056401 -0.115515
-0.054782 -0.000500 0.005146
-0.032965 -0.004938 -0.044518
-0.027624 -0.052068 -0.114492
-0.011579 -0.054199 -0.159933
0.018456 -0.009352 -0.056659
-0.010763 -0.107956 0.044662
0.009679 -0.126310 0.016383
0.014079 -0.127153 0.008205
0.053772 -0.057226 -0.027006
0.041257 -0.107032 -0.021428
-0.045009 -0.006824 -0.032424
-0.027369 -0.008383 -0.071582
-0.032364 -0.090703 0.038229
-0.041555 -0.039525 -0.116475
0.013859 0.041781 -0.105589
-0.033269 -0.107726 -0.031937
0.028338 -0.049550 -0.128722
0.034839 0.004392 -0.089956
0.030341 -0.053780 -0.102143
0.036979 0.031909 -0.108307
-0.014564 -0.009121 -0.057699
0.043027 -0.092748 -0.027245
0.051250 -0.074748 0.013492
0.050303 -0.003333 -0.022356
0.051018 0.014357 -0.109949
0.027264 -0.087896 -0.051899
-0.054469 -0.046888 -0.032883
-0.006026 -0.005614 -0.073995
0.046079 -0.020789 -0.051369
0.052040 -0.068285 -0.019015
0.023338 0.045002 -0.114844
0.012690 -0.099500 -0.050163
0.046957 -0.022255 -0.047623
0.042942 -0.111102 0.004067
-0.045721 0.030574 -0.123736
0.041110 0.016989 -0.101019
-0.029547 -0.108093 0.035039
0.032722 -0.114521 0.022217
0.047605 -0.023161 -0.044658
0.038968 -0.107722 0.024665
0.020052 -0.107989 -0.041317
0.004853 -0.008806 -0.059487
0.037759 -0.097673 -0.032874
0.018560 -0.007479 -0.053834
-0.044553 -0.018429 -0.046000
-0.036112 -0.042317 -0.150366
-0.035526 -0.011095 -0.046808
0.005247 0.052501 -0.118535
-0.021094 -0.005519 -0.051639
-0.043775 -0.084927 -0.031670
-0.000079 -0.066955 -0.094106
-0.050508 -0.013072 -0.024261
-0.014077 -0.109673 -0.042172
-0.052357 -0.062513 0.016614
0.036693 -0.004312 -0.081933
-0.019186 -0.009250 -0.066451
-0.047602 -0.041286 -0.086795
-0.026207 -0.122548 -0.009455
0.051826 -0.018839 -0.152605
0.047205 -0.073420 -0.033976
-0.034614 -0.106834 0.031088
0.028990 -0.050271 -0.119209
-0.047230 -0.006425 -0.087421
0.047205 -0.073420 -0.033976
-0.037951 -0.039940 -0.171326
-0.020393 0.033245 -0.100790
0.003409 0.007446 -0.084627
-0.044135 -0.011656 -0.036164
0.042055 -0.001524 -0.088248
-0.038776 -0.106960 -0.025710
-0.033065 -0.009034 -0.072254
0.050891 -0.073929 -0.018319
-0.033157 -0.068397 -0.068827
-0.047800 -0.011105 -0.081705
-0.035861 -0.090618 0.034977
-0.012340 0.040543 -0.104012
0.019336 0.047665 -0.116385
-0.010793 0.045972 -0.109073
0.034405 -0.118151 0.006308
-0.040421 -0.014528 -0.047565
-0.045834 -0.077016 -0.034046
-0.034360 -0.107387 0.031039
-0.022380 -0.119301 -0.024703
0.052299 -0.028953 -0.026595
0.019706 -0.051335 -0.192000
-0.044538 0.031861 -0.121734
-0.020495 0.028497 -0.097879
-0.053056 0.014530 -0.180910
0.022616 -0.120161 0.022640
-0.034115 0.043148 -0.183526
0.047532 0.017086 -0.106728
-0.045214 0.031326 -0.157221
-0.023392 -0.067931 -0.080625
-0.041244 0.028087 -0.108876
0.048427 -0.029343 -0.115126
0.035284 -0.010820 -0.046609
-0.039221 0.035782 -0.116391
-0.054374 -0.009762 -0.114994
0.016248 -0.116030 0.034083
0.052251 -0.019944 -0.114622
-0.022535 -0.080074 0.047144
-0.047602 -0.041286 -0.086795
0.017488 -0.111491 0.039011
0.043559 -0.085587 -0.031592
0.054833 -0.060266 0.004071
0.008959 -0.084957 -0.064680
0.036277 -0.012681 -0.051096
0.010998 -0.107539 -0.044974
-0.045159 -0.037515 -0.105799
-0.040240 0.037495 -0.168786
-0.025041 -0.006763 -0.074426
0.054254 -0.061427 0.008580
-0.001845 -0.004987 -0.055805
0.024388 -0.008244 -0.071030
-0.043534 -0.080710 0.028503
0.001932 0.003925 -0.082704
0.019895 -0.099613 -0.047137
0.039511 0.038267 -0.169797
0.048350 0.024271 -0.116745
0.025430 -0.102507 -0.041861
-0.048737 -0.019604 -0.033699
0.026206 -0.123029 0.006184
0.029471 -0.065564 -0.078130
0.025058 0.041902 -0.111401
0.050801 -0.020009 -0.072312
0.009049 -0.003448 -0.054541
-0.017906 0.000444 -0.081943
0.048246 -0.016204 -0.032106
0.001030 0.050209 -0.113240
0.011497 0.002256 -0.082342
0.051757 0.011791 -0.109103
-0.007280 -0.008840 -0.059046
-0.037687 -0.000500 0.040091
-0.019530 0.051420 -0.167265
0.009142 -0.120135 0.030710
0.016091 -0.088280 -0.058662
0.035213 -0.042404 -0.169783
0.021851 -0.000495 -0.081899
0.032466 -0.110141 0.029755
-0.046771 -0.021231 -0.054287
0.034410 -0.091603 -0.041495
-0.049764 0.023429 -0.169198
-0.049842 -0.015841 -0.077623
-0.020416 0.025991 -0.096497
-0.021031 -0.067730 -0.083023
-0.000863 -0.009354 -0.063885
-0.009029 0.034299 -0.098856
-0.015003 -0.053258 -0.162646
-0.036069 -0.047982 -0.105863
0.045212 -0.017240 -0.040860
0.037704 0.040049 -0.182114
0.033519 0.033840 -0.107398
-0.034892 -0.100232 0.033018
-0.045909 -0.020372 -0.045897
-0.048697 -0.094631 -0.006527
0.051834 -0.019706 -0.023487
-0.051611 -0.033007 -0.038541
-0.049445 -0.024786 -0.145542
-0.054518 -0.007705 -0.127065
0.046455 0.000073 -0.093666
0.046557 -0.091194 0.018173
0.047527 -0.089989 0.016199
0.051094 -0.021952 -0.122056
-0.018778 0.045547 -0.112470
-0.054977 -0.001415 -0.117442
-0.052235 -0.027274 -0.095568
-0.047703 0.027384 -0.166261
-0.055000 -0.000547 -0.181957
-0.011485 0.038473 -0.102138
0.046027 -0.102067 0.012305
0.050891 -0.073929 -0.018319
-0.046420 -0.100691 -0.012044
0.005141 -0.070873 0.053716
-0.050222 -0.079539 -0.015394
-0.046702 -0.014467 -0.073784
-0.041004 -0.107467 0.021454
0.029685 -0.107900 0.035119
0.043680 -0.016902 -0.044710
-0.044388 -0.000500 0.032485
-0.034359 -0.007881 -0.044601
0.041565 -0.014871 -0.045512
-0.010118 0.006153 -0.084582
0.053887 -0.000500 0.011036
0.045635 0.030706 -0.172112
-0.033089 -0.046282 -0.127600
-0.037826 -0.006722 -0.079106
-0.024374 -0.056942 -0.103570
0.033980 -0.012159 -0.055540
-0.040267 -0.108010 0.022054
-0.047719 -0.035957 -0.098550
0.053735 -0.005671 -0.101000
-0.034334 -0.011906 -0.062350
-0.054053 -0.011554 -0.116874
0.024807 0.033199 -0.102354
0.024186 -0.008022 -0.051662
-0.052996 -0.038547 -0.036237
-0.017235 -0.107358 0.043000
0.054678 0.005990 -0.191999
-0.027293 0.001417 -0.084955
0.020611 -0.125529 0.005168
-0.052709 0.009614 -0.109443
0.039275 -0.012382 -0.067738
-0.004870 -0.118825 -0.033670
0.043897 0.021275 -0.105945
-0.003997 -0.086346 0.050951
0.033416 -0.044661 -0.148033
0.043950 -0.073877 -0.042316
-0.036602 -0.006830 -0.042149
0.016748 -0.121876 0.023799
0.015492 -0.109773 0.041577
-0.044182 0.027933 -0.112714
-0.033076 -0.102197 -0.035632
-0.051246 -0.006192 -0.094174
-0.002716 0.043018 -0.104481
0.027938 -0.068351 -0.075325
0.042055 -0.001524 -0.088248
0.037856 0.003807 -0.090860
0.054901 -0.021673 -0.087408
0.039730 0.008016 -0.094942
-0.054830 -0.040587 -0.057821
-0.012811 -0.009485 -0.059799
0.016153 -0.127191 -0.001265
-0.023221 -0.108083 0.039533
-0.039664 0.028604 -0.107728
-0.039651 -0.110455 -0.018522
-0.051671 -0.007591 -0.019382
0.049857 0.021358 -0.116396
0.031853 -0.000503 -0.044828
0.009884 0.003960 -0.083288
-0.009053 -0.128080 -0.008789
0.024998 -0.002927 -0.049150
-0.009290 -0.065408 -0.095332
-0.022432 -0.079423 -0.064767
0.007666 -0.128757 -0.004440
-0.041690 -0.000500 0.035910
0.045172 -0.072996 -0.040343
-0.021901 -0.009209 -0.054498
0.051818 -0.022331 -0.071335
-0.001286 -0.009205 -0.061182
-0.047939 -0.071897 0.023917
0.006451 -0.092852 -0.057209
0.046500 -0.030034 -0.150525
-0.003490 -0.007343 -0.057396
-0.048312 -0.026294 -0.179933
-0.015893 0.008905 -0.087044
0.049084 -0.020997 -0.033871
-0.054911 0.003169 -0.113236
0.053258 -0.039436 -0.041720
-0.044039 -0.018235 -0.052483
0.009142 -0.120135 0.030710
0.052640 -0.065695 -0.018912
-0.004075 -0.062811 -0.104108
-0.021262 -0.086218 -0.057977
0.029472 -0.005270 -0.078054
-0.010083 -0.054709 -0.155606
-0.049612 -0.025794 -0.120661
-0.007890 0.041343 -0.103670
0.045435 0.002879 -0.192000
-0.045113 0.025460 -0.111207
-0.051067 -0.021367 -0.132945
-0.024710 0.049142 -0.134762
0.037263 -0.067762 -0.063578
0.051163 -0.021228 -0.071082
-0.028838 -0.114422 0.027234
-0.050407 -0.023251 -0.126370
-0.051944 -0.019621 -0.121527
-0.046173 -0.015550 -0.070252
-0.033169 -0.113172 -0.024139
-0.019129 -0.123320 0.018134
-0.005382 0.040632 -0.102727
-0.014116 -0.056060 -0.126988
0.041343 -0.007150 -0.080697
0.044119 -0.032791 -0.184469
0.000954 -0.070854 0.053958
-0.044913 -0.015394 -0.038916
-0.020236 -0.107400 -0.041728
-0.054886 -0.054137 -0.023654
0.038696 -0.107539 -0.025293
-0.013994 -0.008823 -0.057206
0.053986 -0.007106 -0.100520
0.012573 -0.109836 0.042488
-0.001993 -0.098752 -0.052650
-0.042382 -0.109567 0.013730
0.053137 0.001214 -0.104767
-0.010570 -0.007183 -0.071492
0.045755 -0.107039 -0.008103
0.025750 -0.010517 -0.056636
0.001359 -0.007551 -0.057861
0.049679 0.003474 -0.192000
0.047705 -0.075674 -0.029818
0.006451 -0.092852 -0.057209
-0.024114 0.049433 -0.127069
0.043680 -0.016902 -0.044710
-0.027502 -0.121837 0.009738
-0.034359 -0.007881 -0.044601
-0.014079 -0.120472 -0.028167
0.040893 -0.060964 -0.067420
-0.036586 -0.009366 -0.073539
0.054864 -0.051870 -0.030837
-0.046574 -0.021303 -0.045073
-0.031587 -0.007271 -0.075383
-0.000080 -0.075724 -0.078112
0.004786 -0.087801 -0.062434
-0.020951 -0.099020 0.043566
0.034316 -0.072785 0.041098
0.033149 -0.043874 -0.192000
0.036831 -0.043577 -0.122412
0.054045 -0.033378 -0.016590
0.031927 -0.102467 -0.036610
-0.027229 0.002747 -0.086036
-0.032210 -0.081675 -0.053173
-0.021420 -0.004488 -0.051143
-0.039253 -0.107878 -0.023994
0.043831 -0.033525 -0.163813
-0.033457 -0.082323 0.039494
-0.036619 -0.011285 -0.068322
0.027654 -0.003365 -0.047760
-0.023954 -0.058769 -0.099114
0.013729 -0.008754 -0.067602
0.030991 -0.107533 -0.034337
0.053507 -0.039659 -0.045011
0.047621 0.012545 -0.103675
0.004339 0.050220 -0.113584
-0.019659 0.041972 -0.108313
0.021917 -0.123546 0.013754
-0.044512 -0.098593 0.019060
-0.014238 0.006585 -0.085451
-0.006716 -0.120742 0.030315
0.049116 -0.033895 -0.097212
-0.047266 -0.019938 -0.060906
0.040648 -0.081326 -0.041258
-0.008671 -0.058999 -0.115863
-0.049115 -0.022915 -0.059826
-0.047363 -0.013119 -0.031565
0.054393 0.008157 -0.191999
-0.051869 -0.022906 -0.070427
-0.052996 -0.038547 -0.036237
-0.014662 -0.114423 -0.036850
0.009818 -0.095261 -0.054365
0.028030 -0.121527 -0.009892
0.050835 -0.084302 -0.005016
-0.029512 -0.046470 -0.175746
0.014834 -0.083548 -0.064272
-0.002028 -0.057526 -0.130965
-0.001026 0.041365 -0.102986
-0.045265 -0.014089 -0.036653
-0.045896 -0.107769 -0.004236
-0.018054 -0.079496 -0.067488
0.029409 0.012402 -0.092892
-0.015896 -0.077721 -0.070962
0.030596 -0.007520 -0.047159
0.047535 -0.101119 -0.004981
0.028228 -0.071444 -0.070295
0.052138 -0.032881 -0.032010
-0.024825 -0.009149 -0.052601
0.009854 0.053556 -0.124266
-0.027542 -0.118152 -0.021560
-0.041642 0.025588 -0.107076
0.002901 -0.062945 -0.104013
-0.053080 -0.038811 -0.040917
-0.029716 0.031545 -0.103297
-0.001976 -0.001170 -0.079045
0.008199 0.037983 -0.101168
-0.043922 -0.013696 -0.038734
-0.020542 -0.052917 -0.136455
-0.005414 -0.103867 -0.048493
-0.034152 0.043117 -0.171192
-0.054053 -0.011554 -0.116874
0.044524 -0.055270 -0.068772
-0.002846 -0.059050 -0.119242
-0.033680 0.032822 -0.106558
-0.054554 0.003916 -0.111077
0.048543 -0.074135 0.021695
0.022614 -0.124098 0.009901
0.035061 -0.003114 -0.042549
-0.027219 -0.049727 -0.134778
-0.028491 -0.010167 -0.051759
-0.024214 0.049384 -0.167910
-0.046216 -0.107344 0.003449
0.040244 -0.111883 -0.013214
-0.016278 -0.091059 -0.055903
-0.045889 -0.012905 -0.034254
0.001218 0.011438 -0.086289
-0.053936 0.010832 -0.158585
0.048548 -0.065220 -0.040426
0.030655 -0.045939 -0.165388
-0.012581 -0.110287 0.042066
0.012495 0.053456 -0.126325
-0.012223 -0.104804 -0.046470
0.048346 -0.000500 0.026279
-0.043434 0.022545 -0.106441
0.003952 -0.085925 -0.064573
-0.048477 -0.031325 -0.107582
-0.043943 -0.017835 -0.046844
0.048427 -0.029343 -0.115126
-0.054198 -0.025515 -0.087319
-0.028284 -0.054965 -0.102687
0.021626 -0.056389 -0.109844
0.054996 0.000708 -0.168840
-0.015363 -0.003670 -0.053128
0.048002 0.026882 -0.192000
-0.052376 -0.051997 -0.047489
-0.021947 -0.010122 -0.057974
-0.022815 0.049189 -0.123524
-0.015525 -0.127188 0.004517
0.054983 -0.001469 -0.182578
0.030224 -0.058869 -0.089880
-0.043297 -0.016867 -0.057455
0.044633 -0.107365 0.012445
-0.014705 -0.116205 0.034553
0.036779 -0.106668 0.028575
0.039124 -0.111824 0.016388
-0.013791 -0.001603 -0.053287
-0.041069 0.036587 -0.150686
-0.049524 -0.073652 -0.025273
0.043738 -0.017920 -0.048833
-0.013247 0.050297 -0.117250
0.033178 -0.117149 -0.014839
-0.029341 -0.112691 0.029390
-0.021421 -0.073069 -0.074051
-0.036559 -0.098755 -0.033784
-0.006213 -0.065642 -0.095947
-0.046119 -0.034727 -0.110102
0.005552 -0.090156 -0.059918
-0.023889 -0.073712 -0.071160
-0.054904 -0.009813 -0.102301
0.054135 -0.065886 0.001978
0.053734 -0.012339 -0.129672
0.006883 -0.086393 -0.063559
-0.044994 -0.010834 -0.034190
0.016913 -0.003290 -0.052585
-0.041895 -0.075659 -0.044804
-0.033172 -0.118808 0.007667
0.025563 -0.088020 0.043742
-0.053443 0.013016 -0.172970
-0.029039 -0.008157 -0.048648
-0.028838 -0.114422 0.027234
-0.023189 -0.110242 0.037340
0.054894 -0.055244 -0.019941
0.053723 0.003438 -0.107564
-0.026104 -0.070882 0.047161
0.053507 -0.039659 -0.045011
-0.000596 0.043248 -0.104602
-0.027651 -0.002879 -0.047690
-0.054865 -0.004182 -0.126852
0.022006 -0.123640 -0.013246
-0.010677 0.049935 -0.115092
-0.030200 -0.073566 -0.065162
0.007557 -0.095838 -0.054369
0.010641 -0.127289 -0.011750
-0.033326 -0.003510 -0.043977
0.026184 0.047584 -0.123584
0.000121 -0.092082 -0.058580
-0.054873 -0.003742 -0.179958
-0.001112 -0.001858 -0.055008
-0.024808 -0.123532 0.007442
0.030650 -0.046255 -0.156752
-0.009142 -0.107395 0.045388
0.053035 0.011899 -0.113161
-0.035189 -0.043754 -0.138646
0.000737 -0.118427 -0.034580
0.054607 -0.000500 -0.006608
0.002005 -0.058123 -0.125626
-0.016535 -0.058293 -0.110287
0.021274 -0.066922 -0.084310
-0.051122 -0.021256 -0.026952
0.039339 -0.014035 -0.048854
0.054993 -0.001565 -0.142073
0.054600 -0.005491 -0.000988
-0.016707 0.052409 -0.131888
0.053722 -0.041947 -0.031298
0.028926 -0.006588 -0.047820
0.020343 -0.125859 0.000835
-0.042459 -0.106874 0.019042
-0.042410 -0.110320 0.011209
0.037341 -0.041290 -0.148351
-0.005260 0.015608 -0.088441
0.044283 -0.044919 -0.089850
0.014304 0.050748 -0.119028
0.021219 -0.120752 -0.022643
0.020432 -0.064843 -0.089025
0.048334 0.020596 -0.111266
0.015443 -0.009731 -0.060872
-0.029707 -0.098823 -0.041023
0.048149 -0.002695 -0.092899
-0.013537 0.053321 -0.158585
-0.011426 -0.068267 -0.088262
-0.046104 0.029997 -0.167386
-0.054904 -0.009813 -0.102301
-0.033089 -0.046282 -0.127600
-0.038745 -0.041187 -0.126799
0.027135 -0.070926 0.046561
0.030896 -0.049074 -0.118576
0.021567 -0.009073 -0.054424
0.035355 0.014986 -0.096741
0.053048 0.013283 -0.115422
0.047711 -0.084490 -0.021205
-0.023389 -0.116707 -0.028562
0.003070 -0.070859 0.053874
0.030991 -0.107533 -0.034337
0.008709 -0.009331 -0.060407
-0.043318 -0.045453 -0.091599
0.032950 -0.009893 -0.047388
0.012666 0.003923 -0.083613
-0.029082 -0.004830 -0.078582
0.050923 -0.026255 -0.031515
-0.023895 0.022277 -0.095710
0.048712 0.016277 -0.107647
0.009685 -0.119344 -0.031822
0.039072 -0.012915 -0.065366
0.045435 0.002879 -0.192000
0.016282 -0.004548 -0.053066
-0.009680 -0.127804 0.009812
0.039389 -0.089459 -0.036308
0.054901 -0.021673 -0.087408
0.004422 -0.002483 -0.054943
-0.025560 -0.004435 -0.049131
-0.046499 -0.030984 -0.127110
0.038605 -0.005271 -0.081597
0.039576 0.000002 -0.088267
0.004785 -0.007274 -0.057138
-0.018627 -0.055272 -0.121131
0.031879 -0.011247 -0.051745
0.035620 -0.114716 -0.016654
-0.047650 -0.023237 -0.050657
0.048260 -0.090089 0.013766
-0.047766 0.005574 -0.099397
-0.009053 -0.121918 0.027597
0.045212 -0.017240 -0.040860
-0.048542 0.025866 -0.164369
-0.005414 -0.103867 -0.048493
-0.025957 -0.112337 -0.032905
-0.039358 0.038420 -0.180063
-0.020896 -0.119688 0.025218
-0.053061 -0.015306 -0.126030
0.049554 -0.001911 -0.095596
-0.011152 -0.127328 -0.010999
0.031846 -0.054525 -0.097225
0.005148 0.018028 -0.089576
0.054787 -0.005062 -0.147026
0.029013 -0.047712 -0.148539
0.016748 -0.121876 0.023799
0.053034 -0.017357 -0.084443
-0.040914 0.032987 -0.114489
0.051702 0.003623 -0.103356
-0.052632 -0.022565 -0.074152
-0.010793 0.045972 -0.109073
-0.053356 -0.014013 -0.130360
-0.052798 -0.017675 -0.083096
-0.040448 -0.043308 -0.106656
0.035864 0.041702 -0.169258
-0.054791 -0.007345 -0.109824
-0.054141 -0.061503 0.009286
-0.047361 -0.017331 -0.035353
0.051588 -0.024873 -0.105480
-0.053842 -0.015729 -0.089816
-0.050990 -0.031217 -0.045693
-0.031410 -0.118152 -0.015392
-0.033791 -0.046213 -0.122864
0.046614 -0.021472 -0.045483
-0.022890 -0.107816 -0.039977
0.045196 -0.012843 -0.035456
-0.000645 0.020629 -0.090642
-0.017863 -0.054261 -0.133049
0.043565 -0.110644 0.000346
-0.035678 -0.113473 0.019599
0.054777 -0.023232 -0.006636
0.006114 -0.008332 -0.068377
0.000009 -0.063796 -0.102020
0.039910 -0.009879 -0.074894
-0.051779 -0.019134 -0.077152
-0.042482 -0.016715 -0.053123
-0.053582 -0.035789 -0.073144
-0.037567 -0.011088 -0.069890
-0.054917 -0.005558 -0.106644
-0.040703 -0.107191 -0.022304
0.017782 -0.125363 0.012410
0.011588 -0.002237 -0.053863
-0.023436 -0.063025 -0.089842
0.053782 -0.015352 -0.090064
-0.042411 -0.111813 0.001170
0.046389 -0.012599 -0.076998
-0.001485 -0.124721 -0.023217
0.046194 0.002939 -0.095879
-0.006026 -0.005614 -0.073995
0.015866 0.043470 -0.108157
-0.022207 -0.115280 -0.031661
0.029469 0.041565 -0.114181
-0.002228 0.040215 -0.102143
0.043187 -0.076127 0.030510
-0.020951 -0.099020 0.043566
-0.023353 -0.094957 -0.048730
-0.049611 -0.027568 -0.043705
-0.033307 -0.043746 -0.182474
0.036968 -0.116175 -0.006751
-0.039121 -0.113729 -0.010161
0.048037 -0.023508 -0.052726
0.043475 -0.002774 -0.087941
0.035619 -0.117645 0.001938
-0.053991 -0.043791 -0.032532
0.051692 0.017501 -0.116522
0.000589 -0.008329 -0.058994
0.029455 -0.062267 -0.084100
0.001782 0.052894 -0.118865
-0.021220 -0.121221 0.021548
-0.053603 -0.052532 -0.039285
0.035265 -0.004849 -0.042695
-0.005348 -0.054756 -0.192000
-0.042279 0.034787 -0.122325
0.031912 -0.120194 -0.001187
0.040893 -0.060964 -0.067420
-0.044704 -0.107824 0.011070
0.048731 -0.047120 -0.071354
0.050341 -0.012170 -0.024250
-0.019666 0.050663 -0.124069
0.015024 -0.125866 -0.013710
-0.040777 0.000332 -0.089331
0.048037 -0.023508 -0.052726
0.053349 -0.057082 -0.030808
0.022893 -0.073489 0.048320
0.043084 -0.008602 -0.035773
0.011156 -0.115982 0.036139
-0.045906 -0.013128 -0.075238
0.048108 -0.026608 -0.183926
-0.041069 0.036587 -0.150686
-0.045715 -0.007911 -0.083604
0.010726 -0.090835 -0.058112
-0.046420 -0.100691 -0.012044
-0.047799 -0.084911 -0.020545
0.039121 -0.114868 -0.001064
0.039072 -0.012915 -0.065366
-0.053627 -0.008487 -0.097799
0.045872 -0.030399 -0.176479
0.015702 0.046386 -0.111869
0.002342 -0.098762 -0.052626
-0.053081 -0.021517 -0.102015
-0.007230 -0.003427 -0.054815
-0.022611 -0.122469 -0.016510
0.037867 -0.107868 0.026136
0.019129 -0.009942 -0.059408
-0.003891 0.054116 -0.123174
0.018384 -0.106705 0.042795
-0.027162 0.047830 -0.135704
0.044148 -0.089030 -0.027524
-0.042637 -0.006534 -0.082546
-0.054395 0.008153 -0.172178
