0.024144 0.108993 0.070216
-0.004837 0.007145 -0.027781
0.019276 0.114544 0.058901
0.006655 0.124078 0.027236
0.013393 0.011949 -0.028305
0.045284 0.097594 0.036559
0.019470 -0.006328 -0.031875
-0.046294 0.070693 0.070182
-0.050309 -0.040526 -0.053042
-0.031512 -0.111306 -0.082268
0.055006 0.068491 -0.031697
-0.025047 0.017062 0.052042
0.003952 -0.008670 -0.035022
-0.048188 -0.041548 -0.057816
-0.045868 0.099678 0.026731
-0.003365 0.011134 -0.029108
-0.044553 -0.013790 -0.029932
-0.016518 0.013958 -0.028849
0.049340 0.067146 0.056210
-0.006095 0.115677 0.069465
0.050641 0.046892 -0.027640
0.013409 0.113836 0.070144
0.027310 -0.057308 0.013181
0.019824 0.040277 0.080721
-0.020230 -0.113672 -0.088338
0.047250 -0.014380 0.006103
0.048233 -0.038616 -0.005534
0.019179 -0.039528 -0.079983
-0.051916 0.070854 0.042704
-0.051283 0.009625 -0.010130
-0.052259 0.043849 -0.009785
0.045164 -0.036338 0.000311
-0.035794 0.103619 0.056414
0.018866 -0.090729 0.014906
-0.034104 -0.043979 -0.075469
0.024113 -0.075082 0.013514
-0.034601 0.100575 0.069638
-0.024665 0.049002 0.082927
0.024472 0.027436 0.065990
-0.045693 0.063315 0.070523
-0.048971 -0.051371 -0.061994
0.000912 -0.031847 -0.076355
0.024000 0.051180 0.084064
-0.048610 -0.027184 -0.037909
-0.043553 -0.034708 -0.056387
-0.033154 0.097573 0.073553
-0.000168 -0.037240 -0.082583
0.013146 -0.018724 -0.049627
0.024002 0.048583 0.083071
0.029485 -0.008566 -0.031926
-0.035890 -0.024903 -0.047417
0.023907 -0.025736 -0.058467
-0.022824 0.002635 0.040319
0.032522 -0.084020 0.007894
0.035009 -0.037169 0.011499
0.019826 0.101301 0.079053
0.049491 -0.035185 -0.006920
-0.042538 0.056152 0.072334
0.033355 -0.035693 -0.068636
-0.052637 -0.110434 -0.021270
0.026049 0.057067 0.084831
0.044445 0.068109 0.072492
-0.052364 -0.020821 -0.025472
0.032520 -0.045500 -0.077448
0.039001 0.094046 0.070589
0.041283 -0.029595 -0.050556
-0.016233 -0.030400 0.024545
0.024486 0.018458 -0.029785
-0.035555 0.076310 0.080041
0.045273 0.049116 0.057794
0.042276 -0.016923 0.011916
0.009028 -0.035461 -0.079748
0.005973 0.023549 0.070316
0.030761 0.008990 0.039506
-0.048200 0.019136 -0.012916
-0.002925 0.100270 0.083640
-0.044970 -0.041556 -0.000977
0.009692 -0.003379 -0.030758
-0.034104 -0.043979 -0.075469
-0.034598 -0.075769 0.006654
0.042164 -0.002162 0.019692
-0.010474 -0.026574 -0.066436
-0.038785 -0.057564 0.003912
0.029552 -0.019095 0.022768
-0.015628 -0.029500 -0.069708
0.015110 -0.056881 0.018644
0.043238 0.099961 0.038877
0.052496 0.008325 0.007673
-0.026411 0.014366 0.048117
0.033130 -0.030790 -0.061236
0.042146 0.009784 0.026954
0.010464 -0.124512 0.016817
-0.042356 -0.052152 0.000406
0.000132 0.001318 0.045907
0.006690 -0.016559 0.033146
0.050829 0.015886 0.015301
-0.041804 0.031019 -0.026844
-0.034282 -0.083687 -0.080199
-0.004911 0.124282 -0.036695
0.028809 -0.036686 -0.072714
-0.048260 -0.005033 -0.021592
-0.050140 -0.043626 -0.055950
-0.048799 -0.020750 -0.031257
-0.017817 -0.017898 0.029548
0.033811 -0.014944 -0.035957
0.005065 -0.007812 -0.034150
0.023329 -0.033639 -0.072166
-0.038108 0.009715 0.032209
0.032264 0.022115 -0.027795
0.052467 0.040016 -0.004122
0.013145 -0.014671 -0.041874
-0.010547 0.034899 0.080084
-0.022434 -0.032208 -0.070726
-0.026015 0.093052 0.080861
-0.036794 0.082598 0.077728
-0.008296 0.008726 -0.027829
-0.035446 -0.055582 -0.079161
-0.045286 -0.025361 -0.039892
0.000013 0.018990 -0.036695
-0.048445 0.032963 -0.015798
0.010057 -0.049961 -0.089246
-0.010152 -0.046354 0.021517
-0.054942 0.061289 0.016045
-0.053739 0.081122 0.024119
-0.011088 0.039096 0.082742
0.054140 0.055445 -0.009479
-0.024665 0.049002 0.082927
0.009028 -0.035461 -0.079748
0.020356 0.070324 0.088664
-0.002570 -0.053236 -0.091281
0.049462 0.042854 0.035577
-0.035440 -0.097633 -0.079248
-0.014062 -0.040901 0.021841
-0.041140 0.000470 -0.024393
0.014818 0.087337 0.087554
-0.054326 -0.041927 -0.042653
-0.027550 0.117107 0.026627
-0.002565 -0.027090 -0.068614
0.016151 0.003958 0.044728
0.004037 0.120450 0.049092
-0.025286 0.030410 0.069888
-0.022333 -0.020507 0.026300
0.031859 -0.027761 0.017320
0.010586 0.017028 0.060127
0.027653 -0.019022 -0.043172
-0.030622 0.061156 0.083115
-0.018829 -0.017193 -0.044274
-0.038431 0.013937 0.034938
-0.053399 0.051599 -0.013215
-0.054431 0.064624 0.025038
0.030664 0.058603 0.082630
0.011197 -0.035461 -0.079162
-0.001333 -0.043461 -0.087225
-0.048966 0.045652 0.039722
-0.053792 0.011926 -0.001742
-0.002799 0.003274 0.047402
-0.054955 0.047891 0.016621
-0.051902 0.032784 -0.003380
0.032202 -0.020279 -0.042708
0.051889 0.021915 -0.003759
0.027968 -0.111858 -0.084565
0.049987 0.040279 -0.018532
0.040453 -0.043295 0.004477
0.037961 0.096492 0.069454
0.010606 -0.016826 -0.046589
0.048714 0.087349 0.044186
-0.034817 0.019855 0.044770
-0.047672 0.030358 -0.016010
-0.047910 -0.024849 -0.036247
-0.033153 0.074017 0.081995
-0.041496 -0.060160 -0.073282
-0.010072 -0.048012 -0.088430
0.031363 -0.009431 0.026514
-0.041348 0.018025 0.033902
-0.010547 0.009443 -0.027815
0.010952 -0.100869 -0.091099
-0.044768 0.056855 0.069674
-0.027137 0.017563 0.050777
0.029699 0.104607 0.070704
0.032689 0.105903 0.058994
0.031802 -0.040781 -0.074718
-0.002421 0.014063 -0.033069
-0.037230 0.097412 0.069572
-0.042017 -0.036641 -0.061110
0.046207 0.039508 0.042846
0.006486 0.019156 0.063943
-0.011962 0.003724 0.046002
-0.012028 -0.031702 0.025277
0.041601 0.032532 -0.030310
-0.035446 -0.055582 -0.079161
0.026973 -0.103913 -0.085136
0.013111 -0.096518 0.016444
0.054405 0.034739 0.008893
-0.005811 -0.067680 0.019442
-0.009666 0.088733 0.088210
0.041389 0.103104 0.036617
0.030761 0.008990 0.039506
-0.010679 -0.045471 -0.087057
-0.025338 0.042638 0.079488
0.000986 0.014493 -0.036695
-0.031691 0.110992 0.042747
0.049449 0.001137 -0.017371
0.048511 -0.095625 -0.010998
-0.021538 0.018825 -0.035254
-0.037762 -0.055327 0.005187
-0.040451 0.014616 0.032675
0.026310 0.026926 0.063358
0.027331 -0.047916 0.014459
0.027557 0.094871 0.079078
-0.054816 -0.112711 -0.041592
0.038626 0.048262 0.072924
-0.026779 -0.107965 -0.085228
0.042076 -0.046667 -0.069902
0.036621 -0.093088 0.004207
0.039707 0.081101 0.075673
0.026192 0.015144 -0.026920
-0.020828 -0.111490 0.013700
0.040556 0.020420 0.037103
-0.031618 -0.004745 0.029056
0.045687 0.035710 0.040470
-0.045983 0.036375 -0.025478
0.049178 -0.028804 -0.003847
0.039181 0.045398 0.070708
-0.039776 -0.020813 -0.039146
0.054929 -0.055060 -0.034025
-0.038803 0.030518 -0.036695
0.046305 0.064960 0.069714
0.039679 -0.010925 0.017935
-0.039170 -0.113174 0.001369
0.040879 -0.017501 -0.035282
-0.014899 0.016284 -0.033841
-0.048778 0.020576 0.022214
0.028611 -0.038525 -0.074597
0.004293 0.102397 0.082197
0.033960 -0.056684 0.008511
-0.025276 0.015020 -0.027094
-0.007589 0.027742 0.074621
0.029728 -0.023726 0.020517
0.050997 -0.035617 -0.045562
0.000013 0.018990 -0.036695
-0.022068 0.119787 0.027655
0.053121 -0.050003 -0.021420
-0.026287 0.107605 0.070182
0.042218 -0.052448 -0.071982
0.048838 -0.031753 -0.043797
0.012129 0.020136 0.063576
-0.015513 0.055098 0.088352
0.048679 -0.050966 -0.009356
0.006537 -0.012082 -0.039008
0.052752 -0.015389 -0.005720
-0.028681 0.055430 0.083002
-0.037909 0.019546 -0.023856
-0.004911 0.124282 -0.036695
0.012675 -0.066102 0.018375
0.027849 -0.039113 0.016199
0.039376 -0.028354 -0.050390
-0.019458 0.117441 0.045548
-0.007264 0.013825 -0.031366
-0.053445 -0.073268 -0.050150
0.016688 -0.013121 -0.038769
0.029174 0.008482 0.040494
0.041348 0.017313 0.033394
0.015508 0.119430 0.042873
0.040817 -0.057609 0.001693
-0.049453 -0.081201 -0.012583
0.045375 -0.073702 -0.005141
-0.015513 0.071076 0.090147
0.040132 -0.114112 0.000389
-0.030329 -0.017568 0.022938
-0.008331 -0.003283 -0.030752
-0.029843 0.031504 0.066087
-0.053676 -0.030107 -0.030249
0.038755 -0.023326 -0.042897
0.035488 -0.002219 0.027184
-0.048964 0.063293 0.056257
0.013147 -0.016554 -0.045187
-0.006901 -0.055372 -0.091378
0.018448 -0.016426 0.030073
-0.038832 -0.066304 -0.076133
0.037933 -0.085254 0.003266
-0.044430 0.022695 -0.018739
0.054568 -0.124511 -0.044219
0.033355 -0.035693 -0.068636
0.001777 0.013894 0.058058
-0.017694 -0.042286 -0.082712
0.034380 -0.007393 -0.030137
0.031482 0.103431 0.070221
0.020709 0.024130 0.064331
-0.052672 -0.080918 -0.052995
-0.034683 -0.054380 0.008142
0.043665 -0.047019 -0.068195
-0.034819 -0.036789 -0.068786
0.016186 -0.042344 0.020843
0.018567 -0.056733 -0.088855
-0.033682 0.028650 0.056353
-0.008834 0.010053 0.052800
-0.050636 0.073142 0.049388
-0.021583 -0.041286 -0.080262
0.024233 0.096497 0.080003
-0.051722 -0.089738 -0.055876
-0.040123 -0.055817 -0.074806
-0.046964 -0.072612 -0.065805
-0.021203 0.048808 0.084380
-0.027953 -0.115679 0.010138
-0.013936 0.011623 -0.028094
-0.008190 0.041449 0.084614
0.052180 -0.065296 -0.019007
0.005091 -0.108998 0.017574
0.042797 -0.047392 0.000731
-0.048998 -0.082311 -0.062164
0.009692 0.064375 0.091207
0.052599 -0.106397 -0.021039
-0.028740 0.014997 0.046694
-0.052637 -0.110434 -0.021270
-0.054966 -0.111378 -0.035528
0.025528 0.020601 -0.034233
-0.050108 -0.000577 -0.017171
0.025309 -0.037399 -0.075275
0.043082 0.003621 -0.022402
-0.039500 -0.045483 -0.071901
0.027918 0.013890 0.046372
-0.047870 -0.044985 -0.006637
-0.054326 -0.041927 -0.042653
-0.054697 -0.057874 -0.031198
-0.016233 -0.030400 0.024545
0.039988 0.106022 0.031848
-0.009525 -0.063736 0.019276
-0.023208 -0.017027 -0.042209
0.022261 -0.044837 0.017812
-0.020256 0.119653 0.032624
-0.049036 -0.016737 -0.027767
0.020506 0.117545 0.042981
-0.002299 -0.025181 -0.065292
0.052283 -0.048915 -0.054086
-0.015512 0.074005 0.089993
-0.053809 0.044057 0.003591
0.021379 -0.013915 -0.038592
-0.046853 -0.027308 -0.040480
-0.047116 -0.053655 -0.065561
0.023108 -0.025147 0.023823
0.035123 -0.056782 0.007505
0.051863 -0.043573 -0.052234
0.008267 0.115317 0.069540
0.036897 -0.042797 -0.072576
0.002892 -0.104643 0.017760
0.040313 0.014869 -0.022194
0.029356 0.085868 0.081908
-0.046322 0.003485 -0.019951
-0.054440 -0.060774 -0.029056
0.035632 -0.023217 0.016098
-0.033422 -0.044547 0.010870
-0.054147 -0.019155 -0.019543
0.007016 0.008226 -0.027818
0.047596 0.030622 -0.016422
-0.052140 -0.046689 -0.017272
-0.027275 -0.003160 -0.029300
-0.012109 0.012295 0.054183
0.026808 -0.065734 0.012752
-0.033516 0.032933 0.062792
-0.025838 0.014158 -0.026789
-0.049000 0.080711 0.052391
-0.044079 0.035853 -0.030738
-0.046012 -0.124512 -0.040112
-0.002925 0.100270 0.083640
-0.044086 0.048834 0.061626
-0.034104 -0.043979 -0.075469
0.044927 -0.046476 -0.002036
-0.039286 0.030477 -0.031968
0.041961 -0.124512 -0.001664
0.031278 -0.047565 -0.079321
0.009898 -0.009705 -0.035718
-0.023412 -0.029741 -0.066416
-0.019596 -0.051538 0.017705
0.041998 0.066853 0.074984
-0.023798 0.111543 0.061861
-0.031220 0.050733 0.079886
0.026590 -0.083046 0.011749
0.006422 0.021536 0.067241
-0.045882 0.065252 0.070574
-0.006361 -0.012041 -0.038959
-0.030227 -0.028553 -0.059422
0.047855 -0.038619 -0.055456
0.010562 -0.030529 0.026068
-0.013420 0.019399 0.062077
0.016477 0.039108 0.081267
-0.054683 0.043239 0.012413
-0.046972 -0.012814 -0.027272
-0.010679 -0.045471 -0.087057
-0.021527 -0.101948 0.013508
0.033758 -0.026708 0.016241
-0.020996 0.012398 0.050044
0.052803 0.034488 0.000186
-0.033710 0.026491 0.053567
0.044445 0.068109 0.072492
-0.004619 -0.038348 -0.083301
0.046106 0.068460 0.070553
-0.026021 -0.074981 0.012505
0.007326 -0.029693 0.026979
-0.048778 0.020576 0.022214
-0.037965 0.054037 0.075996
0.049148 0.020029 -0.011013
0.042464 0.051009 0.070208
0.030456 0.108021 0.058193
0.045712 0.037721 -0.029144
0.001839 0.014389 -0.034480
0.039861 0.003624 0.026032
0.015617 -0.065627 0.017624
-0.002070 -0.089745 0.018219
-0.034454 -0.084481 0.006348
0.035616 -0.018442 0.018262
0.018091 -0.057789 -0.089146
-0.054266 -0.030932 -0.028833
0.052307 -0.028994 -0.033076
0.000260 -0.124512 -0.092197
0.003256 -0.068764 0.019563
0.053803 0.051567 -0.005988
0.025425 -0.019563 -0.045181
-0.052044 -0.001041 -0.013943
0.030151 0.083119 0.082274
-0.053251 0.048463 0.024675
-0.048494 -0.037699 -0.053257
-0.006389 -0.044084 -0.087149
-0.047003 -0.089811 -0.065741
-0.045144 -0.036308 0.000323
-0.005906 -0.000516 0.043851
0.021233 0.094914 0.082235
-0.048687 0.012762 0.017916
-0.014570 0.025016 0.069546
0.039702 0.107450 0.027258
0.024652 0.118685 0.026669
-0.003704 -0.044303 -0.087588
0.037750 0.100260 0.060054
-0.025337 0.081207 0.085310
0.001422 -0.052665 -0.091182
0.025777 0.114948 0.042816
0.040666 -0.021970 -0.039869
-0.006705 0.081596 0.090594
0.054140 0.055445 -0.009479
-0.034091 -0.021070 -0.042773
-0.053914 -0.107582 -0.026362
0.018406 0.058835 0.088319
0.015541 0.063748 0.089883
-0.021203 0.048808 0.084380
0.037121 -0.031144 -0.057954
-0.033322 0.007169 -0.025544
0.006731 0.056147 0.090324
0.054178 -0.019626 -0.019882
0.043498 -0.100731 -0.070884
-0.007589 0.027742 0.074621
0.052630 -0.043018 -0.049820
-0.010378 0.026008 0.072217
-0.014990 0.086927 0.087630
-0.047870 -0.044985 -0.006637
0.006199 -0.027698 -0.069273
-0.044499 0.088548 0.061397
-0.020442 -0.029027 -0.066819
0.054940 0.062253 0.021228
0.033469 0.043065 0.074420
-0.051342 -0.012279 -0.000675
0.019293 -0.083551 0.015093
0.021948 0.011201 -0.027050
-0.051305 -0.048347 -0.015124
-0.041996 -0.022157 -0.039125
-0.000072 -0.029255 0.027831
0.039831 -0.043423 -0.070274
0.013222 0.012710 -0.028748
-0.001884 0.010913 0.054786
-0.005205 -0.004467 -0.031572
0.053225 0.028755 0.002168
-0.054835 -0.085575 -0.041380
-0.035608 0.079878 0.079353
-0.002631 -0.046467 0.022523
-0.054794 0.060022 0.006063
0.012099 0.044331 0.085328
-0.054311 -0.104360 -0.028521
-0.052836 -0.045256 -0.019398
0.047503 -0.089336 -0.009054
0.002330 -0.003785 -0.031205
-0.054284 -0.111071 -0.028419
-0.011139 0.079992 0.090224
0.022526 0.026601 0.066513
0.005074 0.118230 0.059123
-0.022803 -0.065335 -0.087254
-0.024498 0.019023 -0.030640
0.037744 -0.055029 -0.077106
0.006731 0.080111 0.090882
-0.049192 -0.025313 -0.034975
-0.011013 -0.102803 -0.091081
-0.007828 -0.034879 0.025039
0.026714 0.086952 0.083025
-0.023249 0.119340 0.026654
0.020551 -0.030520 -0.069207
-0.006652 0.013328 -0.030731
-0.042114 0.049842 0.069822
-0.006095 0.115677 0.069465
0.000013 0.018990 -0.036695
0.005022 0.047803 0.087927
0.043082 0.003621 -0.022402
-0.038608 0.095445 0.069645
0.012836 0.010104 -0.027786
0.042262 0.089014 0.069640
-0.043567 0.034639 -0.029187
-0.054025 -0.035457 -0.021303
0.048233 -0.038616 -0.005534
-0.042811 0.019550 0.032697
-0.054467 0.058600 0.022880
-0.002009 0.016845 0.061562
-0.007416 -0.108892 0.017301
0.052777 -0.023749 -0.026988
-0.041836 -0.025383 -0.043269
-0.042823 0.086947 0.070318
0.013686 0.122683 0.027706
-0.054049 -0.033254 -0.032140
-0.000011 -0.043927 0.023203
0.006770 0.007400 0.050615
-0.011320 0.011500 -0.028372
0.049574 -0.052289 -0.061059
-0.018582 0.086311 0.086714
-0.036794 0.082598 0.077728
0.033177 -0.041968 -0.074748
-0.021676 -0.013319 -0.037775
-0.044252 0.011165 0.024666
0.039717 -0.067637 0.002315
0.016340 -0.022699 -0.056606
-0.011480 0.006897 -0.027653
-0.019596 0.024265 0.065310
0.012682 -0.013027 -0.039466
-0.051369 -0.007813 -0.018857
-0.020406 0.111340 0.069544
-0.054549 -0.099078 -0.030146
0.040659 0.096395 0.059830
0.023236 0.073706 0.087384
-0.020406 0.111340 0.069544
-0.017453 0.010481 0.050121
0.045550 0.077379 0.070418
-0.021623 -0.045576 0.017929
-0.017220 0.112488 0.070163
-0.027599 -0.069936 0.011926
-0.015217 -0.035376 -0.077688
0.000026 -0.004962 0.041050
-0.003626 -0.054972 -0.091630
-0.018379 0.071055 0.089301
0.003976 -0.041640 -0.085911
-0.037734 0.027687 -0.028833
-0.013178 0.000579 -0.028861
-0.047207 0.032895 0.034040
-0.045972 -0.111248 -0.007032
-0.054539 -0.020009 -0.018694
-0.039345 -0.032629 -0.058151
0.049449 0.001137 -0.017371
-0.005467 0.124210 0.027225
-0.004644 0.115510 0.070267
0.040040 -0.051204 -0.073964
0.010985 0.123310 0.027693
0.002423 -0.021781 -0.058965
-0.012511 0.020462 0.063862
-0.012103 -0.022488 0.029081
-0.033384 0.003095 0.032628
-0.024523 0.072806 0.086868
0.010543 -0.018557 -0.050327
-0.051816 0.050430 0.032038
0.029855 0.033707 0.069762
0.025840 0.010755 0.045153
-0.049906 0.039122 -0.017123
0.006422 0.021536 0.067241
0.031440 -0.005149 0.028973
0.046983 -0.048333 -0.064204
-0.000480 0.004226 -0.028076
0.027460 0.106330 0.070773
0.045164 -0.036338 0.000311
-0.053723 -0.042439 -0.045767
-0.011161 -0.005267 -0.031839
0.035442 -0.032215 -0.061584
0.002261 0.048143 0.088241
0.048122 -0.041013 -0.057488
-0.034392 0.049666 0.077182
-0.050874 -0.084285 -0.058071
-0.042811 0.019550 0.032697
-0.049156 -0.110996 -0.061847
0.025844 -0.023008 -0.051331
-0.047678 0.070116 0.064498
0.052973 0.018129 0.011457
0.020551 0.004457 0.043079
0.019418 -0.112681 0.014259
-0.000738 0.084116 0.090397
-0.053201 0.037211 0.001802
-0.025653 0.108343 0.069510
0.024949 -0.024778 0.023009
-0.014895 0.029623 0.074498
-0.016423 -0.040825 0.021124
0.053280 0.054542 -0.024686
-0.024208 0.027898 0.066968
0.001777 0.013894 0.058058
-0.046255 -0.104973 -0.066936
0.004331 -0.056777 -0.091926
-0.049624 -0.035267 -0.047912
-0.048134 0.033824 0.032376
-0.038277 -0.013668 -0.033257
-0.052232 0.035813 -0.002918
-0.039180 0.027256 0.045753
-0.021407 -0.019344 -0.046909
-0.004837 0.007145 -0.027781
0.018567 -0.056733 -0.088855
-0.052345 0.028313 -0.001246
0.053065 0.055945 0.029498
0.045678 0.060350 0.069514
-0.020375 -0.038933 -0.078936
-0.040045 -0.040322 -0.067500
-0.045231 0.062001 0.070870
-0.004110 -0.017481 -0.049798
-0.050542 0.063827 0.048270
0.006654 0.010778 -0.028572
-0.048105 -0.057492 -0.009091
-0.050548 -0.035230 -0.045924
-0.051495 0.033655 0.023087
0.033498 0.024876 -0.030724
-0.042182 0.009767 0.026853
-0.051231 -0.029836 -0.036417
0.037993 0.051284 0.074928
0.004809 0.034883 0.080996
-0.014063 0.035105 0.079312
-0.008206 -0.015303 0.033596
0.026712 0.077716 0.085305
-0.044337 0.082142 0.070534
-0.041532 -0.053500 0.001248
0.005912 -0.088335 0.018008
-0.044104 0.026273 -0.020352
0.016018 -0.019452 -0.049833
-0.054839 0.031677 0.012151
0.047868 -0.045060 -0.061043
0.054861 -0.124512 -0.033023
-0.035005 0.057000 0.079306
-0.048553 -0.034913 -0.049302
0.011590 0.005375 0.047576
-0.053128 0.053880 -0.024241
0.002688 0.013960 -0.032757
0.045640 -0.053008 -0.067757
0.040558 -0.023995 -0.042448
0.015366 -0.112443 0.015616
-0.022965 -0.111200 0.012770
-0.050071 -0.038753 -0.051681
-0.014285 -0.103842 -0.090306
-0.054089 -0.097969 -0.027161
0.007605 -0.022223 -0.059016
-0.024585 -0.037910 -0.076091
0.007527 -0.124512 -0.091700
0.011719 -0.030797 -0.073005
-0.044434 -0.005533 -0.025015
0.009692 0.064375 0.091207
-0.054816 -0.112711 -0.041592
0.006922 -0.103814 0.017421
-0.054834 -0.077546 -0.041388
-0.000879 0.011649 -0.029666
0.026714 0.072322 0.085871
-0.013432 -0.033806 -0.076515
0.022791 -0.093847 0.013189
0.054475 -0.110947 -0.044918
-0.044341 -0.097957 -0.069720
-0.000779 0.021417 0.067740
0.046030 -0.044035 -0.063194
0.042869 -0.053733 -0.000421
0.022921 -0.046898 -0.083280
0.053842 -0.122148 -0.025917
0.048914 0.026603 0.025621
0.036205 -0.109986 -0.078614
-0.029328 0.093786 0.078550
-0.045313 0.037078 0.042764
0.040748 -0.022410 0.011256
0.019962 -0.034112 -0.074328
-0.005817 0.067808 0.091914
-0.042775 -0.032890 0.004699
0.026560 -0.034596 -0.071641
0.043414 0.022673 -0.020008
0.050634 -0.035659 -0.009692
0.040251 0.092746 0.069826
-0.033806 0.023740 -0.028272
0.035309 0.099447 0.070204
0.053133 0.003297 -0.008872
0.005074 0.118230 0.059123
0.049178 -0.028804 -0.003847
-0.029843 0.031504 0.066087
0.011410 -0.124512 -0.091006
-0.049624 -0.035267 -0.047912
-0.022335 -0.056055 0.015947
0.033700 0.004378 -0.025903
-0.010102 0.013304 -0.029890
0.034427 0.067096 0.081307
-0.022057 0.119874 -0.036695
-0.019162 -0.016270 -0.042620
0.038662 -0.124512 -0.076332
-0.047212 -0.034799 -0.051335
0.002992 -0.092046 0.018081
-0.051422 0.067271 0.044914
0.003563 -0.015149 -0.044644
0.047890 0.008087 0.016827
-0.022875 0.109693 0.070284
0.017695 0.085634 0.087233
0.042392 0.014220 -0.020758
-0.006784 -0.053262 0.020887
-0.038901 -0.102529 0.001792
-0.031695 -0.045330 -0.077843
-0.054358 0.031905 0.008226
-0.044542 0.037067 -0.033753
0.038662 -0.124512 -0.076332
0.008382 0.119478 0.051191
0.022090 0.028568 0.070021
-0.030831 -0.040553 0.013813
0.047576 0.047898 0.047445
-0.053527 0.056421 -0.028069
0.048617 0.030588 -0.013771
-0.014590 0.052147 0.087768
0.046356 -0.025604 -0.039016
-0.050658 -0.081449 -0.015292
0.045519 0.087176 0.059519
0.022285 -0.026841 -0.061781
-0.019801 0.100113 0.079839
-0.041532 -0.053500 0.001248
-0.031618 -0.004745 0.029056
-0.034680 -0.033335 -0.064141
0.052999 -0.110553 -0.051970
-0.018030 -0.031236 -0.071386
0.051268 0.041411 -0.013341
0.011719 -0.030797 -0.073005
-0.036911 -0.004916 -0.028118
0.047868 -0.045060 -0.061043
0.049505 0.033797 -0.013186
0.002330 -0.003785 -0.031205
-0.021204 0.065353 0.088181
0.047663 -0.027612 -0.039818
-0.048918 -0.022232 -0.000550
0.024010 -0.105942 0.012336
0.042379 0.103487 0.030681
0.054902 -0.021101 -0.016760
0.039358 0.030430 0.048984
-0.014899 0.016284 -0.033841
0.040255 -0.025652 -0.045062
-0.050276 0.046650 -0.030200
0.029668 -0.000251 -0.027849
0.042333 0.016735 -0.020587
-0.028495 -0.095343 -0.084234
-0.051176 0.045388 0.031197
-0.048533 -0.036387 -0.051484
0.001516 0.034609 0.081013
-0.052657 0.050760 -0.021162
-0.041885 0.097030 0.053211
-0.033159 0.062649 0.081734
-0.014899 0.016284 -0.033841
-0.048825 0.012429 -0.013668
-0.045868 0.099678 0.026731
-0.051176 0.045388 0.031197
0.035309 0.099447 0.070204
0.039151 -0.045963 -0.072555
-0.038477 -0.000390 -0.025783
0.051093 -0.057294 -0.015667
-0.037743 -0.037342 -0.066759
-0.005654 -0.046068 0.022312
0.009734 0.031046 0.077227
0.014973 0.005756 -0.027676
-0.000964 0.117393 0.063920
-0.035877 -0.112619 0.004457
0.049283 -0.076353 -0.012047
0.049630 -0.043163 -0.056640
-0.021628 0.018071 -0.031659
-0.052649 0.053579 -0.036695
0.003739 -0.062967 0.020089
0.006128 -0.033943 -0.078598
0.018568 0.024472 0.066323
-0.007653 0.084551 0.089788
0.013565 0.039935 0.082637
0.030650 0.045152 0.077682
0.024365 0.001956 -0.027837
0.010992 0.024510 0.070344
-0.054127 0.078774 0.024307
0.032377 -0.051723 -0.080382
-0.051102 0.075428 0.045931
-0.013646 -0.004615 -0.031271
-0.010872 0.043304 0.085098
-0.006701 0.060592 0.091170
-0.050445 0.070889 0.050844
-0.033806 0.023740 -0.028272
-0.016095 0.102793 0.079444
0.015901 0.019504 0.061075
-0.009665 0.109776 0.075588
-0.008296 0.008726 -0.027829
-0.016949 0.076148 0.089378
-0.001265 0.067480 0.092174
0.002036 0.039598 0.084188
0.044563 -0.016507 -0.032037
-0.053071 -0.031039 -0.015000
-0.047717 0.011576 -0.015647
-0.040123 -0.055817 -0.074806
-0.011769 0.054946 0.089231
-0.047006 -0.007564 -0.024096
0.043848 -0.091502 -0.003594
-0.009640 0.024473 0.070658
0.007326 -0.029693 0.026979
0.046949 -0.039873 -0.003606
-0.054573 -0.083583 -0.030295
0.045124 -0.050415 -0.067726
-0.018639 -0.004798 -0.031006
-0.036795 0.066003 0.079451
0.033811 -0.014944 -0.035957
-0.001262 0.051607 0.089478
0.041160 0.090160 0.070646
-0.049400 0.005782 -0.015394
-0.045103 0.025995 -0.018756
0.047365 -0.042342 -0.059873
-0.003282 0.115401 0.070639
0.030789 -0.036807 0.014929
0.054706 0.075386 -0.036695
0.022526 0.026601 0.066513
0.037491 -0.039587 -0.069402
0.010546 -0.063423 0.019119
0.009696 0.078563 0.090728
0.000013 0.018990 -0.036695
-0.021205 0.102176 0.077817
-0.046543 0.067537 0.069393
0.025303 0.019450 -0.030640
-0.022597 0.093405 0.082370
-0.037762 -0.055327 0.005187
0.007087 0.105756 0.079475
0.030482 0.027152 0.058805
-0.001651 0.014315 -0.034070
-0.044111 -0.022402 -0.037664
0.050999 -0.111314 -0.016572
-0.019447 -0.089931 0.014708
0.020177 -0.048011 -0.085084
-0.019679 -0.035642 -0.076154
-0.048856 -0.044646 -0.059035
-0.035482 0.107166 0.045061
0.051370 -0.015742 -0.023741
-0.053644 -0.013616 -0.017357
-0.027174 -0.034081 0.018162
0.003958 -0.002383 -0.030382
-0.011484 0.014514 -0.031159
-0.035002 0.085612 0.078179
-0.045981 -0.053106 -0.067256
0.045681 0.090382 0.052800
-0.052769 0.066208 0.036508
0.040176 0.035646 0.053804
0.054156 -0.039340 -0.040518
-0.041877 -0.093645 -0.001226
-0.017427 -0.091389 0.015367
0.013503 0.066268 0.090595
-0.054433 0.077348 0.023060
-0.025935 0.024104 0.059744
0.000305 -0.028012 -0.070241
0.040518 -0.013685 -0.032280
-0.000180 -0.035067 0.025738
0.014092 0.108631 0.075431
0.001464 0.013135 -0.031283
-0.005744 0.012084 -0.029531
-0.026901 -0.017807 -0.041744
-0.046169 -0.009364 0.010251
0.031369 -0.014084 0.023963
-0.035557 -0.026431 0.014799
0.049078 0.037497 0.032594
0.054005 -0.000972 -0.008530
-0.011088 0.039096 0.082742
0.055006 0.068491 -0.031697
-0.022554 -0.030971 -0.068873
0.050167 -0.025864 -0.034068
-0.025286 0.030410 0.069888
0.048600 -0.014962 -0.027082
-0.051789 0.049550 -0.025578
0.043258 0.035363 -0.034058
0.029938 -0.025071 -0.052504
0.000279 -0.051837 0.021598
0.025747 -0.010743 0.029630
0.012129 0.020136 0.063576
-0.042023 0.004852 0.023975
0.029418 -0.021668 -0.046430
0.052233 0.045196 0.027176
0.038026 0.037636 0.061510
-0.014705 0.122506 -0.036695
0.044058 -0.048838 -0.068541
0.034301 -0.101753 -0.080205
-0.016150 0.120929 0.033779
0.002717 -0.035902 -0.081180
-0.051221 0.014327 -0.008087
-0.005633 0.012722 -0.030172
0.014999 0.017309 0.058743
0.019392 -0.024347 -0.058421
0.030921 -0.014621 -0.036534
0.027007 -0.104720 0.010802
-0.050236 -0.028937 -0.006213
-0.019173 0.017886 -0.035236
-0.013925 -0.039160 -0.081813
-0.032913 -0.046864 0.010783
0.041241 -0.032806 -0.056267
-0.027122 0.009567 0.043080
-0.041414 0.090677 0.069675
0.028297 0.108157 0.063646
-0.016041 0.105425 0.077489
0.022330 -0.050196 -0.085164
0.041809 -0.102504 -0.072951
-0.002732 -0.018399 0.032623
0.038499 0.013923 -0.023260
-0.054978 -0.073082 -0.035799
0.034992 -0.018911 -0.039629
0.053406 -0.034754 -0.017936
-0.050525 0.028217 -0.007338
0.018568 0.024472 0.066323
-0.031172 -0.093737 0.008444
-0.032757 -0.124512 -0.081394
0.048431 0.037189 -0.020205
-0.044421 0.082619 0.070176
-0.000828 0.012399 -0.030391
0.025840 0.010755 0.045153
-0.024110 -0.001670 0.036375
0.031092 0.024065 -0.035275
-0.046265 0.074123 0.069739
-0.036722 0.014711 -0.024074
-0.040831 0.032639 -0.036695
0.044750 -0.124512 -0.005238
-0.044632 -0.058019 -0.003355
-0.035351 0.025984 0.050533
0.035724 -0.030799 0.012987
-0.046924 0.026264 -0.015719
0.035278 0.023977 -0.027228
-0.011192 0.022747 0.067614
-0.009726 -0.021288 -0.056482
-0.051301 -0.040195 -0.050634
-0.044815 0.037603 -0.036695
0.047535 -0.102528 -0.064890
0.006729 0.052503 0.089365
-0.003940 -0.015398 -0.045137
0.052255 -0.014307 -0.021153
0.047372 0.025927 0.028645
0.029047 -0.113547 0.009493
0.035746 0.009236 -0.024664
-0.040686 0.046753 0.069476
-0.052222 -0.026080 -0.009921
-0.043314 -0.114202 -0.003360
0.054902 -0.021101 -0.016760
0.006106 -0.006291 0.039573
-0.006201 -0.093170 0.017785
-0.034276 0.017035 0.042773
-0.004673 -0.026835 0.028481
0.031786 0.016050 0.044685
-0.014273 0.019497 -0.036695
0.011164 0.042336 0.084536
0.040197 0.084974 0.073979
-0.039107 0.059327 0.076534
0.019342 0.027209 0.070040
-0.006637 0.121525 0.042134
0.021278 0.016878 -0.029808
-0.042839 -0.015697 -0.032570
-0.002091 -0.018276 -0.051817
-0.030458 0.023501 -0.033743
-0.046924 0.026264 -0.015719
0.054253 0.023893 0.005206
-0.037802 -0.051458 0.005642
-0.025314 -0.023045 -0.051758
0.017406 0.014651 -0.029150
0.006760 -0.021894 0.030424
-0.043567 0.034639 -0.029187
0.046335 0.073791 0.069702
0.041705 0.010410 -0.021759
-0.034282 -0.083687 -0.080199
0.019470 -0.006328 -0.031875
0.040258 0.071821 0.076637
0.029435 -0.046496 -0.079821
-0.034817 0.019855 0.044770
-0.054087 0.072678 0.028708
0.017837 0.108139 0.074489
-0.006637 0.121525 0.042134
-0.013537 0.031588 0.076698
-0.002187 -0.002110 -0.030268
-0.040848 0.052421 0.072682
0.031363 -0.009431 0.026514
0.043806 0.014647 -0.019460
-0.025082 0.017670 -0.028510
0.018389 0.013668 -0.028214
-0.028432 -0.015883 -0.038693
0.054138 -0.057893 -0.046980
-0.044087 0.056723 0.070800
0.052803 0.034488 0.000186
-0.046743 -0.047264 -0.005158
-0.027027 -0.050250 0.014207
0.031045 -0.040739 0.013619
0.006677 -0.042196 0.023093
0.004497 0.104659 0.080615
-0.049093 -0.102046 -0.061978
0.015016 0.042037 0.083410
0.014924 -0.000479 0.041622
0.043587 0.084857 0.070435
0.048129 0.017855 -0.013308
-0.050867 -0.053622 -0.014787
0.035528 -0.006343 0.024681
-0.042017 -0.036641 -0.061110
-0.034347 0.100527 0.070192
-0.030627 0.084380 0.081598
0.049184 0.028401 -0.011290
0.050673 0.073143 0.049335
-0.011923 0.008290 -0.027619
0.034625 -0.050991 0.008661
-0.041832 -0.084960 -0.072887
-0.046318 0.047760 0.051974
0.002261 0.048143 0.088241
0.050335 -0.083401 -0.014514
0.000171 -0.034408 -0.079660
-0.042788 -0.047708 -0.069567
0.028749 0.070409 0.084883
-0.024100 0.004002 -0.027411
0.048694 -0.037303 -0.052485
-0.004978 0.096240 0.085686
0.051588 0.031088 -0.004336
-0.009668 0.097637 0.084301
-0.052140 -0.046689 -0.017272
-0.008206 -0.015303 0.033596
0.003693 0.012417 0.056231
-0.054057 -0.081267 -0.047291
-0.026629 0.021352 -0.036695
0.046527 0.069812 0.069707
0.046030 -0.044035 -0.063194
0.006339 0.014785 -0.035200
0.029418 -0.021668 -0.046430
-0.030053 -0.113097 -0.083254
0.037580 0.020035 -0.024131
-0.004397 -0.124512 -0.092055
0.047209 0.013470 0.021128
0.048073 -0.022708 -0.033941
-0.003082 0.086766 0.089600
0.025524 0.108527 0.069240
-0.043264 0.043902 0.057150
0.031548 0.102980 0.070685
0.047230 -0.029628 -0.043183
-0.041576 0.022679 -0.021875
0.008833 -0.037352 -0.081709
-0.037802 -0.051458 0.005642
-0.053078 -0.047714 -0.051255
-0.052792 -0.017408 -0.022044
-0.044553 -0.013790 -0.029932
0.013146 -0.018724 -0.049627
-0.002187 -0.007871 -0.034298
-0.050433 0.045085 -0.024128
-0.005467 0.013702 -0.031617
0.005240 0.045365 0.086897
-0.000853 0.005610 -0.027841
0.021215 0.119009 0.033990
0.050627 -0.068972 -0.014836
0.039350 0.030942 -0.034638
-0.042312 -0.068863 -0.072325
0.054591 -0.031737 -0.028243
-0.028599 0.001543 -0.027465
-0.053036 0.000586 0.002261
-0.049123 -0.088404 -0.061920
0.043665 -0.047019 -0.068195
0.004981 -0.045997 0.022410
-0.005386 -0.039067 0.024111
-0.035644 0.098587 0.070653
0.051810 -0.040291 -0.014411
-0.042927 0.073027 0.073956
-0.016954 0.080460 0.088714
-0.046458 0.057426 0.063247
0.036453 0.013431 0.037084
-0.029697 -0.001957 -0.028453
-0.038558 0.103667 0.046185
-0.022789 -0.073083 -0.087263
0.049120 0.032302 0.028803
-0.016592 0.017013 -0.035647
0.016815 -0.046133 0.019741
-0.047145 -0.050915 -0.064903
0.041295 0.016208 -0.021448
-0.042296 -0.018773 -0.035507
0.030664 0.058603 0.082630
-0.049138 0.044709 -0.034172
-0.026194 0.052111 0.083310
-0.050140 -0.043626 -0.055950
-0.010106 -0.037417 -0.081456
0.009943 -0.046332 0.021571
-0.039677 -0.027653 -0.048801
0.047622 -0.053525 -0.064750
-0.027692 0.019885 -0.029016
-0.053914 -0.107582 -0.026362
0.017604 0.036784 0.079341
-0.026119 0.005041 -0.027027
0.014224 0.011300 -0.027954
0.040402 0.052373 0.073142
-0.030053 -0.113097 -0.083254
0.028225 0.116692 0.027116
0.036041 -0.024377 -0.046481
0.025166 0.014153 -0.026928
0.051867 -0.038010 -0.046869
0.010988 -0.037010 -0.080832
0.013503 0.066268 0.090595
0.042423 0.063701 0.074239
-0.031695 -0.045330 -0.077843
-0.024154 -0.036481 -0.074930
0.002805 0.077723 0.091587
0.054344 0.060462 -0.025765
-0.049477 0.089427 0.035776
-0.051781 -0.110392 -0.018692
0.007089 0.014931 -0.036695
0.054737 -0.110384 -0.031659
-0.031291 -0.003990 -0.029032
0.054737 -0.110384 -0.031659
0.031798 -0.036660 -0.070894
-0.051470 -0.028094 -0.033935
-0.052530 0.047649 -0.014682
0.053560 -0.015497 -0.018876
-0.037943 -0.040014 0.007947
-0.029485 -0.000478 0.033525
-0.045867 -0.035386 -0.054214
-0.022833 0.068551 0.087694
0.051667 -0.033798 -0.040835
-0.046457 -0.022788 0.003452
-0.045882 0.065252 0.070574
-0.047147 -0.114248 -0.008938
0.037910 -0.035753 -0.064592
0.026337 -0.039491 0.017003
0.024560 0.108979 0.069723
0.051268 0.041411 -0.013341
-0.013400 0.122749 0.027730
0.040342 0.010121 -0.022624
0.028609 -0.040464 -0.076243
-0.010025 -0.011913 -0.038369
-0.046407 0.072459 0.069706
0.017179 -0.093795 0.015379
-0.041496 -0.060160 -0.073282
-0.049123 -0.088404 -0.061920
0.051152 -0.031335 -0.038558
-0.039526 0.098392 0.058743
0.044235 0.035301 0.043775
-0.045859 -0.051777 -0.067081
-0.054978 0.068185 -0.023968
-0.013400 0.122749 0.027730
0.043773 0.012211 -0.019911
-0.050282 0.026567 -0.007867
0.016546 0.011247 -0.027664
0.001979 -0.103881 -0.092164
-0.016358 -0.002589 -0.030005
0.054005 -0.000972 -0.008530
0.023775 0.018974 0.055269
-0.010957 -0.124512 -0.091117
-0.020624 0.010599 -0.027147
0.001389 0.006981 -0.027804
0.045837 0.022864 -0.016821
-0.019797 0.036691 0.078369
0.043143 0.009666 -0.020903
0.005845 0.087741 0.089077
-0.053114 -0.124512 -0.022925
0.006486 0.019156 0.063943
-0.009667 0.092235 0.086888
-0.031360 -0.020795 -0.043901
0.037644 -0.011863 0.019592
-0.019826 -0.056766 -0.088389
0.038618 -0.012108 -0.031924
0.016115 0.103620 0.078855
-0.035282 0.027196 -0.034628
-0.032874 0.102436 0.069552
0.034539 0.012104 0.038226
0.030121 -0.053825 -0.082488
0.031181 0.114818 0.026572
0.054940 0.070501 0.022951
-0.048057 -0.030965 -0.002633
-0.035568 -0.047230 -0.076223
0.033186 0.082092 0.080587
-0.043886 -0.026539 0.005622
-0.028470 0.015650 -0.026472
-0.043251 -0.024347 -0.040642
-0.013178 0.000579 -0.028861
0.036563 -0.004702 -0.028136
0.051268 0.041411 -0.013341
-0.015257 0.067036 0.090198
0.011403 -0.057916 -0.091008
-0.052869 -0.035233 -0.039292
0.025528 0.020601 -0.034233
0.002840 0.025280 0.072667
-0.046012 -0.124512 -0.040112
-0.046633 0.024288 0.029016
0.031650 -0.100067 -0.082192
0.007940 -0.034910 0.025012
0.045450 0.060455 0.070167
-0.025653 0.108343 0.069510
0.010546 -0.063423 0.019119
0.043878 0.096601 0.045975
-0.043025 -0.057247 -0.001056
0.050486 0.087597 0.034041
0.044051 0.101692 0.029159
-0.046574 0.028859 0.032427
-0.050233 0.091827 0.025531
-0.045859 -0.051777 -0.067081
0.035224 -0.047683 -0.076724
0.017590 -0.026379 0.025677
0.046207 0.039508 0.042846
0.033277 0.101988 0.069692
-0.040123 -0.055817 -0.074806
0.047245 0.067810 0.066409
-0.033944 0.004355 -0.025845
0.041549 -0.073056 -0.000037
-0.026018 0.117963 -0.036695
0.001681 0.120735 0.048310
-0.043600 -0.010604 -0.028387
0.046357 -0.014227 -0.028817
0.046448 0.067008 0.069744
0.047540 0.085687 0.052796
0.037961 0.096492 0.069454
0.054624 -0.055755 -0.030300
0.047188 0.038401 0.038898
-0.040988 -0.057409 0.001487
0.015539 0.106157 0.077077
0.020975 -0.022655 0.025934
-0.005811 -0.067680 0.019442
-0.015202 -0.063573 0.017931
-0.046322 0.003485 -0.019951
-0.001262 0.051607 0.089478
0.016121 0.090755 0.085958
-0.032640 -0.072717 -0.081455
-0.002872 0.120568 0.048887
-0.048298 -0.038964 -0.055069
-0.029741 0.020776 -0.028348
-0.044953 0.095551 0.043801
-0.015514 -0.026647 -0.064859
-0.014065 0.084922 0.088457
0.000912 -0.031847 -0.076355
-0.045924 0.064285 0.070350
-0.053036 0.000586 0.002261
-0.037935 -0.039277 -0.068647
-0.020936 0.113056 0.061822
0.054393 0.061189 -0.036695
0.054737 -0.110384 -0.031659
0.054932 -0.037564 -0.032110
0.016977 0.046935 0.085156
0.053510 0.056064 -0.027012
-0.035205 0.019312 -0.025126
-0.027122 0.009567 0.043080
0.032689 0.105903 0.058994
0.032466 0.048850 0.078265
0.015035 0.098396 0.082603
0.013565 0.039935 0.082637
0.028389 0.032629 0.069930
-0.052222 -0.026080 -0.009921
0.025916 0.107791 0.070315
-0.041041 0.013280 0.030869
0.052175 0.044325 -0.011487
0.013462 -0.039025 -0.081876
0.023178 0.100219 0.078237
0.046312 0.037860 -0.027075
-0.051079 -0.124512 -0.016799
-0.042017 -0.036641 -0.061110
-0.020729 0.017955 -0.032375
0.008112 -0.019647 -0.053556
-0.025337 0.084529 0.084465
-0.041896 0.083219 0.072878
0.003732 0.123302 0.033797
-0.054613 -0.041964 -0.028651
-0.004037 -0.051376 -0.090640
-0.028799 0.105635 0.070341
0.001313 0.115376 0.070811
-0.002701 0.000840 0.045353
0.016643 0.114443 0.063738
0.036234 0.010480 0.035041
0.042129 0.030492 0.043530
-0.045186 0.060270 0.070507
0.054909 -0.025591 -0.021357
0.023088 0.031451 0.072461
-0.052345 0.028313 -0.001246
-0.025719 -0.086135 -0.085814
-0.044837 -0.039290 -0.060643
-0.031396 0.021318 0.050491
0.048404 -0.088903 -0.010656
-0.040683 0.008905 0.028350
0.025148 -0.112704 -0.086124
0.044899 0.057003 0.069449
-0.009328 0.013592 -0.030428
0.006199 -0.027698 -0.069273
0.043422 -0.066223 -0.002047
-0.049155 0.043983 -0.029232
-0.032550 0.021896 -0.027388
0.049230 -0.048062 -0.060319
0.031733 0.000221 0.032180
0.004384 0.108573 0.077525
0.049566 0.016656 -0.010945
0.003583 0.012805 -0.030621
-0.051210 -0.038402 -0.048881
0.002197 0.119077 0.056250
-0.052232 0.035813 -0.002918
0.029496 0.114559 0.033871
-0.053841 0.056882 -0.023137
-0.022803 -0.065335 -0.087254
0.054277 0.060435 -0.031774
-0.053128 0.053880 -0.024241
-0.022124 -0.099319 -0.087549
0.051421 0.062273 0.042629
0.043176 0.024425 -0.020805
-0.045073 0.054550 0.065746
0.020512 0.017726 -0.031991
-0.009665 0.082242 0.090037
0.049491 -0.035185 -0.006920
-0.046333 0.093063 0.043623
-0.036737 -0.003546 0.025093
0.002247 0.041918 0.085452
-0.046743 -0.047264 -0.005158
0.040523 -0.027192 -0.047235
-0.009726 -0.021288 -0.056482
-0.000702 -0.020496 -0.056515
-0.030227 -0.028553 -0.059422
0.033895 0.022335 -0.026903
0.041200 -0.102212 -0.000615
-0.040988 -0.057409 0.001487
-0.025338 0.075785 0.086223
-0.001911 0.014514 -0.036695
-0.053238 -0.044744 -0.049163
0.042329 0.052173 0.071039
-0.050636 0.073142 0.049388
-0.016278 -0.010555 -0.035790
-0.003202 -0.022718 0.030448
0.052569 0.078231 0.035444
-0.041501 0.089131 0.070794
-0.017651 -0.054454 0.018053
-0.024665 0.049002 0.082927
0.041963 -0.039896 -0.064976
0.018413 -0.051733 -0.087398
0.040723 0.020149 -0.022081
0.048122 -0.041013 -0.057488
0.020678 -0.100640 -0.088172
-0.052837 -0.027485 -0.030159
0.046353 0.004257 -0.019683
0.007007 -0.048207 -0.089114
0.050077 -0.049315 -0.059241
-0.049379 -0.111429 -0.013008
-0.038684 -0.005375 0.021991
0.029174 0.008482 0.040494
0.037210 -0.027997 -0.051863
-0.019325 0.014452 -0.028405
0.053233 0.083326 0.024506
-0.036328 -0.009715 0.022009
-0.048666 -0.088905 -0.011198
0.043422 -0.066223 -0.002047
-0.028616 0.033371 0.070583
-0.036865 -0.021918 -0.042277
0.053128 0.053390 -0.023194
0.033931 0.005641 0.033921
0.022835 -0.011533 0.030814
-0.046012 -0.124512 -0.040112
0.023739 -0.015826 0.027946
0.036640 -0.057399 0.006080
0.045958 0.042659 0.047057
-0.037967 0.056833 0.076890
0.040787 0.091485 0.070164
-0.038558 0.103667 0.046185
0.024067 -0.004140 0.034722
0.049389 0.093688 0.025741
-0.006704 0.103610 0.081095
0.025588 0.065142 0.086322
-0.028649 0.032808 0.069858
-0.008182 0.112639 0.073077
0.036387 0.091631 0.074466
0.000996 0.012324 -0.030295
-0.027275 -0.014302 -0.037315
0.044623 0.024755 -0.019066
0.036538 -0.063938 0.005714
-0.021633 -0.051154 0.016887
-0.037273 0.025122 -0.026411
0.035034 0.050687 0.077154
0.004941 0.011015 -0.028880
0.049462 0.042854 0.035577
0.024876 -0.113274 0.011845
-0.044886 -0.052731 -0.003155
0.054827 -0.124511 -0.041765
0.045977 0.036432 -0.025648
0.001761 -0.005237 -0.032158
0.052283 -0.048915 -0.054086
0.052351 -0.080698 -0.019836
0.042119 0.021504 -0.021106
0.013686 0.122683 0.027706
-0.052817 0.046867 -0.009687
0.037075 0.028385 -0.032391
-0.045468 -0.103767 -0.006165
0.050773 0.048227 -0.034238
-0.048808 -0.015964 0.002597
0.053609 0.046786 -0.000957
-0.040226 0.021798 0.038758
-0.053455 -0.081652 -0.050107
-0.004348 0.006017 -0.027804
0.031910 0.015711 -0.025717
0.045284 0.097594 0.036559
-0.027953 -0.115679 0.010138
0.017604 0.036784 0.079341
0.047026 0.007998 -0.017741
0.053847 0.080684 0.024160
-0.020967 0.115037 0.053463
0.053446 -0.001609 -0.010796
-0.009757 0.010173 -0.028052
-0.047106 -0.000027 -0.020516
0.048866 -0.051724 -0.062342
0.048577 0.006345 -0.016391
0.045589 0.054499 0.063695
-0.010117 0.116799 0.061836
-0.023050 -0.040051 0.018595
-0.050874 -0.084285 -0.058071
-0.024059 0.025194 0.063035
-0.048687 0.012762 0.017916
0.027460 0.106330 0.070773
-0.038803 0.030518 -0.036695
-0.050166 -0.050749 -0.059523
0.037156 -0.017909 -0.037565
0.045479 -0.019694 -0.033885
0.030397 0.009861 -0.025935
0.010543 -0.018557 -0.050327
0.020506 0.117545 0.042981
-0.034001 -0.005555 -0.029230
0.054779 -0.113424 -0.042300
0.027179 -0.074982 0.011871
0.053982 0.057443 -0.022783
0.043537 0.040420 0.051648
0.009393 0.012276 0.054995
0.055001 0.056651 0.019020
-0.015137 -0.114125 -0.090072
0.047511 0.080335 0.059960
-0.051369 -0.007813 -0.018857
0.038554 0.103944 0.045350
0.001751 -0.015139 -0.044786
-0.001309 -0.051198 -0.090739
0.050425 0.091271 0.026046
0.037127 -0.113362 0.003364
-0.005958 0.106905 0.078730
0.041233 0.038529 0.055249
0.023369 -0.042188 -0.080100
0.023431 0.019072 -0.032099
0.050810 0.037538 -0.011147
-0.033873 0.111141 0.034699
0.006030 -0.050268 -0.090052
0.048843 -0.016432 0.002360
-0.053522 0.052987 0.025582
0.016492 0.121952 0.027255
-0.045096 0.079000 0.070560
0.031798 -0.036660 -0.070894
-0.034769 -0.017146 -0.037782
-0.025066 -0.020826 -0.047580
0.030650 -0.034153 -0.068597
-0.051470 -0.028094 -0.033935
0.000013 0.018990 -0.036695
-0.053175 -0.040610 -0.046003
0.013912 -0.016631 0.031522
0.030363 -0.044649 -0.078233
0.048918 0.094685 -0.036695
-0.035002 0.085612 0.078179
-0.027860 -0.023733 -0.051339
-0.000528 0.120649 0.048869
-0.039107 0.059327 0.076534
-0.016953 0.099989 0.081005
-0.044428 0.099429 0.034896
-0.041015 -0.012709 -0.031285
0.011378 0.073706 0.090973
0.036253 0.020279 -0.024857
-0.005873 -0.022289 0.030360
0.024067 -0.004140 0.034722
-0.014285 -0.103842 -0.090306
-0.022670 0.018095 -0.030637
-0.009665 0.109776 0.075588
0.026711 0.093211 0.080412
-0.004341 -0.109663 -0.092026
0.052569 0.078231 0.035444
0.051667 -0.033798 -0.040835
-0.036076 0.011049 0.035620
0.002805 0.077723 0.091587
-0.009665 0.103983 0.080330
0.028195 -0.031141 -0.065762
0.054921 -0.102745 -0.033961
-0.018647 -0.040640 0.020367
-0.053711 -0.089322 -0.025177
-0.028599 0.001543 -0.027465
0.048762 -0.009095 0.006159
0.054761 -0.039659 -0.036626
0.029586 -0.050207 -0.081515
-0.041768 -0.101528 -0.072965
-0.054996 -0.057546 -0.037375
-0.050472 0.003577 -0.014652
-0.054821 -0.000315 -0.003058
0.052901 -0.056332 -0.021210
-0.044152 0.102136 0.026915
0.037585 -0.056304 0.005267
0.019978 0.010233 0.048545
-0.046059 0.067819 0.070556
0.006530 -0.013347 -0.040932
-0.005959 0.070836 0.091910
0.010349 0.114905 0.069534
-0.016956 0.012654 0.052550
0.000996 0.012324 -0.030295
0.045271 -0.008979 -0.026306
0.017760 -0.104721 0.014915
0.036830 0.067183 0.079533
0.024560 0.108979 0.069723
0.048694 -0.037303 -0.052485
-0.054311 -0.104360 -0.028521
-0.048487 -0.038267 -0.005970
0.046854 0.001680 0.015060
0.036825 0.076754 0.079022
-0.024664 0.102737 0.075633
-0.019358 -0.057739 -0.088675
-0.029895 -0.094835 0.009262
-0.028809 0.070497 0.084827
0.052967 -0.000802 0.001750
0.032466 0.048850 0.078265
0.054453 0.057076 0.022630
-0.013861 -0.071061 0.017652
-0.020798 -0.040431 0.019537
0.047544 0.071555 0.065053
0.029564 -0.052684 0.012252
0.021952 -0.012693 -0.036985
0.017045 -0.004895 -0.031198
-0.031897 0.087211 0.079817
0.015881 0.015271 -0.030471
-0.044794 0.017943 -0.018025
-0.046071 0.027316 -0.017726
0.019243 0.015538 0.054463
-0.042228 0.024480 -0.021848
-0.039345 -0.032629 -0.058151
0.049038 0.043972 -0.030493
0.030227 0.112137 0.042570
0.051421 0.062273 0.042629
0.033177 -0.041968 -0.074748
0.041285 -0.054265 0.001485
0.035528 -0.006343 0.024681
0.003525 0.014594 -0.036695
-0.026986 -0.019237 -0.043817
-0.046117 0.023951 -0.016537
0.011770 -0.035024 0.024196
0.035776 0.099241 0.069651
0.031776 -0.053767 0.010552
0.002707 -0.002487 0.042707
0.052978 -0.110776 -0.022369
-0.009222 0.012254 0.055006
-0.030456 0.076440 0.083424
0.040411 0.031298 -0.030712
0.051815 -0.092604 -0.018453
-0.004831 0.009292 0.052784
-0.019581 0.016136 -0.029800
-0.002875 0.082360 0.090758
-0.046586 0.038662 0.040792
0.015508 0.119430 0.042873
-0.014384 -0.024549 -0.061326
-0.048799 -0.020750 -0.031257
0.044157 0.020648 -0.018828
0.018389 0.013668 -0.028214
0.016048 0.025844 0.070036
-0.020555 0.118598 0.037542
-0.002009 0.016845 0.061562
0.033647 0.098487 0.072546
-0.039298 0.030918 -0.034594
0.021207 0.018504 -0.033926
0.002677 0.014256 -0.033703
0.013462 -0.039025 -0.081876
-0.014262 -0.036943 -0.079690
0.047118 -0.052677 -0.065474
-0.002766 0.059007 0.091231
0.050668 0.042535 0.031165
-0.014561 -0.046503 -0.086453
-0.034877 0.102507 0.063037
-0.000277 -0.017723 -0.050713
0.054637 0.051255 0.009983
0.000311 0.124512 -0.036695
0.043306 0.000379 -0.023270
0.038047 0.043394 0.070523
-0.037881 -0.025452 0.013011
0.040996 -0.000811 0.021955
-0.037458 0.009064 -0.024061
-0.045642 -0.001339 -0.022310
0.028042 0.062910 0.084847
0.049484 -0.023726 -0.033033
0.048914 -0.017042 -0.028188
-0.012607 0.047863 0.086743
-0.035313 -0.067112 -0.079356
-0.031618 -0.004745 0.029056
-0.031412 -0.038816 -0.073279
-0.033894 0.021818 -0.026542
-0.041060 0.026550 -0.024034
-0.040082 0.107157 -0.036695
0.050994 -0.004089 -0.017553
-0.054641 -0.035394 -0.031571
-0.021904 0.053236 0.085653
0.008213 0.037552 0.082332
0.028795 0.024976 0.057907
-0.003690 0.116005 0.069167
-0.049744 -0.024009 -0.032865
0.036571 0.025708 0.048413
0.028042 0.062910 0.084847
0.003976 -0.041640 -0.085911
0.042934 0.087062 0.070086
-0.053404 0.033197 0.017225
-0.014752 0.111318 0.072598
0.047528 0.055402 0.056395
-0.008737 -0.053089 -0.090520
-0.022875 0.109693 0.070284
0.024749 -0.020131 0.025242
0.035364 0.107994 0.042475
0.019141 0.010080 -0.027253
-0.048671 0.000806 0.011427
0.017837 0.108139 0.074489
0.034417 -0.055812 -0.080038
-0.052624 -0.088715 -0.020957
0.028825 -0.092394 0.010043
-0.012609 0.010430 -0.027869
0.048945 0.089394 0.038882
-0.050166 -0.050749 -0.059523
0.002688 -0.047585 -0.089302
0.049869 0.024001 -0.008946
-0.042068 -0.018808 0.011283
0.048945 0.089394 0.038882
0.041233 0.038529 0.055249
-0.028671 0.009861 -0.026226
0.052832 -0.040167 -0.017756
0.036237 0.058502 0.078763
0.009943 -0.046332 0.021571
0.051032 -0.007870 -0.019502
-0.054418 0.059827 -0.019604
0.003691 -0.051120 -0.090590
0.055016 -0.041793 -0.036581
-0.050465 0.033165 -0.009244
0.045465 0.059823 0.069831
0.054624 -0.055755 -0.030300
0.001839 0.014389 -0.034480
-0.001767 0.124446 0.027284
0.033363 0.091232 0.077094
0.053171 -0.031155 -0.033063
-0.040186 -0.003563 -0.026343
-0.000726 0.038338 0.083482
-0.028470 0.015650 -0.026472
-0.000180 -0.035067 0.025738
-0.011393 0.114358 0.070207
-0.011320 0.011500 -0.028372
-0.037894 0.028714 -0.030753
0.048668 0.011393 0.017242
0.000279 -0.051837 0.021598
0.049475 0.062883 0.053520
0.015035 0.098396 0.082603
0.052645 0.046921 -0.011954
-0.048407 -0.109654 -0.011102
0.042869 -0.053733 -0.000421
-0.049885 -0.124512 -0.060358
-0.024941 -0.112231 0.011806
0.054932 -0.037564 -0.032110
0.042416 -0.010559 -0.029059
0.040725 -0.105887 -0.074175
0.030501 0.012653 0.042883
-0.015202 -0.063573 0.017931
-0.014322 -0.042570 -0.084218
-0.028376 0.022159 -0.033685
-0.039380 -0.034106 -0.060551
-0.032247 -0.050964 -0.080177
0.044294 -0.023702 0.006276
-0.005150 0.009069 -0.028057
0.046571 0.087661 0.053996
0.028883 -0.103278 -0.084014
0.051215 -0.027397 -0.033784
-0.053994 -0.054710 -0.026160
-0.047792 0.025253 0.027206
-0.017671 0.041489 0.082243
0.000260 -0.124512 -0.092197
0.038836 -0.014663 -0.033841
-0.036553 -0.015970 0.018554
-0.048808 -0.015964 0.002597
0.042076 -0.046667 -0.069902
-0.046063 0.033095 -0.021808
0.021874 0.012459 0.049564
-0.004756 -0.056854 0.020663
-0.052221 0.002936 -0.011417
-0.041417 0.048858 0.070248
-0.021092 -0.053452 -0.086927
0.051152 -0.031335 -0.038558
0.012503 0.116924 0.058807
0.054911 -0.041541 -0.038459
-0.016518 0.013958 -0.028849
0.013561 0.016173 -0.036695
0.039629 0.030302 -0.030265
-0.046492 0.069977 0.069748
-0.042638 0.104197 0.026556
-0.036712 -0.057880 0.005952
-0.040169 -0.093554 0.000698
0.038123 0.007435 0.030618
-0.043885 -0.028156 -0.045222
-0.024523 0.072806 0.086868
0.039482 -0.052937 -0.075017
-0.030251 0.004367 0.036352
0.032711 -0.018436 -0.040082
-0.036426 0.010408 -0.024326
0.019978 0.010233 0.048545
-0.045915 -0.045647 -0.064366
-0.012156 -0.013265 -0.039918
0.035814 -0.026878 0.014412
0.053609 0.046786 -0.000957
