-0.050928 -0.044921 -0.055191
0.000013 0.018990 -0.036695
-0.001838 -0.110956 0.017775
-0.054894 0.053683 0.019151
0.030264 0.004377 0.036361
0.050425 0.091271 0.026046
-0.049455 0.008505 -0.014165
0.047855 -0.038619 -0.055456
0.027419 0.111148 0.054684
0.040945 -0.047798 -0.071694
0.025844 -0.023008 -0.051331
0.039001 0.094046 0.070589
0.051124 0.022491 0.018119
0.043965 0.055811 0.070652
-0.052889 -0.065433 -0.052240
-0.009640 0.024473 0.070658
0.054156 -0.039340 -0.040518
0.020356 0.070324 0.088664
0.010370 0.013056 -0.029587
0.042060 -0.036547 -0.060970
-0.042822 0.030360 -0.024640
0.018407 0.105620 0.076422
-0.052364 -0.020821 -0.025472
-0.052946 -0.021580 -0.024755
0.018091 -0.057789 -0.089146
0.000026 -0.004962 0.041050
-0.012945 -0.012144 0.034336
-0.043898 0.063459 0.072641
-0.018647 -0.040640 0.020367
0.032583 0.018971 -0.025974
0.054204 -0.124512 -0.046610
0.037644 0.109620 -0.036695
0.049568 -0.039186 -0.053141
0.003316 0.115831 0.069877
0.050535 0.031464 -0.008288
-0.041917 -0.000354 0.021024
-0.019173 0.017886 -0.035236
-0.051403 -0.111540 -0.056744
0.031733 0.000221 0.032180
-0.026938 0.016243 -0.027006
0.044948 -0.031725 -0.049685
-0.040957 0.014134 -0.021788
0.004422 0.003997 -0.028099
0.031433 0.088005 0.079855
-0.031362 0.018947 0.047978
0.034965 0.039620 0.070720
-0.001338 0.017381 -0.036695
-0.044446 0.024539 -0.019206
-0.035420 0.096410 0.072431
0.040571 -0.049586 0.003016
0.002241 0.068795 0.092170
-0.016987 -0.012449 -0.037832
0.002450 -0.124512 0.017760
-0.045787 0.089966 0.053062
0.051338 -0.124512 -0.017457
0.042464 0.051009 0.070208
-0.035282 0.027196 -0.034628
0.047841 0.077363 0.061047
-0.053542 0.030581 0.003913
0.020024 0.056484 0.087256
0.053552 -0.099189 -0.024461
-0.014249 0.009677 0.050706
-0.027435 -0.054787 -0.084315
-0.052442 -0.031484 -0.035493
-0.007668 -0.056961 -0.091573
-0.009668 0.047658 0.087261
-0.030488 0.034769 0.070399
0.039567 -0.054962 -0.075347
0.001307 0.014477 -0.035283
0.010543 -0.018557 -0.050327
0.006732 0.043365 0.085815
0.026337 -0.039491 0.017003
-0.043062 -0.050335 -0.070310
-0.009931 -0.124512 0.016904
-0.036794 0.082598 0.077728
-0.009012 -0.022475 0.029774
0.006733 0.062839 0.091465
0.001681 0.120735 0.048310
-0.048188 -0.041548 -0.057816
0.019098 0.017754 0.057088
-0.016956 0.012654 0.052550
0.032689 0.105903 0.058994
-0.053587 -0.016934 -0.009093
0.014330 0.028168 0.073287
0.044428 0.006776 -0.020590
0.004950 0.124274 -0.036695
-0.020798 -0.040431 0.019537
0.028180 -0.033989 -0.069952
-0.008674 0.013941 -0.031143
0.040920 0.100950 0.045811
-0.054583 0.062789 -0.036695
-0.036697 0.002090 0.028631
-0.031177 -0.113025 0.008082
0.009020 -0.056959 -0.091366
0.049389 0.093688 0.025741
-0.039677 -0.027653 -0.048801
0.028237 0.116705 -0.036695
-0.046757 -0.056564 -0.006612
-0.048266 0.038752 0.035928
-0.025708 -0.078070 -0.085820
-0.047870 -0.044985 -0.006637
-0.050698 -0.011362 0.001185
0.007938 -0.024890 -0.064029
-0.052741 0.085072 -0.036695
-0.050166 -0.050749 -0.059523
0.000013 0.018990 -0.036695
-0.032093 -0.043181 -0.076260
-0.047791 0.033760 -0.018359
-0.030227 -0.028553 -0.059422
-0.005759 0.088798 0.088731
-0.049245 0.000907 -0.017715
0.054577 0.075860 0.023828
-0.034819 -0.036789 -0.068786
0.025402 0.020045 -0.031968
-0.006418 -0.018903 0.031952
0.039831 -0.043423 -0.070274
-0.003704 -0.044303 -0.087588
-0.021708 0.028189 0.069708
-0.044358 0.055528 0.069713
-0.004509 -0.030598 -0.074183
0.025844 -0.023008 -0.051331
0.047719 -0.105187 -0.009739
-0.027599 -0.069936 0.011926
-0.031172 -0.093737 0.008444
0.052966 0.054614 -0.036695
-0.041106 0.041034 0.059149
-0.020256 0.119653 0.032624
0.039098 -0.034381 -0.061328
-0.052886 -0.033952 -0.037336
-0.054864 0.042874 0.016053
-0.038823 0.030319 -0.033666
-0.000234 -0.029542 -0.072764
0.053879 -0.025763 -0.025672
-0.012604 0.089248 0.087440
0.032635 0.023724 0.051744
-0.035351 0.025984 0.050533
-0.049805 -0.059273 -0.060515
0.044198 0.054648 0.069383
-0.048407 -0.109654 -0.011102
-0.041302 -0.045536 -0.070082
0.006733 0.062839 0.091465
0.016654 -0.015151 -0.041695
0.030664 0.058603 0.082630
-0.039370 -0.088928 -0.075594
0.026043 0.015968 -0.027191
0.003866 -0.053000 0.021244
0.045524 -0.013805 -0.029214
0.047372 0.025927 0.028645
0.006770 0.007400 0.050615
0.054796 -0.043216 -0.041342
-0.039170 -0.113174 0.001369
0.043166 -0.085222 -0.002512
-0.027431 0.035435 0.073277
0.048414 0.043353 -0.036695
0.025079 -0.013118 -0.036664
-0.041832 -0.084960 -0.072887
-0.033801 0.017613 -0.025354
-0.048671 0.000806 0.011427
0.025266 -0.099252 -0.086057
-0.043520 0.097991 0.043514
0.050999 -0.111314 -0.016572
-0.029831 -0.031628 -0.065393
-0.025288 0.037997 0.076566
0.046514 -0.080962 -0.007157
0.048713 -0.027295 -0.037920
0.026553 -0.029221 -0.063543
0.054367 0.042780 0.009035
-0.051358 -0.018705 -0.025791
0.013905 -0.032734 -0.075001
-0.007166 -0.020302 -0.055195
0.027259 0.021260 -0.032569
0.053047 0.084080 -0.036695
0.024486 0.018458 -0.029785
-0.036334 -0.001865 -0.026992
-0.040795 -0.042434 -0.068514
0.031103 -0.059198 0.010500
-0.019801 0.100113 0.079839
0.025032 -0.045496 -0.081486
-0.054889 -0.023417 -0.018518
-0.025276 0.015020 -0.027094
-0.036334 -0.001865 -0.026992
-0.019119 0.027135 0.070060
-0.054186 0.039518 0.017324
-0.054192 -0.075657 -0.027561
0.010632 0.056178 0.089752
0.001256 -0.042198 -0.086436
0.033515 0.038076 0.070794
-0.050874 -0.084285 -0.058071
0.048065 -0.066989 -0.009349
-0.051358 -0.018705 -0.025791
-0.000828 0.012399 -0.030391
-0.049047 0.074940 0.056748
0.032727 0.011364 0.039556
0.038965 0.017593 0.037146
0.052791 0.014642 -0.003734
-0.033163 -0.064047 -0.081069
0.010433 0.067742 0.091285
0.041283 -0.029595 -0.050556
0.005973 0.023549 0.070316
-0.029597 0.023135 -0.036695
-0.041914 0.033389 -0.031997
-0.054793 0.074020 0.023019
0.046452 -0.037733 -0.056565
0.012488 -0.046356 0.020991
-0.015814 -0.039670 -0.081516
-0.054879 -0.057596 -0.033548
-0.049400 0.005782 -0.015394
-0.047438 -0.002630 0.011732
0.032264 0.022115 -0.027795
0.052922 0.048948 -0.013476
-0.003065 -0.046840 -0.088938
0.006277 -0.057944 -0.091845
0.049314 0.072559 0.056490
0.006101 0.076456 0.091509
0.005845 0.087741 0.089077
-0.010710 -0.035010 0.024439
-0.054049 -0.033254 -0.032140
0.000128 0.006138 0.050155
0.040764 0.023494 -0.022896
-0.054372 0.070117 0.026940
-0.054113 -0.019406 -0.012414
-0.042522 0.008141 -0.021620
0.042399 0.056383 0.072590
0.038745 0.020760 -0.023608
0.034848 -0.099676 0.005553
-0.038277 -0.013668 -0.033257
-0.004673 0.041173 0.084904
0.036407 0.024976 -0.027124
0.035635 0.021841 -0.025640
-0.048733 -0.008273 0.006579
0.037585 -0.056304 0.005267
0.046571 0.087661 0.053996
-0.050754 -0.042000 -0.053459
0.039125 0.091093 0.072226
-0.044582 -0.019353 -0.034334
0.049389 0.093688 0.025741
-0.037506 0.028853 -0.032531
-0.052624 -0.088715 -0.020957
-0.039380 -0.034106 -0.060551
-0.051011 0.087142 0.031697
-0.032598 -0.001110 -0.027611
0.048073 -0.022708 -0.033941
-0.051507 -0.036273 -0.045275
0.054140 0.055445 -0.009479
-0.011063 -0.026337 0.027617
-0.048445 0.032963 -0.015798
-0.020881 -0.008903 0.033344
-0.053399 0.051599 -0.013215
-0.036223 0.025362 -0.027687
0.029891 -0.000355 0.033303
-0.054391 -0.045469 -0.027689
0.036498 0.041464 0.070676
-0.024760 -0.007621 -0.032079
0.031369 -0.014084 0.023963
-0.018381 0.059545 0.088449
-0.025177 0.112761 0.053736
-0.006389 -0.044084 -0.087149
-0.051470 -0.028094 -0.033935
0.004331 -0.056777 -0.091926
-0.051818 -0.099700 -0.055601
-0.051239 0.026338 -0.005020
0.021758 0.081529 0.086831
0.052869 -0.033738 -0.015439
0.047972 0.041421 -0.028601
0.053156 0.047128 0.024558
0.020933 -0.035895 0.020833
-0.050488 -0.049826 -0.013250
0.054204 -0.124512 -0.046610
-0.030259 0.007671 -0.026120
-0.052680 -0.073100 -0.052971
0.046798 0.091107 0.046058
-0.040135 -0.055355 0.002670
0.000132 0.001318 0.045907
-0.053158 -0.110844 -0.051282
0.033970 0.019326 0.045349
0.041177 0.033356 0.048710
-0.011175 -0.034729 -0.078344
-0.043081 -0.081828 -0.002321
-0.052312 0.006008 0.006836
0.054294 0.011175 -0.000353
-0.022487 -0.078838 0.014027
-0.054915 0.062779 0.021326
-0.048701 -0.013116 -0.025679
-0.030809 -0.047571 0.012221
-0.028671 0.009861 -0.026226
0.002794 0.017125 0.061859
0.054881 -0.103579 -0.041027
0.006654 0.010778 -0.028572
0.038921 0.025630 -0.025377
0.015115 -0.039415 0.021956
-0.050718 0.040275 -0.014750
0.044306 -0.038205 -0.060173
0.051370 -0.015742 -0.023741
-0.001481 0.111305 0.075205
0.000013 0.018990 -0.036695
0.002984 -0.049076 0.021966
0.006939 -0.056952 -0.091680
0.030496 -0.003049 -0.028757
-0.045286 -0.025361 -0.039892
0.021232 0.106623 0.074270
-0.054551 0.058404 -0.002896
-0.022858 -0.011903 0.030577
-0.015851 -0.007552 0.036272
0.031927 0.042733 0.075396
0.019780 0.029638 0.072449
0.051889 0.021915 -0.003759
-0.011141 0.085799 0.088864
0.022572 0.016440 0.053278
-0.025649 -0.094200 -0.085850
-0.017904 -0.044502 -0.084083
-0.043913 0.032185 -0.024680
-0.006389 -0.044084 -0.087149
-0.026411 0.014366 0.048117
-0.019801 0.100113 0.079839
-0.050513 -0.031047 -0.039493
-0.009640 0.024473 0.070658
0.051660 0.049422 -0.026729
0.007087 0.105756 0.079475
0.009000 0.014026 -0.031194
0.041242 0.026629 0.041460
-0.005245 -0.032075 -0.076281
-0.038785 -0.057564 0.003912
-0.007959 -0.030280 0.026662
0.038662 -0.124512 -0.076332
0.037063 0.015988 -0.023960
0.054461 -0.038731 -0.037448
0.044001 -0.004654 -0.024886
0.038927 0.032854 0.052804
0.029223 0.018434 -0.027032
-0.054678 -0.103344 -0.043044
-0.033193 0.019728 -0.025958
-0.005811 -0.067680 0.019442
-0.044680 -0.000531 0.017130
0.054520 0.060115 -0.017649
-0.025708 -0.078070 -0.085820
-0.043105 0.040505 0.052899
-0.009881 0.095289 0.085462
0.007605 -0.022223 -0.059016
0.020509 0.025914 0.067128
0.045237 0.071866 0.071538
-0.054900 -0.050311 -0.034212
0.001920 0.007252 0.051107
-0.031506 -0.037557 -0.072013
-0.054504 -0.083089 -0.044490
-0.054940 -0.110275 -0.039490
-0.012605 0.073313 0.090747
-0.026746 0.017720 -0.027735
0.053130 0.040764 -0.000276
-0.040151 -0.038664 -0.065729
-0.000868 0.014426 -0.034798
-0.028405 -0.057306 -0.084294
-0.053000 -0.049081 -0.051903
0.042368 -0.014405 -0.031856
0.011901 0.095801 0.084812
0.014090 0.056440 0.089059
-0.016861 0.121763 0.027708
0.033184 0.058297 0.080935
0.003197 0.053310 0.089909
-0.053439 0.056383 -0.031297
-0.042032 -0.011111 -0.029632
0.050335 -0.083401 -0.014514
-0.014285 -0.103842 -0.090306
0.005875 0.071054 0.091919
0.037063 0.015988 -0.023960
0.025166 0.014153 -0.026928
-0.008136 0.051802 0.088973
0.039386 0.044626 0.069666
0.038122 0.071047 0.078514
0.052417 -0.034428 -0.039666
0.044306 -0.038205 -0.060173
0.006831 0.010032 0.053230
-0.054089 -0.097969 -0.027161
0.046312 0.037860 -0.027075
0.047666 -0.025106 -0.036852
0.030496 -0.003049 -0.028757
0.025782 -0.052082 0.014672
0.042464 0.051009 0.070208
-0.028406 -0.079786 -0.084289
0.017058 -0.000328 0.040920
0.014330 0.028168 0.073287
0.006477 0.025096 0.072025
0.016007 -0.041738 -0.083018
-0.045600 0.060643 0.069847
0.025779 -0.057507 -0.085792
0.004288 0.091121 0.088017
-0.038988 -0.096897 -0.075977
-0.052624 -0.088715 -0.020957
-0.043188 0.086866 0.069561
-0.047472 0.014587 -0.015107
0.026640 0.003418 0.038460
-0.009174 -0.042640 -0.085761
0.051783 -0.036366 -0.044753
-0.053915 -0.061252 -0.048003
0.020554 0.012542 -0.027406
0.041007 -0.033528 0.006665
0.008629 -0.039688 -0.083773
-0.022090 0.050844 0.084785
0.000013 0.018990 -0.036695
-0.009691 -0.017085 -0.047423
0.004384 0.108573 0.077525
0.046973 -0.011309 -0.026309
0.039924 -0.005407 -0.027317
-0.028375 0.018684 -0.027545
0.054848 0.019103 0.006915
0.002500 0.002727 -0.028417
0.006626 -0.073227 0.018880
0.043848 -0.091502 -0.003594
-0.015356 -0.012017 0.033674
-0.048437 -0.008994 -0.023459
-0.052140 -0.046689 -0.017272
0.028908 0.105953 0.069642
0.019425 -0.065470 0.016316
-0.033682 -0.041394 -0.073997
0.006641 0.004861 0.048282
0.051889 0.021915 -0.003759
0.037154 0.038036 0.064043
-0.025865 0.007774 -0.026740
0.031924 0.060635 0.082235
0.019824 0.103629 0.077383
0.039717 -0.067637 0.002315
-0.012801 -0.045428 -0.086437
0.000763 0.090953 0.088234
-0.000879 0.011649 -0.029666
-0.054615 0.062739 -0.025172
-0.052716 -0.079763 -0.021121
0.053529 -0.038509 -0.042253
0.030501 0.012653 0.042883
-0.053792 0.011926 -0.001742
-0.015511 0.093766 0.084833
0.047230 -0.029628 -0.043183
-0.048455 0.023301 -0.012123
0.002263 0.083112 0.090603
-0.004414 -0.040179 -0.084808
-0.011769 0.054946 0.089231
0.002677 -0.013107 -0.040886
-0.039637 0.050967 0.073260
0.050255 -0.024370 -0.004196
-0.000720 0.075880 0.091870
-0.052792 -0.017408 -0.022044
0.049184 0.028401 -0.011290
-0.040988 -0.057409 0.001487
0.053847 0.080684 0.024160
0.042379 -0.022649 -0.039387
-0.054834 -0.077546 -0.041388
-0.033232 -0.024776 -0.049300
0.021149 -0.073253 0.014988
0.049787 0.037865 -0.016086
0.012099 0.044331 0.085328
-0.017904 -0.044502 -0.084083
0.018406 0.049117 0.085562
-0.020284 -0.026327 -0.061925
-0.045085 0.036810 -0.029177
-0.041428 0.028793 0.043193
0.052832 -0.040167 -0.017756
-0.005906 -0.000516 0.043851
-0.036122 0.036674 0.063934
-0.026372 -0.053161 -0.084374
-0.003922 0.014572 -0.035309
0.006071 -0.010727 -0.037245
0.034680 0.100510 0.069653
-0.000072 -0.029255 0.027831
-0.052308 -0.039927 -0.047892
-0.020233 -0.048970 -0.085509
0.047118 -0.052677 -0.065474
0.047654 -0.029305 -0.001199
0.020356 0.070324 0.088664
0.033167 0.040025 0.072592
-0.025526 -0.112460 -0.085909
-0.010411 0.118600 0.053495
0.009168 -0.077173 0.018216
-0.015742 0.011031 -0.027700
0.009695 0.098950 0.083569
0.029628 -0.007214 -0.031043
0.012682 -0.013027 -0.039466
0.054379 -0.027902 -0.025721
-0.052960 0.043006 -0.003003
0.010632 0.056178 0.089752
0.007957 0.116415 0.065288
-0.054113 -0.019406 -0.012414
-0.052830 -0.024730 -0.011060
0.006128 -0.033943 -0.078598
-0.045399 -0.031009 0.001749
-0.047925 -0.022463 -0.033862
0.016121 0.090755 0.085958
-0.041414 0.090677 0.069675
0.045550 0.077379 0.070418
0.051646 0.013205 -0.007600
0.041177 0.033356 0.048710
-0.041514 0.102900 0.036675
-0.037909 0.019546 -0.023856
0.054923 -0.110820 -0.040393
-0.051342 -0.012279 -0.000675
-0.001700 -0.031345 -0.075576
-0.002017 0.007978 0.051798
0.029925 0.029022 0.062187
0.047026 0.007998 -0.017741
-0.000752 -0.053241 -0.091347
-0.053449 -0.096319 -0.050133
0.039098 -0.034381 -0.061328
-0.053908 0.058459 -0.030125
0.045311 0.100554 0.026742
-0.002168 0.055358 0.090494
-0.038612 -0.016171 -0.035232
-0.023709 -0.072828 0.013842
-0.014590 0.052147 0.087768
0.054902 -0.021101 -0.016760
0.039629 0.030302 -0.030265
0.030650 -0.034153 -0.068597
0.051347 0.048159 0.032557
0.043806 0.014647 -0.019460
0.000050 -0.006435 -0.033064
-0.007859 -0.024865 -0.063986
0.043224 0.103546 -0.036695
0.039634 0.042228 0.065019
0.055013 -0.122506 -0.037195
-0.038764 -0.056127 -0.076202
-0.035440 -0.097633 -0.079248
0.034965 0.039620 0.070720
-0.036001 0.098594 0.070191
-0.045636 0.060211 0.069474
-0.006637 0.121525 0.042134
-0.052699 -0.039313 -0.017094
-0.054901 -0.008258 -0.008903
0.053632 0.043419 0.002128
0.041493 -0.114006 -0.001120
-0.023417 0.017364 -0.029121
-0.001273 0.008306 -0.027991
-0.036186 0.044550 0.073039
0.026220 0.075672 0.085833
-0.014525 -0.002732 0.040064
-0.045517 -0.021525 -0.035512
0.046350 -0.114780 -0.007616
0.048404 -0.088903 -0.010656
-0.039308 -0.022716 -0.041694
-0.003846 0.014389 -0.034045
0.054779 -0.113424 -0.042300
0.022572 0.016440 0.053278
0.002992 -0.092046 0.018081
0.052576 0.025481 -0.000776
-0.043201 -0.089405 -0.071226
-0.030456 0.076440 0.083424
0.034675 0.026005 -0.031289
-0.049307 0.038597 0.032650
-0.050108 -0.000577 -0.017171
-0.044430 0.022695 -0.018739
-0.038764 -0.056127 -0.076202
-0.003724 0.026216 0.073595
-0.040751 -0.019025 -0.036732
-0.026629 0.021352 -0.036695
-0.053692 0.001288 -0.008203
-0.044894 -0.044904 -0.065333
-0.027431 0.035435 0.073277
-0.009328 0.013592 -0.030428
0.032900 -0.093482 0.007235
0.025588 0.065142 0.086322
0.001171 -0.000055 -0.029345
-0.043188 0.086866 0.069561
0.000996 0.012324 -0.030295
-0.054981 -0.089137 -0.035938
-0.002707 -0.033057 0.026278
-0.036577 0.034893 0.060249
0.044425 -0.062492 -0.003250
0.046312 0.037860 -0.027075
-0.003402 0.013734 -0.032112
0.050543 -0.040098 -0.052217
-0.045868 0.099678 0.026731
-0.028740 0.014997 0.046694
-0.033444 0.108981 0.045127
0.038047 0.043394 0.070523
-0.043264 0.043902 0.057150
0.034999 0.024699 -0.028274
0.011167 0.034133 0.079385
-0.038108 0.009715 0.032209
-0.029659 0.005983 -0.026417
0.038958 -0.035122 0.008384
-0.049263 -0.048157 -0.060253
-0.042725 0.050855 0.069389
0.037672 -0.045123 0.006984
-0.002570 -0.053236 -0.091281
0.054923 -0.110820 -0.040393
-0.039311 -0.029217 0.010057
0.038093 -0.052242 0.005254
-0.052902 -0.037230 -0.042552
0.004037 0.120450 0.049092
0.021231 0.059709 0.087474
-0.040902 -0.077574 -0.073953
-0.007589 0.027742 0.074621
0.052494 -0.039062 -0.046468
0.032727 0.011364 0.039556
0.019962 -0.034112 -0.074328
-0.034472 0.021242 -0.025965
-0.015144 0.122369 0.026717
-0.016526 0.012096 -0.027899
0.050105 0.089580 0.032006
0.025967 0.014225 0.048360
0.035301 0.026103 0.050793
0.040436 0.106798 -0.036695
-0.045636 0.060211 0.069474
-0.006663 0.018402 0.062891
0.040453 -0.043295 0.004477
-0.032847 0.113516 0.027452
-0.032913 -0.046864 0.010783
-0.034723 -0.050817 0.008580
-0.050748 0.049120 0.035654
-0.054711 0.051151 0.012142
-0.054593 -0.006515 -0.009393
0.053756 0.002070 0.001315
0.008213 0.028676 0.075403
-0.006586 -0.112182 -0.091801
0.044942 0.022204 -0.018003
0.036253 0.020279 -0.024857
0.051124 0.022491 0.018119
0.015617 -0.065627 0.017624
0.053044 -0.044652 -0.019931
0.023717 0.117930 0.033573
-0.053936 0.005193 -0.005025
0.054146 -0.042196 -0.024645
0.041356 -0.011209 -0.030045
0.030220 -0.030333 -0.062863
-0.046060 0.070184 0.070602
0.050805 -0.049586 -0.013961
-0.054930 0.066868 -0.031037
-0.028470 0.015650 -0.026472
-0.053841 0.056882 -0.023137
0.022115 -0.051871 -0.085940
-0.046633 0.024288 0.029016
0.011403 -0.057916 -0.091008
-0.021628 0.018071 -0.031659
-0.037630 -0.113863 0.002874
-0.017027 0.008761 -0.027382
-0.006284 0.004847 -0.027937
-0.033893 -0.053861 -0.079970
0.050805 -0.049586 -0.013961
-0.048508 0.043573 -0.036695
0.051347 0.048159 0.032557
0.054495 -0.124511 -0.029613
0.023139 0.018288 -0.030603
0.023315 -0.010804 -0.034792
0.055004 0.070485 -0.031697
-0.043383 0.052666 0.069648
-0.035571 0.029853 0.054966
0.034625 -0.050991 0.008661
-0.032039 0.102304 0.070855
0.053911 -0.014294 -0.017047
0.040571 -0.049586 0.003016
0.007234 -0.046075 -0.088086
-0.020591 -0.054977 -0.087611
-0.050372 0.091560 -0.036695
0.000765 0.080702 0.091151
0.043545 -0.010516 -0.028379
0.019606 -0.043256 0.019335
-0.053792 0.011926 -0.001742
0.034239 -0.008447 0.024684
0.000050 -0.006435 -0.033064
0.052180 -0.065296 -0.019007
0.037156 -0.017909 -0.037565
-0.010114 0.015118 0.057971
0.038740 -0.026012 -0.046929
-0.038737 -0.011324 0.018719
0.038483 0.043282 0.069721
0.036538 -0.063938 0.005714
0.009810 -0.022495 0.029613
0.048012 0.005050 -0.017630
-0.044676 0.020936 0.030475
-0.010872 0.043304 0.085098
-0.054725 -0.052203 -0.031615
-0.018762 -0.006067 -0.031782
0.046818 -0.108514 -0.066084
0.044592 -0.054124 -0.069408
-0.039526 0.098392 0.058743
0.006199 -0.027698 -0.069273
-0.053496 -0.035702 -0.037564
0.019824 0.040277 0.080721
-0.002830 0.036373 0.082165
-0.024765 0.061036 0.086209
-0.041896 0.083219 0.072878
-0.035185 -0.017331 0.019167
0.044829 -0.005959 -0.024973
0.011389 0.010703 -0.028062
-0.000868 0.014426 -0.034798
0.025713 -0.015446 0.027046
0.045652 0.034421 -0.023913
0.006530 -0.013347 -0.040932
0.022920 0.116489 0.042690
-0.014266 0.019499 -0.036500
0.054405 0.034739 0.008893
-0.023140 0.029256 0.070128
0.033167 0.040025 0.072592
0.023845 -0.038593 -0.077054
0.037580 0.020035 -0.024131
0.011790 -0.033963 -0.077245
-0.012901 0.121867 0.033709
0.037639 0.028185 -0.030087
-0.047943 0.025542 -0.013463
0.043038 0.103780 0.026071
-0.016157 -0.034918 0.022976
0.032919 0.101592 0.070723
-0.025103 0.020109 -0.032716
0.000649 0.087278 0.089518
-0.030146 -0.124512 0.008765
0.047026 0.007998 -0.017741
0.039422 0.022479 -0.023620
-0.032316 -0.050169 0.010652
0.023369 -0.042188 -0.080100
0.037933 0.026261 -0.026768
-0.034731 -0.039914 0.010920
-0.041331 0.076682 0.075084
0.031363 -0.009431 0.026514
0.006307 0.006586 -0.027762
0.009694 0.061396 0.090872
-0.012605 0.073313 0.090747
0.045330 -0.088832 -0.005588
-0.040890 -0.014894 -0.033048
0.027783 0.001894 -0.027486
0.013581 0.060030 0.089900
0.006690 -0.016559 0.033146
-0.009665 0.109776 0.075588
0.015455 0.008616 -0.027464
-0.051651 0.078287 0.040722
0.054861 -0.124512 -0.033023
-0.012698 0.024875 0.070206
-0.035886 0.001539 -0.026000
-0.040862 0.018081 -0.021753
0.009692 0.106377 0.078518
-0.006184 0.014775 -0.035226
-0.019026 0.013282 -0.027894
-0.036328 -0.009715 0.022009
0.005904 -0.019074 -0.052936
0.014092 0.108631 0.075431
0.008207 0.016771 0.060486
0.053632 0.043419 0.002128
-0.050548 -0.035230 -0.045924
-0.016433 0.107156 0.075911
0.022955 -0.022167 -0.051533
-0.052072 -0.011819 -0.002119
-0.053987 -0.047895 -0.025400
-0.049665 -0.124512 -0.040669
-0.032039 0.102304 0.070855
0.009693 0.103987 0.080326
0.013561 0.016173 -0.036695
0.023648 0.109704 0.069189
-0.034091 -0.021070 -0.042773
-0.041941 -0.040241 0.003446
0.054781 -0.046045 -0.031499
-0.013550 -0.007587 0.037006
-0.030627 0.084380 0.081598
0.046644 0.028994 -0.017558
-0.038558 0.103667 0.046185
0.054940 0.070501 0.022951
-0.038941 -0.080709 -0.076024
0.005022 0.047803 0.087927
0.039358 0.030430 0.048984
-0.046151 0.008778 -0.018434
0.035278 0.023977 -0.027228
-0.045186 0.060270 0.070507
0.007285 0.014755 0.058281
-0.049526 -0.031958 -0.042771
-0.049000 0.080711 0.052391
-0.021992 -0.012037 -0.036266
-0.011028 0.007509 0.049699
0.027821 0.019132 -0.028195
-0.050867 -0.053622 -0.014787
-0.054518 0.076151 0.023869
0.053724 0.057605 -0.036695
-0.031439 -0.068206 -0.082314
0.034816 -0.056661 -0.079790
0.018665 -0.103185 -0.088938
-0.018800 0.020811 0.061069
-0.038477 -0.000390 -0.025783
-0.044951 -0.124512 -0.068931
-0.038549 0.007469 -0.023838
0.046636 -0.021390 -0.034315
-0.053251 0.048463 0.024675
-0.011074 -0.007676 0.037626
0.009691 0.071106 0.091407
0.054827 -0.124511 -0.041765
0.019827 0.031663 0.074340
-0.037802 -0.051458 0.005642
0.013572 0.015716 -0.032957
0.027179 -0.074982 0.011871
-0.032256 0.036577 0.070572
0.008267 0.115317 0.069540
-0.046458 0.057426 0.063247
-0.054955 0.047891 0.016621
0.024868 0.068962 0.086821
-0.036328 -0.009715 0.022009
-0.017651 -0.054454 0.018053
0.053875 0.058249 -0.032448
-0.052150 -0.043977 -0.051733
0.053198 -0.033400 -0.035656
-0.003383 -0.032100 -0.076541
-0.054441 0.034352 0.009215
0.037933 -0.085254 0.003266
0.042597 -0.016703 -0.033575
-0.019107 0.012914 0.051692
0.023178 0.100219 0.078237
0.013409 0.113836 0.070144
-0.031512 -0.111306 -0.082268
0.000013 0.018990 -0.036695
0.035907 0.027742 -0.034874
0.005476 -0.104367 -0.091925
0.033498 0.024876 -0.030724
0.034836 0.020192 -0.025465
0.047290 0.022679 0.026663
-0.028007 0.021134 0.053948
-0.029697 -0.001957 -0.028453
0.009486 -0.033823 -0.077726
0.012286 -0.087759 0.016968
-0.034658 -0.052140 -0.078901
0.017532 -0.025321 -0.061426
0.035630 0.047797 0.075328
-0.009291 0.012834 -0.029595
-0.035556 0.111330 0.027474
-0.045704 -0.012761 -0.028329
0.002119 -0.111097 -0.092160
-0.005126 0.008282 -0.027885
-0.035420 0.096410 0.072431
-0.054526 0.052107 0.007780
-0.023249 0.119340 0.026654
-0.045981 -0.053106 -0.067256
-0.035344 -0.021935 0.016886
-0.019906 0.016814 -0.030554
-0.000738 0.064421 0.091995
0.053803 0.051567 -0.005988
0.054660 -0.026946 -0.023677
-0.048378 -0.124512 -0.011074
0.051364 -0.110656 -0.056902
0.010269 -0.069503 0.018616
-0.027621 0.116953 0.027613
-0.049046 0.032844 0.029289
-0.048057 -0.030965 -0.002633
-0.012609 0.010430 -0.027869
-0.018060 -0.052876 -0.087915
0.041594 0.097390 0.053525
-0.016778 0.015550 0.055797
0.005242 0.050298 0.088819
-0.046226 0.019372 0.026526
-0.029842 0.023247 -0.035270
0.043306 0.000379 -0.023270
0.053879 -0.046319 -0.047947
-0.031512 -0.111306 -0.082268
0.008213 0.037552 0.082332
-0.013706 -0.100614 0.016181
-0.054824 -0.102015 -0.032874
0.054056 0.042960 0.006095
0.024749 -0.020131 0.025242
0.047257 0.052110 0.053736
0.051230 -0.019978 -0.004278
0.011738 -0.006472 -0.032667
0.048914 0.026603 0.025621
0.035630 0.047797 0.075328
0.023357 0.006170 0.042895
-0.051971 0.044792 0.027820
-0.040459 0.028764 -0.026247
-0.016008 -0.101026 0.015528
0.006537 -0.012082 -0.039008
-0.054914 0.034155 0.012107
0.041750 0.033540 -0.034228
-0.000123 0.017166 0.062069
0.049449 0.001137 -0.017371
-0.029390 0.038166 0.074082
0.034208 0.021947 -0.026465
-0.006637 0.121525 0.042134
0.019407 -0.004350 -0.030695
-0.033710 0.026491 0.053567
0.013972 -0.012291 0.033971
0.017532 -0.025321 -0.061426
0.029356 0.085868 0.081908
-0.016778 0.015550 0.055797
-0.000853 0.005610 -0.027841
-0.029977 0.035069 0.071120
-0.003679 0.009586 -0.028298
0.052961 0.041600 0.022613
-0.015137 -0.114125 -0.090072
0.040809 -0.019541 -0.037210
-0.046099 0.000521 0.015576
-0.045159 -0.042596 -0.063297
-0.052867 -0.038624 -0.044706
0.050865 0.080106 0.043414
-0.019679 -0.035642 -0.076154
-0.034317 0.105965 0.053464
0.015901 0.019504 0.061075
-0.043753 0.035823 -0.032555
0.020231 -0.056782 -0.088237
-0.046474 -0.030726 -0.045904
-0.032242 0.010462 0.039293
-0.053754 0.016768 0.008736
-0.017220 0.112488 0.070163
0.053597 0.052437 -0.012512
0.047855 -0.038619 -0.055456
0.034826 -0.042010 -0.073657
0.009691 0.071106 0.091407
-0.016433 0.107156 0.075911
-0.003449 0.012087 -0.029852
0.003958 -0.002383 -0.030382
0.015881 0.015271 -0.030471
0.054591 -0.031737 -0.028243
0.012237 0.012310 0.054160
0.008906 -0.104542 -0.091473
-0.010117 0.116799 0.061836
-0.054825 0.022621 0.008471
0.012237 0.012310 0.054160
0.027233 0.021649 -0.035275
-0.018441 -0.019991 -0.049695
-0.041918 -0.113033 -0.001634
0.032177 -0.124512 0.007403
-0.025697 -0.070339 -0.085826
0.032245 -0.101070 0.007505
0.017045 -0.004895 -0.031198
-0.014262 -0.036943 -0.079690
0.029485 -0.008566 -0.031926
0.041200 -0.102212 -0.000615
-0.009222 0.012254 0.055006
-0.049519 0.086573 0.041248
0.038755 -0.023326 -0.042897
0.018568 0.024472 0.066323
0.050087 -0.015211 0.000560
-0.053455 -0.081652 -0.050107
-0.035965 0.041089 0.070901
0.019418 -0.112681 0.014259
-0.043593 -0.039064 -0.062049
0.006690 -0.016559 0.033146
-0.054914 0.034155 0.012107
-0.041852 -0.054256 -0.072769
-0.043195 0.024037 -0.020615
0.027379 0.038803 0.075901
-0.052889 -0.065433 -0.052240
-0.044962 0.101168 0.025819
-0.009665 0.082242 0.090037
0.009782 0.020070 0.064311
-0.011670 -0.041003 0.022442
0.011585 0.002640 0.045216
0.000000 0.006406 -0.027794
0.054204 -0.124512 -0.046610
0.019839 0.018173 -0.036695
-0.031751 0.029357 0.060144
-0.054284 -0.035533 -0.033733
0.054940 0.070501 0.022951
-0.053432 0.025112 0.013494
-0.047834 0.029445 0.029961
-0.053809 0.044057 0.003591
-0.041885 0.097030 0.053211
0.052900 0.018939 -0.001555
-0.016538 0.015795 -0.030963
-0.015356 -0.012017 0.033674
-0.027435 -0.054787 -0.084315
-0.011871 0.120414 0.042914
-0.052044 -0.001041 -0.013943
-0.051012 0.001462 -0.014712
0.030456 0.108021 0.058193
0.003958 -0.002383 -0.030382
-0.024760 -0.007621 -0.032079
0.040920 0.100950 0.045811
-0.000702 -0.020496 -0.056515
-0.012576 -0.018303 -0.048971
0.000022 -0.032533 0.026601
-0.026901 -0.017807 -0.041744
0.042934 0.087062 0.070086
-0.002235 0.108630 0.077615
0.034782 0.038882 0.070208
0.046186 0.024352 -0.016538
0.053220 -0.124511 -0.023301
-0.021623 -0.045576 0.017929
0.053225 0.028755 0.002168
-0.020695 0.106785 0.074388
0.008769 -0.108539 0.017112
0.054568 -0.124511 -0.044219
0.043878 0.096601 0.045975
-0.052946 -0.021580 -0.024755
0.037474 -0.009299 -0.030400
-0.014462 -0.041271 -0.083266
0.013561 0.016173 -0.036695
-0.035281 -0.030965 0.013293
-0.021264 -0.106563 -0.087913
0.013409 0.113836 0.070144
-0.052196 -0.005626 -0.016087
0.021580 0.015064 -0.028123
0.036234 0.010480 0.035041
-0.038605 0.021076 -0.023740
0.049618 0.082094 0.047725
-0.027860 -0.023733 -0.051339
0.015089 -0.056899 -0.089991
0.042399 0.056383 0.072590
-0.045972 -0.111248 -0.007032
0.011585 0.002640 0.045216
-0.043886 -0.026539 0.005622
0.042907 -0.055260 -0.071634
0.029484 -0.065557 0.011105
0.021144 -0.057675 -0.087983
-0.008189 0.056923 0.090307
-0.031877 -0.013004 -0.034779
-0.031337 0.025921 0.056048
-0.030277 -0.069033 -0.083105
-0.021000 0.016145 0.054011
-0.011558 -0.100673 0.016682
0.028607 0.066558 0.084887
-0.054186 0.039518 0.017324
-0.037630 -0.113863 0.002874
-0.046322 0.003485 -0.019951
-0.020752 -0.017639 0.028473
0.050794 -0.042381 -0.053732
0.030908 0.018757 0.048311
-0.054369 0.060795 -0.025597
0.031751 0.007448 -0.025868
-0.039914 0.030622 -0.030240
0.054716 0.063756 -0.036695
-0.011558 -0.100673 0.016682
-0.032661 -0.015468 0.022226
-0.021370 -0.067669 0.015303
0.048714 0.087349 0.044186
0.015508 0.119430 0.042873
-0.042445 0.088530 0.069678
-0.049000 0.080711 0.052391
0.055005 0.068338 -0.036695
-0.046951 0.098139 -0.036695
0.005476 -0.104367 -0.091925
0.050810 0.037538 -0.011147
-0.030523 0.113511 0.035453
-0.014990 0.086927 0.087630
0.013147 -0.016554 -0.045187
0.021455 -0.020015 -0.048159
-0.022789 -0.073083 -0.087263
0.041160 0.090160 0.070646
-0.001910 -0.063391 0.020131
0.051087 -0.102974 -0.057619
-0.013548 -0.003495 -0.030636
0.037729 -0.070295 0.004191
0.000767 0.093770 0.087071
-0.051789 0.049550 -0.025578
0.039138 0.065553 0.077518
0.036590 0.094432 0.072692
-0.016954 0.080460 0.088714
0.046818 -0.108514 -0.066084
-0.024420 0.016637 -0.028050
0.003976 -0.041640 -0.085911
0.044052 -0.016089 0.010028
0.035632 -0.023217 0.016098
0.032711 -0.018436 -0.040082
0.036491 -0.016043 -0.036038
0.019470 -0.006328 -0.031875
-0.013633 0.113992 0.069613
-0.016953 0.099989 0.081005
0.021215 0.119009 0.033990
-0.044018 -0.060692 -0.070162
-0.041563 -0.035042 -0.059409
-0.035292 0.022808 -0.026302
-0.005959 0.091287 0.087799
-0.009582 0.120959 0.042660
-0.024886 -0.044625 -0.081006
0.040541 -0.037308 0.005981
-0.046543 0.067537 0.069393
0.039772 0.024670 0.042167
0.052613 0.053337 -0.033633
0.033650 0.112986 0.027076
0.053853 -0.036221 -0.020623
-0.034091 -0.021070 -0.042773
-0.054796 -0.043571 -0.041460
0.023315 -0.010804 -0.034792
0.051971 0.026541 -0.002720
0.004994 -0.012249 0.035860
0.025402 0.020045 -0.031968
0.031910 0.015711 -0.025717
0.046584 0.010682 -0.017418
-0.011141 0.085799 0.088864
-0.047182 -0.014976 -0.028566
0.036007 0.022543 0.045876
0.017891 0.007977 0.047513
-0.013731 -0.051538 -0.088869
-0.052747 0.053853 -0.033280
0.031924 0.094764 0.076269
0.028044 0.059596 0.084332
0.039460 -0.031824 -0.056629
-0.023528 -0.049748 -0.084405
-0.039933 0.092805 0.070312
0.027079 -0.048099 -0.081908
-0.043399 -0.001383 0.018461
-0.028510 -0.103976 -0.084229
0.039955 -0.089599 0.001068
0.051503 -0.065374 -0.017007
0.045151 -0.027904 -0.043435
-0.033067 0.024110 -0.029740
-0.026089 0.116651 0.033684
0.039822 -0.002874 -0.026205
0.050865 -0.032920 -0.041471
-0.002937 -0.010848 -0.037574
0.038496 -0.006701 0.021500
-0.045490 0.044794 0.051132
0.043990 -0.052313 -0.069790
-0.047170 -0.025902 -0.038355
0.028389 0.032629 0.069930
-0.045103 0.025995 -0.018756
-0.027275 -0.014302 -0.037315
-0.030002 0.115482 0.027585
-0.025177 0.112761 0.053736
0.021337 0.022737 0.061913
-0.030523 0.113511 0.035453
-0.054610 0.057458 0.002811
-0.021548 -0.025268 0.024501
-0.031440 -0.010732 0.025687
-0.045023 -0.008909 -0.026411
0.051627 -0.019066 -0.025625
-0.017212 0.037088 0.079686
0.045800 -0.061344 -0.005245
0.039473 -0.057149 0.003242
0.010543 -0.018557 -0.050327
0.010476 -0.040283 -0.083790
-0.046318 -0.124512 -0.033982
0.048404 -0.088903 -0.010656
0.053046 -0.021843 -0.024776
-0.012698 0.024875 0.070206
-0.026744 -0.124512 0.010848
-0.042255 -0.008717 -0.027998
0.021252 0.006010 -0.027331
-0.008190 0.041449 0.084614
-0.040838 -0.048501 -0.072092
-0.053136 0.083607 0.024523
0.018607 0.082831 0.087670
-0.054088 0.024986 0.005020
-0.044069 0.054630 0.069702
-0.045675 0.038289 -0.031219
-0.017618 0.017385 -0.036695
0.040516 0.028986 0.045179
0.029938 -0.025071 -0.052504
-0.014957 -0.124512 0.015744
-0.003543 0.013194 -0.031135
-0.026234 -0.057696 0.013760
-0.021935 0.015104 -0.028033
0.008769 -0.108539 0.017112
-0.049814 -0.012789 -0.024114
0.039386 0.044626 0.069666
-0.037734 0.027687 -0.028833
0.043878 0.096601 0.045975
-0.040666 0.099686 0.050597
0.003170 -0.014921 0.034492
-0.027944 -0.041381 0.015522
-0.008160 0.123805 0.027697
-0.050358 0.025159 0.021335
0.025303 0.019450 -0.030640
-0.031618 -0.004745 0.029056
0.010728 -0.021430 -0.056436
-0.015514 -0.026647 -0.064859
-0.045972 -0.111248 -0.007032
0.031239 -0.005996 -0.030038
0.009504 -0.113680 0.016979
-0.042332 -0.025849 0.007896
0.054781 -0.046045 -0.031499
-0.042638 0.104197 0.026556
-0.022659 0.017537 -0.029791
-0.036737 -0.003546 0.025093
-0.012475 0.004023 -0.027985
0.042551 0.007376 -0.021787
0.042828 0.034568 0.046386
0.033242 0.025229 -0.032516
0.052575 0.028178 0.017337
-0.022241 0.013424 -0.027328
0.049713 -0.093719 -0.013361
-0.053723 -0.042439 -0.045767
-0.015202 -0.063573 0.017931
-0.023268 -0.018375 -0.044285
0.047890 0.008087 0.016827
-0.034317 -0.092907 0.006140
-0.047003 -0.089811 -0.065741
0.052607 0.053542 0.030413
0.009160 -0.043682 -0.086415
0.030789 -0.036807 0.014929
-0.051143 -0.019947 -0.004117
0.031278 -0.047565 -0.079321
0.042472 0.033641 -0.030474
-0.012294 -0.016699 -0.045779
-0.040862 0.018081 -0.021753
-0.019358 -0.057739 -0.088675
0.032197 -0.032126 0.015426
-0.050166 -0.050749 -0.059523
-0.004220 0.023367 0.070321
-0.038970 -0.007573 -0.028798
0.027795 0.020940 -0.030643
-0.014730 -0.021705 0.028715
0.032654 0.036328 0.069850
-0.013119 0.116046 0.061821
-0.051620 -0.037663 -0.046981
-0.043115 0.002371 -0.022721
-0.049976 -0.088860 -0.013884
0.054971 -0.035946 -0.028872
0.043496 -0.009438 0.014058
-0.049886 -0.028095 -0.036923
-0.053036 0.000586 0.002261
0.036737 0.025898 -0.027750
0.054995 -0.100792 -0.035641
0.048291 0.039626 -0.023787
-0.021206 0.091037 0.084026
-0.010411 0.118600 0.053495
0.040748 -0.022410 0.011256
0.007489 -0.096877 0.017494
-0.018060 -0.052876 -0.087915
-0.025592 -0.026271 -0.058358
-0.038601 0.090919 0.072816
-0.028432 -0.015883 -0.038693
0.054947 0.035851 0.012721
-0.034001 -0.005555 -0.029230
-0.027953 -0.115679 0.010138
-0.045655 -0.072540 -0.067851
-0.020110 0.111228 0.070123
-0.024070 -0.055155 -0.086138
0.045164 -0.036338 0.000311
0.045450 0.060455 0.070167
0.035187 0.088163 0.077081
0.008083 0.114734 0.070734
0.014816 0.033166 0.077611
0.047189 -0.002412 -0.021471
-0.014957 -0.124512 0.015744
-0.046255 -0.104973 -0.066936
0.032318 -0.111892 -0.081714
0.050987 0.023022 -0.006122
-0.019447 -0.089931 0.014708
0.013857 0.014865 -0.030764
0.000898 -0.046142 -0.088700
0.013422 -0.021981 -0.056503
0.037681 0.109460 0.027338
-0.032932 0.029945 0.059264
-0.006701 0.060592 0.091170
-0.035489 0.022535 0.046563
0.002724 0.009707 0.053465
0.054135 -0.023800 -0.023207
-0.046404 -0.018584 -0.032097
-0.005245 -0.032075 -0.076281
0.029484 -0.065557 0.011105
-0.051012 0.001462 -0.014712
-0.038440 0.042997 0.069330
-0.002239 0.090440 0.088389
-0.053175 -0.040610 -0.046003
0.037857 0.085441 0.075935
-0.019358 -0.057739 -0.088675
0.044566 0.027713 -0.020458
0.035674 0.012151 -0.024505
0.050794 -0.042381 -0.053732
-0.017965 -0.009347 0.034336
0.036836 -0.021550 -0.041823
-0.042039 0.050664 0.070586
0.013146 -0.018724 -0.049627
0.019824 0.040277 0.080721
-0.052362 -0.027156 -0.031013
0.037644 0.109620 -0.036695
0.007087 0.105756 0.079475
0.050294 -0.114939 -0.014951
0.010562 -0.030529 0.026068
-0.022661 0.029580 0.070824
-0.009757 0.010173 -0.028052
-0.045127 0.058905 0.070096
-0.051143 -0.019947 -0.004117
-0.041145 -0.005254 0.019251
-0.032661 -0.015468 0.022226
-0.040132 0.047361 0.070889
0.009826 -0.038622 -0.082623
-0.036334 -0.001865 -0.026992
-0.052732 -0.096807 -0.052799
0.021008 -0.112850 0.013626
0.026961 0.021298 -0.033618
0.043323 0.042878 0.055620
0.036427 -0.033618 0.011366
0.006530 -0.013347 -0.040932
0.006477 0.025096 0.072025
0.023369 -0.042188 -0.080100
0.045046 0.058964 0.070318
0.002688 0.013960 -0.032757
-0.044397 -0.104521 -0.004664
-0.040102 -0.082993 0.001133
0.035525 -0.086673 0.005389
-0.028007 0.021134 0.053948
0.053749 0.038568 0.018538
-0.003402 0.013734 -0.032112
-0.000752 -0.053241 -0.091347
-0.046226 0.019372 0.026526
0.051128 -0.037066 -0.047417
0.048470 -0.003981 -0.020875
0.054881 -0.103579 -0.041027
-0.025708 -0.078070 -0.085820
0.046491 -0.039860 -0.058922
-0.044307 0.011074 -0.019634
-0.051722 -0.089738 -0.055876
-0.006230 -0.051770 -0.090525
0.054995 -0.100792 -0.035641
0.053046 -0.021843 -0.024776
0.046281 0.039136 -0.030964
-0.020233 -0.048970 -0.085509
-0.044171 -0.047320 -0.001166
0.034071 -0.113980 0.005954
0.045540 0.062143 0.070531
0.045144 0.026469 -0.018962
0.047868 -0.045060 -0.061043
0.055016 -0.041793 -0.036581
-0.031591 -0.040743 -0.074799
-0.017480 0.023899 0.066181
0.050482 0.070878 0.050794
-0.046964 -0.072612 -0.065805
-0.043252 -0.063051 -0.001693
-0.035571 0.029853 0.054966
-0.027953 -0.115679 0.010138
0.028883 -0.103278 -0.084014
-0.040615 -0.047970 0.003222
-0.049943 -0.109205 -0.060206
-0.045674 -0.089299 -0.067822
0.041998 0.066853 0.074984
0.025588 0.065142 0.086322
-0.053014 0.069948 0.036140
-0.009666 0.059176 0.090523
-0.052232 0.035813 -0.002918
-0.027044 0.021121 -0.032474
-0.036982 -0.011161 -0.031822
0.033643 0.025835 -0.034422
-0.026940 -0.056410 -0.085020
0.003739 -0.062967 0.020089
0.002916 -0.034525 0.025750
-0.045004 -0.065402 -0.068800
-0.005933 -0.046073 -0.088283
-0.030627 0.084380 0.081598
-0.027597 0.032526 0.070514
-0.023798 0.111543 0.061861
-0.049888 -0.003872 0.006701
-0.053676 -0.030107 -0.030249
0.054513 -0.122479 -0.037195
0.053914 -0.013124 -0.007791
-0.049923 0.011966 -0.011900
0.047503 -0.089336 -0.009054
0.019606 -0.043256 0.019335
0.029911 0.015315 0.045910
0.027780 -0.028814 0.019714
-0.041738 0.025249 0.039212
0.022330 -0.050196 -0.085164
-0.037796 0.037394 0.061560
0.010457 0.117314 0.059315
0.050773 0.048227 -0.034238
0.037522 0.054928 0.076718
-0.022595 0.079389 0.086897
0.052506 -0.026702 -0.030308
0.030151 0.083119 0.082274
-0.017453 0.010481 0.050121
0.000004 -0.012484 -0.039966
-0.041326 -0.027016 -0.046129
-0.032344 0.016041 -0.025617
-0.038970 -0.007573 -0.028798
-0.002298 0.014587 0.058833
-0.045751 -0.014715 -0.029677
0.011585 0.002640 0.045216
-0.032242 0.010462 0.039293
-0.047314 0.040989 -0.031460
0.038307 0.023869 0.043766
-0.035967 -0.098930 0.004592
-0.045600 0.060643 0.069847
0.005912 -0.088335 0.018008
0.001571 -0.018720 0.032536
0.015767 0.015009 0.055700
-0.032088 0.057836 0.081544
-0.043929 -0.016102 -0.032161
0.034539 0.012104 0.038226
-0.028681 0.055430 0.083002
0.028200 0.027572 0.062196
0.002677 0.014256 -0.033703
0.000139 0.010891 0.054869
0.049790 0.079249 0.050022
0.012161 -0.043865 -0.085761
-0.013936 0.011623 -0.028094
0.042831 -0.026745 -0.044295
0.034208 0.021947 -0.026465
0.001761 -0.005237 -0.032158
0.000050 -0.006435 -0.033064
0.005862 0.013782 -0.031677
-0.054440 -0.060774 -0.029056
-0.011670 -0.041003 0.022442
0.035504 -0.035193 -0.066161
-0.054593 -0.006515 -0.009393
0.028643 0.003899 0.037325
0.052400 0.070874 0.040058
0.005204 -0.002673 0.042287
-0.018903 0.004186 -0.027735
-0.046314 0.014430 0.023249
-0.039207 0.044642 0.069982
0.010274 -0.011483 -0.037770
-0.044307 0.011074 -0.019634
0.045450 0.060455 0.070167
0.022090 0.103933 0.076099
-0.008022 -0.056968 0.020246
-0.053396 -0.043808 -0.021331
-0.018639 -0.004798 -0.031006
-0.033894 0.021818 -0.026542
-0.033834 0.083711 0.079666
-0.039620 0.020549 -0.022949
-0.050488 -0.049826 -0.013250
-0.033158 0.077155 0.081612
-0.035644 0.098587 0.070653
0.028702 0.080513 0.083744
-0.050848 -0.042194 -0.012417
-0.046214 0.066274 0.070156
0.011719 -0.030797 -0.073005
-0.029589 -0.052122 -0.082240
-0.001350 0.006845 -0.027794
-0.046994 -0.063018 -0.065755
0.029699 0.104607 0.070704
0.044757 -0.105150 -0.069181
0.013111 -0.096518 0.016444
-0.054518 -0.098447 -0.044383
-0.052680 -0.073100 -0.052971
-0.037907 -0.045837 -0.073598
-0.021238 -0.124512 0.013551
-0.016351 -0.049681 0.019220
-0.054088 0.024986 0.005020
-0.016658 -0.025034 -0.061265
-0.019358 -0.057739 -0.088675
-0.037734 0.027687 -0.028833
-0.014065 0.077693 0.089965
0.007527 -0.124512 -0.091700
-0.042052 0.032683 0.045959
-0.027628 0.085573 0.082982
-0.014388 0.014722 -0.030306
-0.053169 -0.056778 -0.022369
-0.022864 0.019461 -0.036695
0.041088 0.029655 -0.026375
0.001761 -0.005237 -0.032158
-0.021473 -0.009344 -0.033844
-0.030837 -0.057137 -0.082735
-0.040451 0.014616 0.032675
0.029628 -0.007214 -0.031043
0.000013 0.018990 -0.036695
0.040453 -0.043295 0.004477
-0.037342 -0.081269 -0.077568
-0.039937 0.015886 -0.022384
-0.054900 -0.050311 -0.034212
-0.022398 0.016132 -0.028512
0.014091 0.081338 0.089321
0.040342 0.010121 -0.022624
0.016784 0.016919 -0.034218
0.051009 -0.050212 -0.057647
-0.036865 -0.021918 -0.042277
0.022920 0.116489 0.042690
0.000685 -0.094960 0.018059
-0.052345 0.028313 -0.001246
0.028899 -0.051983 -0.082603
-0.013640 -0.056857 -0.090369
-0.015264 -0.091339 0.016047
0.025646 -0.021194 -0.047947
-0.048508 0.043573 -0.036695
0.022090 0.103933 0.076099
0.029564 -0.052684 0.012252
-0.051984 -0.080939 -0.055119
-0.052878 0.038664 0.021396
0.037474 -0.009299 -0.030400
-0.052657 0.050760 -0.021162
0.023739 -0.015826 0.027946
-0.054863 -0.067534 -0.033218
-0.043810 -0.043813 -0.066029
0.015508 0.119430 0.042873
0.041809 -0.102504 -0.072951
-0.049379 -0.111429 -0.013008
-0.051283 0.009625 -0.010130
-0.010474 -0.026574 -0.066436
-0.029556 0.105440 0.069541
-0.026682 0.037269 0.075193
-0.035205 0.019312 -0.025126
-0.008440 0.119861 0.049221
0.037100 0.006495 -0.024555
0.054682 0.060709 -0.007356
-0.038385 -0.076331 0.003198
-0.046732 0.095726 0.034642
0.042519 0.032483 -0.027696
-0.054978 0.068185 -0.023968
0.032946 -0.051489 0.009958
-0.037525 0.005376 -0.024596
0.022425 0.112384 0.061600
0.051588 0.031088 -0.004336
-0.009291 0.012834 -0.029595
-0.013501 0.016107 -0.035172
0.009692 0.051189 0.088527
-0.047538 -0.053913 -0.007669
-0.040902 -0.077574 -0.073953
-0.001262 0.051607 0.089478
0.008837 -0.051856 0.020765
-0.034389 0.059717 0.080375
0.048431 0.037189 -0.020205
0.041552 0.029153 -0.025269
0.005022 0.047803 0.087927
-0.048978 0.042337 0.036702
-0.024571 0.002981 0.039512
-0.007376 0.117886 0.059308
0.009315 -0.018738 0.031547
0.029947 0.092948 0.078617
-0.038941 -0.080709 -0.076024
0.050673 0.073143 0.049335
-0.002513 0.115750 0.070126
-0.042416 0.012755 -0.020894
0.003197 0.053310 0.089909
0.029925 0.029022 0.062187
-0.033085 0.104700 0.061710
-0.054961 -0.124512 -0.035017
-0.004571 -0.100990 -0.092010
-0.038059 0.017515 -0.023525
0.036237 0.058502 0.078763
0.005834 -0.049457 0.021626
-0.037037 -0.030288 0.011942
-0.022885 0.114059 0.053623
-0.054697 -0.057874 -0.031198
0.037672 -0.045123 0.006984
0.036836 -0.021550 -0.041823
-0.008793 0.115231 0.069514
0.041232 -0.041295 -0.067117
0.006731 0.084531 0.089907
0.051410 0.043718 0.029325
0.050062 -0.014553 -0.024953
-0.003599 -0.085765 0.018339
0.004925 0.000848 -0.028961
0.016991 -0.032685 -0.073804
0.014633 -0.029331 -0.069800
-0.012604 0.089248 0.087440
-0.036777 -0.023507 -0.044566
-0.040465 -0.001882 -0.025541
0.018567 -0.056733 -0.088855
-0.035880 0.027319 -0.032288
0.054277 0.060435 -0.031774
0.036035 0.026027 -0.028850
-0.030623 0.063742 0.083471
-0.054582 -0.052867 -0.030197
-0.002172 -0.016881 -0.048725
0.054312 0.054795 -0.002090
0.042379 -0.022649 -0.039387
0.048918 0.094685 -0.036695
-0.014065 0.077693 0.089965
-0.020506 0.045755 0.083355
-0.009881 0.095289 0.085462
0.029337 -0.038719 0.015355
0.022033 0.110502 0.069587
0.032946 -0.051489 0.009958
0.041389 0.103104 0.036617
0.020826 0.020268 0.059045
-0.011594 -0.092659 0.016916
0.008212 0.059137 0.090743
-0.037037 -0.030288 0.011942
-0.046318 -0.124512 -0.033982
0.016145 -0.034937 0.022976
0.036822 0.073781 0.079384
0.007285 0.014755 0.058281
0.038381 0.000186 -0.025621
-0.017220 0.112488 0.070163
-0.016965 0.028426 0.072505
0.022634 -0.040154 0.018781
0.040294 0.012493 0.031401
-0.023798 0.111543 0.061861
-0.048206 0.039513 -0.023790
-0.019679 -0.035642 -0.076154
-0.048922 0.017508 -0.011904
-0.043970 0.018017 -0.018950
0.039125 0.091093 0.072226
-0.054391 -0.045469 -0.027689
-0.021908 0.014245 -0.027651
-0.040934 -0.124512 -0.073951
-0.002820 -0.014295 -0.043004
0.008337 0.115062 0.070137
0.021171 -0.051362 0.017076
0.052390 0.048279 -0.017892
-0.054559 -0.045642 -0.044110
0.026973 -0.103913 -0.085136
0.047056 0.039667 -0.028341
-0.033890 0.010930 -0.025092
0.037522 0.028287 0.049812
-0.014691 0.025624 0.070373
-0.053014 -0.030493 -0.032741
-0.010872 0.043304 0.085098
-0.053436 0.034780 0.003511
-0.031866 0.013321 -0.025591
-0.055016 -0.064553 -0.037420
0.047219 0.013490 -0.015794
0.008214 0.041447 0.084613
0.022442 -0.110312 -0.087421
0.020009 -0.032811 -0.072692
0.023139 0.018288 -0.030603
-0.051784 -0.023438 -0.028847
-0.054893 0.002830 -0.002249
0.008097 -0.030184 -0.072975
-0.023955 0.106863 0.072541
0.054360 0.048729 0.006924
0.016276 -0.043991 -0.084423
-0.043341 0.059970 0.072555
-0.043025 -0.057247 -0.001056
-0.045121 -0.025678 0.004243
0.005902 -0.037082 -0.081999
0.052143 -0.046449 -0.017142
0.003751 0.080163 0.091138
-0.012698 0.024875 0.070206
-0.046951 0.098139 -0.036695
-0.054174 -0.073624 -0.046629
-0.002238 0.098697 0.084569
0.013696 0.114000 0.069564
-0.005971 0.115093 0.070686
-0.048433 -0.072347 -0.010288
0.023739 -0.015826 0.027946
-0.039595 0.046015 0.070625
0.052599 -0.106397 -0.021039
-0.000180 -0.035067 0.025738
0.047056 0.039667 -0.028341
0.010838 -0.050386 0.020621
-0.025340 0.068230 0.086581
0.044829 -0.005959 -0.024973
-0.054087 0.072678 0.028708
-0.006757 -0.016326 -0.046627
0.048557 0.091184 0.036938
-0.037040 -0.046580 0.007246
0.008721 0.009081 -0.027865
-0.021904 0.053236 0.085653
-0.052232 0.035813 -0.002918
-0.016857 0.001897 0.042732
0.041360 0.060310 0.074701
0.039065 0.029120 -0.028974
-0.006652 0.013328 -0.030731
-0.007264 0.013825 -0.031366
-0.051358 -0.018705 -0.025791
0.054963 0.065727 -0.000919
-0.023592 0.019899 0.056466
0.046130 0.056364 0.063621
0.053220 -0.124511 -0.023301
0.026065 0.018848 -0.029069
-0.008881 -0.012874 -0.039871
-0.051384 -0.062167 -0.056782
0.002249 -0.017210 -0.049477
0.016166 0.068224 0.089996
0.047680 -0.005323 -0.022333
0.014075 -0.054570 -0.089713
0.030022 0.115488 0.027577
-0.009548 -0.108229 -0.091360
-0.009666 0.088733 0.088210
-0.052554 0.075860 0.037203
-0.053373 0.041810 0.021141
-0.010358 -0.000427 -0.029326
0.030664 0.058603 0.082630
0.043422 -0.066223 -0.002047
-0.015088 0.015773 -0.031837
0.050836 0.011864 -0.010132
0.048065 -0.066989 -0.009349
0.002261 0.048143 0.088241
0.051229 0.029598 -0.005363
-0.035135 0.025242 -0.028835
0.032946 -0.051489 0.009958
-0.029659 0.005983 -0.026417
0.055007 -0.119514 -0.036198
-0.030085 0.115536 -0.036695
0.040132 -0.114112 0.000389
-0.025177 0.007494 0.042754
0.035349 -0.044931 -0.075171
-0.054326 -0.041927 -0.042653
-0.039108 0.087996 0.073742
-0.046105 -0.040614 -0.002469
-0.044963 0.028333 -0.020171
0.042379 -0.022649 -0.039387
0.048225 0.040138 0.037341
0.048291 0.039626 -0.023787
0.049340 0.067146 0.056210
0.042423 0.063701 0.074239
0.041957 -0.051254 -0.071930
-0.032637 -0.063607 0.009001
-0.045692 -0.081731 -0.067796
-0.025286 0.030410 0.069888
0.046004 0.001020 -0.021148
-0.046240 0.019937 -0.016030
0.003866 -0.053000 0.021244
-0.036517 -0.015940 -0.035918
0.000311 0.124512 -0.036695
0.031181 0.114818 0.026572
-0.023289 0.097351 0.079965
-0.040902 -0.077574 -0.073953
0.054969 0.043892 0.015423
0.028607 0.066558 0.084887
-0.050180 0.060417 0.047993
0.032264 0.022115 -0.027795
-0.015853 -0.051502 -0.088195
0.032593 -0.023097 -0.046817
0.011899 0.037573 0.081610
-0.021429 -0.020458 -0.049018
0.051583 0.037872 -0.007512
-0.009595 0.123661 -0.036695
-0.037104 0.028743 0.050997
-0.018381 0.059545 0.088449
0.044306 -0.038205 -0.060173
0.018413 -0.051733 -0.087398
0.051208 -0.051068 -0.057313
-0.019585 -0.007593 -0.032736
0.009734 0.031046 0.077227
