0.008139 -0.053528 0.016645
0.007136 0.018096 -0.018815
0.010001 0.056228 0.007622
0.019727 0.031012 -0.012114
0.031101 0.020566 -0.010306
-0.010159 0.037059 0.016184
-0.036818 -0.003715 0.026937
0.010959 0.013936 -0.018850
0.019758 0.061095 -0.001800
0.020623 0.018316 -0.013256
-0.037254 -0.039428 0.027400
0.022518 -0.005027 0.017907
-0.053431 -0.046824 0.007955
0.054406 0.009666 -0.002413
-0.046061 -0.054137 0.005518
-0.005385 0.042257 0.011581
-0.006927 0.039693 0.014837
0.016133 0.031718 -0.011261
-0.003078 0.044326 -0.007450
-0.032755 -0.060325 -0.027201
0.025912 0.012391 -0.011404
0.043395 -0.000696 0.014866
0.025981 0.012451 -0.013130
0.026215 -0.027731 0.012965
-0.001857 0.043702 -0.010171
0.024644 -0.010587 -0.027201
0.000422 0.044458 -0.007930
-0.000905 0.043241 0.014869
-0.056721 -0.054746 0.009395
-0.008962 0.038897 0.013672
0.037712 0.048764 0.004800
0.049566 0.029840 0.016485
-0.011341 0.038330 0.002351
0.016280 0.061028 0.011744
0.045896 0.000408 0.015196
0.015695 0.058448 -0.004367
-0.017173 0.009132 0.027400
-0.054974 -0.056898 0.002826
-0.003688 -0.014755 0.019432
0.013940 0.010457 0.017514
-0.001801 -0.010040 0.027400
-0.045663 -0.052414 0.003150
0.061589 0.018522 0.013512
0.039988 -0.008590 -0.007845
0.010778 -0.015161 0.027400
-0.055463 -0.053893 0.001647
0.016546 0.057687 0.016929
-0.057720 -0.053132 0.007120
0.023520 0.054211 0.016603
-0.003405 -0.022506 0.019712
-0.058682 -0.053167 0.006066
0.004113 0.047888 -0.009063
0.007227 0.050383 -0.004825
-0.004122 0.039965 -0.012785
0.027160 -0.022798 0.015325
0.006790 0.017066 -0.021400
-0.034739 -0.038619 0.017900
0.052734 0.009694 -0.007022
0.003763 0.047376 0.014326
0.024113 -0.015025 0.018190
-0.056178 -0.054673 0.003273
0.046134 0.002615 -0.007275
0.002897 0.046611 -0.009679
0.056327 0.012038 0.004800
0.047514 0.000764 0.013766
-0.028081 0.026727 -0.016592
0.002658 0.019650 0.017287
-0.014113 0.034684 0.008622
0.017298 0.032543 -0.008739
-0.048935 -0.055763 0.005663
0.010565 0.053023 0.015391
0.056965 0.027259 0.000096
0.025394 0.012776 -0.013246
0.002017 -0.034939 0.027399
-0.009290 0.036759 0.012487
-0.057837 -0.053937 0.004195
0.062310 0.020187 0.004800
-0.024267 0.028793 0.014262
0.038217 -0.007463 0.016820
-0.004387 0.041396 -0.002719
-0.033834 -0.014386 0.026404
-0.046967 -0.007253 0.027400
0.052181 0.009043 0.014735
-0.009466 0.037596 -0.007898
-0.056412 -0.054438 0.009395
0.031813 -0.019529 -0.015650
0.008978 0.052704 -0.006844
-0.005063 0.040455 0.016546
-0.052422 -0.057780 0.007743
-0.031467 0.024246 -0.013994
-0.052272 -0.057927 0.006874
-0.058890 -0.001289 -0.027400
0.011077 0.019952 0.015492
-0.053157 -0.045920 -0.021200
0.041001 -0.007184 -0.008273
-0.049001 -0.047661 0.000784
0.018221 0.032517 -0.010661
-0.036258 0.021664 0.016790
-0.054733 -0.058059 0.003082
-0.050899 -0.048289 -0.027400
0.028705 -0.021488 0.015609
-0.054587 -0.055891 0.009888
0.012519 0.055428 0.012539
-0.017566 -0.034377 0.026399
0.003288 0.046352 0.017113
0.024330 -0.009050 -0.021599
-0.036861 -0.028643 0.026900
0.022171 0.002560 0.014908
0.037800 -0.009190 0.013874
0.025166 -0.014254 -0.021599
0.010580 0.054675 -0.002278
-0.056106 -0.055646 0.002939
0.012832 0.055553 0.011891
-0.035810 0.002310 0.027399
-0.004222 -0.036303 0.027400
0.023231 -0.032144 -0.005178
-0.053687 -0.055744 0.002598
0.021165 0.062120 0.010324
0.025995 -0.029305 -0.016151
0.043478 -0.004023 0.013764
0.028287 0.052870 -0.002978
-0.031690 0.023855 0.007889
-0.050394 0.011467 0.017406
0.020344 0.061312 -0.001173
-0.050884 -0.049314 0.002489
0.030566 0.021199 -0.010270
0.054261 0.031582 0.009593
0.055922 0.009854 0.000568
-0.047983 -0.051336 0.016899
0.024951 0.012097 -0.011656
0.036882 -0.010439 0.012037
-0.005453 0.039672 -0.008856
-0.002152 -0.025648 0.027400
0.021197 0.001946 -0.018828
0.017384 0.058465 0.016655
-0.033031 -0.024718 0.019561
-0.011165 0.035417 -0.001487
0.044186 -0.003131 0.013788
0.011034 0.055087 -0.001342
0.009984 -0.052025 0.016665
0.012555 0.055582 0.007385
-0.051161 -0.049038 0.000806
-0.000103 0.045181 -0.007989
-0.053945 -0.055485 0.002481
-0.000208 0.034612 0.017385
-0.022522 -0.062478 -0.027201
0.056333 0.010245 0.007574
0.031203 0.015935 -0.009848
-0.013685 0.024841 0.017406
0.025376 -0.019641 -0.021604
0.011454 -0.009240 0.026401
0.003542 0.050054 -0.004932
0.037565 0.044980 0.015603
0.026050 -0.030384 -0.014001
0.003157 0.020973 -0.016384
0.053481 0.008591 0.013982
0.027670 -0.021655 -0.018722
0.053004 0.010000 -0.003907
-0.054252 0.006088 0.017907
-0.001612 -0.027669 0.027400
0.023632 -0.030836 -0.014712
-0.052089 -0.057348 0.004773
0.020122 0.053951 -0.005022
0.043070 -0.002869 0.010276
0.050272 0.032993 0.014872
-0.031616 0.024602 -0.013473
-0.016222 -0.003384 0.019413
-0.056490 -0.056421 0.008160
0.036165 0.050151 0.010438
0.055962 0.009827 0.010673
-0.052464 -0.058171 0.007086
0.014570 0.009970 -0.021400
0.020994 0.019462 -0.014105
0.007263 0.051824 -0.006496
0.012063 0.055209 0.003265
-0.032001 -0.026933 0.019749
0.030206 -0.022210 0.014438
0.027662 -0.004522 0.015369
0.030080 -0.022202 -0.001200
-0.012232 0.035844 0.000749
0.027596 -0.023617 0.015003
0.036115 -0.011524 -0.004306
0.055322 0.012274 -0.005888
0.022918 -0.004127 0.014900
0.014100 0.023764 -0.011879
0.012043 0.026071 -0.011774
-0.022416 -0.062449 0.016734
0.049960 0.006595 0.014823
-0.005453 0.039672 -0.008856
0.005338 0.048690 0.014887
0.055607 0.012524 0.006261
-0.032118 0.024441 0.006026
-0.054777 -0.041780 0.018198
-0.003008 -0.033750 0.027399
-0.003840 0.042077 -0.009315
0.060231 0.016222 -0.002215
0.036882 -0.010439 0.012037
-0.010575 0.037156 0.011146
-0.055682 -0.054796 0.002881
0.038483 -0.010354 0.012208
-0.015933 0.007694 0.027299
-0.057559 -0.051831 0.006927
0.053567 0.009364 -0.003804
0.035834 0.037071 -0.006106
0.027417 0.014155 -0.014219
-0.060932 -0.028197 0.017875
-0.052613 -0.057851 0.007514
0.055371 0.011346 0.011864
0.035872 -0.012109 -0.001200
-0.048075 0.013214 0.017875
0.011244 0.055778 0.002304
-0.022187 -0.061390 0.018198
-0.056609 -0.055057 0.003176
-0.011734 -0.004444 0.026407
-0.005009 0.040831 -0.000693
-0.030070 0.026902 0.001955
0.024643 -0.006325 -0.018654
0.004983 0.048233 0.015400
-0.016627 -0.061005 0.018364
0.034007 -0.008849 0.017234
-0.045025 -0.051637 0.003144
-0.057454 -0.051905 0.009301
0.039050 -0.007396 -0.012735
-0.055844 0.004535 -0.021400
0.018218 0.005450 -0.021599
-0.046980 -0.053247 0.008556
-0.058364 -0.053086 0.004404
-0.056234 -0.056669 0.006071
0.006104 0.026405 -0.014516
-0.045196 -0.051467 0.009949
0.022834 -0.000943 -0.016847
-0.045059 -0.053017 0.007036
0.010349 -0.006239 0.019401
0.038185 -0.011431 0.005860
-0.054252 0.006088 0.017907
0.005652 0.049133 0.014818
0.043313 -0.004290 0.013143
-0.024927 0.024592 0.017514
0.004123 0.047694 -0.006454
0.025936 0.056983 -0.001311
-0.044804 -0.044789 0.002846
0.017069 0.059798 -0.003411
-0.039297 -0.037667 0.027399
-0.009664 0.037613 0.013669
-0.019889 0.031594 0.009598
-0.050811 -0.045852 0.004398
0.024193 -0.010112 0.017510
-0.035441 -0.059317 -0.021599
-0.046632 -0.050030 0.009618
0.022918 -0.004127 0.014900
-0.019734 -0.049134 0.027400
0.019481 -0.038344 0.018198
-0.038579 -0.034647 0.026938
-0.003008 -0.003501 0.027399
-0.037376 0.021213 -0.021599
-0.009688 0.036633 0.011749
0.061976 0.018391 0.011367
0.032337 0.019168 -0.010526
0.007769 -0.003319 0.027400
-0.054067 -0.056857 0.002657
-0.001870 0.008068 0.026401
-0.058089 -0.052711 0.008211
0.036010 -0.011701 0.007002
0.060422 0.018269 0.015457
0.017714 0.061944 0.004800
0.000415 -0.007773 0.026900
0.035148 -0.011482 0.004737
-0.029413 0.025305 -0.016714
-0.046270 -0.008651 0.027400
0.010490 0.015839 -0.016123
0.052678 0.032471 0.000081
0.024111 -0.031800 -0.012909
0.050781 0.004387 0.013770
-0.056976 -0.052415 0.003897
-0.058885 -0.053220 0.007072
0.000403 -0.033839 0.017900
0.062182 0.021294 0.009554
-0.014484 0.033948 -0.015618
-0.061795 -0.025447 0.017481
0.017853 0.061386 0.013725
-0.005074 -0.011410 0.019409
0.028172 0.005558 0.016992
-0.000721 0.044641 0.015874
-0.021360 0.007668 0.027299
-0.003783 0.043676 -0.007895
-0.056704 -0.056237 0.003474
-0.058718 -0.052922 0.007065
0.024790 -0.028396 0.012544
0.050976 0.023315 0.017177
0.057753 0.023995 -0.002009
0.026492 -0.030527 -0.010873
-0.046503 -0.053695 0.003710
0.012702 0.055205 0.012720
-0.004255 0.043333 0.012719
-0.060503 -0.010514 0.018301
-0.019946 0.026682 0.014937
-0.030988 0.023607 0.009395
-0.022221 0.026086 0.014908
-0.022411 0.012687 0.019400
0.002233 0.047513 -0.007723
0.011466 0.028227 -0.010283
-0.031690 0.025165 -0.012181
0.002506 0.045229 0.017238
0.016378 0.020520 -0.011325
0.002326 -0.056064 0.018198
0.016721 0.007599 -0.021201
0.053504 0.009740 -0.006437
0.021205 0.030884 -0.007865
-0.044359 -0.052638 0.018302
0.035533 -0.011219 0.007186
-0.035407 0.008070 0.019400
-0.054927 -0.057009 0.008140
-0.033338 0.000416 0.027399
0.024416 -0.031170 -0.014598
0.016001 0.031348 -0.011244
-0.000103 0.045181 -0.007989
0.023120 -0.032387 0.016860
-0.061873 -0.026936 -0.021200
-0.035863 -0.057905 0.018197
0.055668 0.011367 -0.000446
0.024331 -0.028957 0.012030
-0.056210 -0.054439 0.009568
0.027596 -0.023617 0.015003
0.027417 0.014155 -0.014219
-0.003754 0.041262 0.002931
-0.016236 -0.033832 0.019410
0.007266 0.049342 0.017291
-0.047346 0.012546 0.018373
0.038960 -0.006362 -0.009216
0.011825 -0.016440 0.027400
-0.004929 0.039218 0.017204
0.010205 0.056329 0.007855
-0.029257 0.026971 -0.001200
0.034774 0.051383 0.001703
-0.053739 -0.056817 0.003006
-0.006107 0.024673 -0.017389
-0.008729 0.037020 0.016938
0.028545 -0.026241 -0.013932
0.061019 0.016886 0.005400
-0.055181 -0.057712 0.005636
0.018843 0.003794 0.017514
-0.012959 0.035503 -0.014186
0.001483 -0.030744 0.027400
0.021636 0.029918 -0.008542
0.019367 0.061292 -0.001696
-0.057376 -0.053246 0.009270
-0.024210 0.012383 0.026400
0.017975 0.020389 -0.011731
-0.057798 -0.052404 0.005069
0.059081 0.015574 0.016012
-0.009916 0.036272 -0.006868
-0.018278 0.028756 0.016146
0.062271 0.018855 0.009468
-0.009616 0.036416 -0.008011
0.026819 -0.017528 0.014910
0.053721 0.031096 0.012627
-0.057358 -0.053888 0.002917
0.021636 0.029918 -0.008542
-0.032221 0.023169 0.016894
0.003157 0.020973 -0.016384
-0.006793 0.039597 0.014800
-0.056412 -0.054438 0.009395
-0.055491 -0.057715 0.006262
0.047442 0.000721 -0.006177
0.005874 -0.055192 -0.021599
-0.058101 -0.053211 0.008908
0.023337 0.029044 -0.007648
0.026383 -0.028193 0.012496
-0.045663 -0.052414 0.003150
0.016524 0.061287 0.008870
0.011012 0.012010 0.018303
-0.052525 -0.047689 0.002808
0.006161 0.051097 -0.006113
-0.034008 0.000620 0.017900
0.036563 -0.010898 0.010874
0.037360 -0.007730 0.017102
-0.054387 -0.054960 0.011270
-0.050688 -0.049541 0.011260
-0.059747 -0.008847 0.018386
0.023296 -0.023819 0.018386
-0.054574 -0.044026 -0.021600
-0.029672 0.027079 -0.010230
-0.012709 0.034225 0.016756
-0.033969 -0.016018 0.019492
0.026169 0.024693 -0.012376
-0.000077 0.046858 -0.006388
0.010066 0.056281 0.003779
0.016192 0.022372 -0.013401
-0.026460 -0.004909 0.026411
-0.055652 -0.056086 0.009850
-0.053696 -0.058385 0.005672
-0.012829 -0.002897 0.027400
0.009736 0.054004 -0.003413
-0.033663 -0.013991 0.019712
0.026369 -0.030366 0.008318
-0.000454 -0.033045 0.027399
-0.002584 0.044671 -0.006192
-0.046624 -0.053574 0.009413
0.002674 -0.056764 0.017515
-0.032089 0.023269 0.005365
0.035953 -0.011966 0.005786
0.002354 0.046020 0.014379
0.029099 -0.018115 0.016326
-0.052103 -0.057289 0.008347
0.025568 -0.027683 -0.017865
0.009652 0.018817 0.015003
0.020450 0.001188 -0.027400
0.047798 0.002855 0.014855
0.025227 0.027181 -0.008409
0.016894 0.061065 0.005400
-0.057179 0.002654 -0.021599
-0.016520 0.008515 0.027299
0.052018 0.007135 0.015238
0.010820 0.027324 0.017376
-0.024927 0.024592 0.017514
-0.039954 0.019513 0.017515
0.021715 0.017166 -0.013156
-0.047239 -0.049423 0.011856
0.021565 0.030390 -0.010377
0.028213 0.022898 -0.012179
-0.003999 0.022893 -0.027201
-0.050394 0.011467 0.017406
0.011937 0.054651 -0.002834
0.011300 0.015133 -0.016106
0.030882 -0.020540 -0.016875
-0.054475 -0.047818 0.007764
0.022518 -0.005027 0.017907
-0.009653 0.025535 -0.017824
0.040330 0.045745 0.012066
-0.050092 -0.010341 0.018400
0.045894 0.002760 0.017100
-0.058193 -0.053536 0.007445
-0.002587 -0.038574 0.026929
0.021480 -0.001184 0.017406
0.011906 0.054976 0.010038
-0.042618 -0.046971 0.008163
0.010135 0.053389 0.013645
-0.000450 0.045532 0.010859
-0.048712 -0.009168 0.019400
-0.009799 0.025675 -0.017742
0.012517 0.014115 -0.016002
0.059158 0.014735 0.015111
-0.012071 -0.062156 -0.027201
0.029786 0.014501 -0.011847
-0.052670 -0.045406 0.008832
-0.007432 0.039225 -0.009262
-0.042672 0.016218 0.018382
-0.008100 0.037796 0.014326
-0.033802 -0.015208 0.019489
-0.053144 -0.057560 0.005158
-0.032755 -0.060325 -0.027201
0.053325 0.009063 0.014527
-0.010840 0.035761 0.007193
-0.004330 0.021273 0.018368
0.027091 -0.028557 0.011144
0.022122 -0.034720 -0.021400
0.021165 0.062120 0.010324
-0.000174 0.045414 0.015190
0.053220 0.009252 0.016418
0.028642 0.023707 -0.008416
-0.056337 -0.056870 0.004767
0.013787 -0.021469 0.018400
-0.022383 -0.033903 0.019704
0.027780 -0.020659 0.015767
-0.003517 0.041217 0.014819
0.054716 0.011539 0.012470
0.043740 -0.000458 -0.010957
-0.021093 -0.034207 0.026399
0.017349 0.032410 -0.010860
0.035861 -0.012171 0.003575
-0.000481 0.019609 0.018382
-0.030625 -0.008387 0.026398
0.040465 -0.007671 0.013873
0.043785 -0.001813 -0.009992
-0.052891 -0.057879 0.008631
0.032734 0.053598 0.005400
0.040594 -0.007770 0.013640
0.020323 0.062381 0.001362
-0.050811 -0.045852 0.004398
-0.008767 0.037219 -0.008054
-0.055144 -0.056966 0.010237
-0.055016 0.006171 -0.027201
0.023814 -0.031657 0.007917
0.022089 0.019338 -0.014337
0.020093 0.004542 -0.016347
0.040876 -0.007500 -0.006990
0.026057 -0.027361 0.013267
-0.019997 0.031130 -0.001200
0.041312 -0.003980 -0.001376
-0.040984 -0.006516 0.017900
0.062366 0.019338 0.001964
0.023159 0.028985 -0.010339
-0.031088 0.025740 -0.000600
0.019112 0.062078 0.005400
-0.035275 -0.010715 0.027400
-0.058344 -0.000073 -0.021400
-0.006318 0.039038 0.014319
-0.047605 -0.021542 0.026900
0.060941 0.019806 -0.001914
0.019359 0.061911 0.012818
0.031943 0.019574 -0.010444
-0.011200 0.035359 0.002467
-0.011040 0.038245 -0.005649
-0.047398 -0.050679 0.011628
0.001083 0.001605 0.027399
-0.000164 0.044531 -0.010386
-0.032745 -0.060198 0.017043
0.001083 -0.033750 0.027399
0.020994 0.062459 0.008557
-0.033451 0.010331 0.018400
0.024540 -0.014998 0.017900
0.057753 0.023995 -0.002009
0.037193 -0.011490 -0.004468
-0.058742 -0.054047 0.008774
0.009211 0.053660 0.013844
0.036019 -0.010154 -0.005289
-0.000381 0.044475 0.016367
-0.030898 0.025782 -0.013416
0.041964 -0.003564 0.008543
0.029650 -0.019786 -0.018110
-0.005265 0.039637 -0.009016
-0.057563 -0.038432 0.017514
-0.009305 0.036905 0.012460
-0.010811 0.034638 0.017108
-0.038822 -0.002237 0.026935
-0.031598 -0.027192 0.019478
0.028922 0.022716 -0.011194
-0.031878 0.025414 -0.001200
0.025995 -0.029305 -0.016151
0.035829 -0.012217 0.000749
0.039014 -0.008175 -0.011755
0.029887 0.002600 0.017007
0.012811 -0.026910 0.018400
-0.056088 -0.056800 0.004431
0.052977 0.010033 -0.003151
0.012297 0.026608 -0.013022
-0.003815 0.041483 -0.001295
-0.034272 -0.038856 0.027399
0.056167 0.010989 0.005761
0.009451 0.014558 0.017759
-0.039070 -0.006417 0.027400
-0.028046 -0.031232 0.019703
0.000989 0.047690 0.012318
-0.057952 -0.052248 0.006142
0.012904 -0.018625 0.026390
0.024113 -0.015025 0.018190
-0.032745 -0.060198 0.017043
-0.048988 -0.054503 0.005291
-0.053242 -0.056184 0.002897
-0.029665 0.023989 -0.016363
0.043041 -0.004472 0.012198
-0.016656 -0.061498 0.018198
0.040182 -0.008255 0.013734
0.050533 0.005911 -0.005555
0.035366 -0.011560 -0.000933
0.028121 0.012864 -0.012518
-0.002469 -0.033959 0.026933
-0.035668 -0.012938 0.017900
-0.059313 -0.053898 0.006834
-0.006581 0.041030 -0.003711
0.024350 0.027845 -0.008531
0.031540 0.019425 -0.011107
-0.057524 -0.052715 0.006721
0.041475 -0.004246 -0.009286
0.050272 0.032993 0.014872
-0.035407 0.008070 0.019400
-0.030016 -0.007746 0.019777
0.051846 0.010152 0.017336
0.017924 0.031024 -0.012645
-0.035589 0.007955 0.026401
0.055534 0.014299 -0.005673
-0.056267 -0.056929 0.006887
0.038061 -0.007315 0.014802
0.041004 -0.005199 0.014841
0.040182 -0.008255 0.013734
0.018379 0.031945 -0.011460
0.001083 -0.003501 0.027399
-0.029665 0.023989 -0.016363
-0.057450 -0.055459 0.004454
-0.056095 0.004414 0.016844
-0.032075 0.024146 -0.011432
-0.046811 0.015225 -0.021599
0.010145 0.056268 0.008689
0.010308 0.053319 0.013749
-0.046967 -0.007253 0.027400
0.041792 -0.006181 0.013713
-0.032076 0.024936 -0.006652
0.056110 0.012008 0.006752
0.013381 0.055979 0.002018
0.057775 0.017412 -0.004415
0.039208 -0.007178 -0.009125
0.044338 0.000487 0.014914
-0.027851 0.027377 0.011959
0.012186 0.055158 0.008552
-0.000452 0.021455 0.014900
-0.053254 -0.058452 0.008183
0.022308 0.029623 -0.010212
0.045487 -0.000478 0.010876
0.040140 -0.008223 0.004233
0.023726 -0.030507 0.010180
0.035363 -0.011469 0.004255
0.029901 0.021491 -0.011617
-0.031871 0.024617 -0.000600
-0.010030 0.023037 0.018332
0.023863 0.028165 -0.008734
0.013266 0.056167 0.002586
-0.029868 -0.061208 -0.021599
0.049017 0.033517 0.015410
0.048515 0.028714 0.016923
-0.053409 -0.048868 0.002697
-0.050363 -0.025804 0.018400
-0.057852 -0.055276 0.008276
-0.058890 -0.001289 -0.027400
0.028121 0.012864 -0.012518
0.025968 0.026471 -0.007990
-0.043451 0.017597 0.017033
0.030468 0.021739 -0.010436
-0.031937 -0.010661 0.019462
0.007739 0.054033 0.013415
-0.010176 0.037598 -0.012503
0.031110 0.019051 -0.008872
-0.052596 -0.056814 0.003608
0.043185 -0.000904 -0.008554
-0.001413 0.044755 -0.007552
-0.024721 0.029211 -0.015296
-0.058089 -0.052711 0.008211
-0.032504 0.008569 0.027400
-0.053692 -0.057168 0.008608
0.012881 0.055755 0.011331
0.021442 0.031114 -0.008361
-0.001618 0.021605 0.017491
0.037916 -0.011486 -0.004680
0.045385 -0.000178 -0.008703
0.013082 -0.011447 0.018400
0.047034 0.001955 -0.008460
-0.039188 -0.006920 0.017900
-0.046738 -0.053492 0.005220
0.039516 -0.005574 -0.009357
0.054716 0.011539 0.012470
-0.059801 -0.003010 -0.021200
-0.005589 -0.060636 0.016664
0.043023 -0.003495 0.014135
-0.054938 -0.057970 0.006360
0.035425 -0.011474 -0.002297
0.024539 -0.029159 -0.016988
0.010825 0.053906 -0.002806
-0.010829 0.035584 -0.006217
0.011776 0.055892 0.009707
0.043313 -0.004290 0.013143
-0.012097 0.035890 -0.001201
0.053220 0.009252 0.016418
-0.048797 -0.027809 0.026401
-0.045575 -0.044017 0.003018
0.048285 0.036882 -0.000598
0.018221 0.032517 -0.010661
0.042033 -0.005863 -0.008280
-0.037769 -0.007716 0.017900
-0.047619 -0.049044 0.010292
0.032632 0.016585 -0.008368
-0.055073 -0.054296 0.011235
0.017871 0.031514 -0.009038
-0.004992 -0.026476 0.019789
0.037924 -0.007838 0.014455
0.026250 0.057773 0.000133
0.011003 0.053944 -0.004083
-0.004616 0.042946 -0.008181
-0.006923 0.038590 0.014266
-0.060832 -0.022330 0.018379
-0.054339 -0.056214 0.002590
0.024649 -0.031896 -0.001200
-0.056066 -0.054385 0.002729
-0.006311 0.039902 -0.009316
-0.035949 -0.027036 0.026900
0.046871 0.001682 0.004220
-0.055928 -0.054274 0.002544
0.062301 0.020619 0.001285
0.024807 0.059722 0.002874
0.034893 -0.013707 -0.000600
-0.054203 -0.057371 0.009920
-0.012959 0.035503 -0.014186
0.016606 0.031233 -0.009368
0.020736 0.003424 -0.016424
0.021308 0.062417 0.006643
0.025085 0.047235 -0.005851
-0.052767 -0.056663 0.003407
-0.055304 -0.056632 0.004866
0.031785 0.018816 -0.011706
-0.034694 -0.038574 0.026929
-0.042638 -0.047568 0.004386
-0.041698 -0.041564 0.018400
0.062271 0.018855 0.009468
0.023982 0.028484 -0.010420
0.027038 0.013207 -0.013994
-0.039086 -0.000583 0.017900
-0.008283 -0.030507 0.026399
0.056263 0.010127 0.008496
-0.018845 -0.062649 -0.021599
0.036885 -0.007007 -0.014185
0.031672 0.019886 -0.010384
0.038568 -0.010836 0.009918
0.001891 0.046869 -0.008783
-0.022661 0.030255 -0.015490
0.015276 0.032002 -0.008712
-0.039636 0.003531 0.027400
0.012275 0.055236 0.007399
-0.049077 -0.055605 0.004810
-0.011114 0.035628 -0.002053
0.026728 0.010852 -0.010874
-0.044601 -0.045615 0.010345
-0.005155 -0.060277 0.017328
0.004168 0.020387 -0.016318
-0.055145 -0.049555 0.009303
-0.027515 0.024491 -0.021596
-0.029868 -0.061208 -0.021599
-0.038994 0.005448 0.019400
-0.039954 0.019513 0.017515
0.062034 0.019271 0.000071
-0.056119 -0.053272 0.002852
0.062366 0.019338 0.001964
-0.059313 -0.053898 0.006834
0.009841 -0.010457 0.027400
-0.004535 0.040399 -0.009366
0.030246 0.021973 -0.007810
-0.057290 -0.053150 0.008844
-0.058890 -0.001289 -0.027400
-0.048797 -0.009442 0.026401
-0.006995 0.038312 -0.009216
-0.047940 -0.050772 0.017737
-0.031878 0.025414 -0.001200
-0.047496 0.014623 -0.027200
0.023253 0.058364 -0.001960
-0.010425 0.038986 -0.002173
0.008758 -0.050968 0.018368
-0.058272 -0.053412 0.006371
0.010794 -0.049871 0.018177
-0.002007 0.023015 -0.018826
-0.037724 -0.033868 0.017900
-0.055614 -0.055559 0.010666
0.024807 0.059722 0.002874
0.026107 0.026471 -0.010422
0.059785 0.016329 0.015676
0.038499 -0.008143 -0.008764
0.037282 0.049071 0.005400
0.023355 -0.031753 0.007314
-0.051941 -0.057503 0.007406
0.013547 0.013164 -0.015974
-0.030881 0.026265 -0.010651
-0.056245 -0.054769 0.010526
0.011260 0.055970 0.007715
-0.000992 0.043094 0.014407
0.018231 0.059194 0.016258
0.019652 0.021981 -0.014332
0.023863 0.028165 -0.008734
-0.057849 -0.037109 0.017907
0.025567 -0.028643 0.012328
0.024952 -0.024774 -0.027201
-0.008415 0.040068 -0.001386
-0.032003 0.025214 0.001526
0.010065 -0.049797 0.018373
0.002116 0.047046 0.015931
-0.006352 -0.008942 0.019578
0.020578 0.031238 -0.008538
0.012439 0.027692 -0.011459
0.024895 0.009405 0.016802
-0.054220 -0.050471 0.002270
-0.048302 -0.011423 0.027400
-0.061464 -0.028884 -0.021607
-0.057711 -0.052753 0.005297
-0.056143 -0.055793 0.008970
-0.030724 0.026371 0.006723
-0.023972 0.028998 -0.017139
0.024539 -0.029159 -0.016988
-0.012302 0.035819 -0.007448
0.056684 0.028630 0.002347
0.040156 -0.004523 -0.008864
0.031110 0.019051 -0.008872
0.016556 0.061317 0.004800
0.009956 0.056091 0.010079
-0.005787 0.024479 -0.018696
0.011260 0.055970 0.007715
0.024919 -0.024846 -0.018625
0.011618 0.055733 0.000740
-0.036826 -0.033045 0.027399
-0.035785 0.001818 0.026939
0.026039 0.012059 -0.011775
-0.003008 -0.003501 0.027399
-0.015728 0.030319 0.016687
0.054394 0.029525 -0.000981
-0.049059 -0.047604 0.002508
0.026215 -0.027731 0.012965
0.003303 0.020793 -0.016456
0.028245 -0.024141 0.014622
-0.012215 0.035846 -0.000176
-0.027979 0.027910 -0.001200
-0.006793 0.039597 0.014800
0.019376 0.062316 0.001414
-0.053585 -0.057586 0.003221
0.011374 0.054422 0.013054
0.022495 0.007632 0.015544
-0.014752 0.033806 -0.000600
-0.028081 0.026314 0.012652
-0.055491 -0.057715 0.006262
-0.044675 -0.038120 0.018400
-0.024703 -0.004099 0.019758
-0.003568 0.041084 -0.008779
-0.002226 -0.057558 0.018386
-0.002142 0.042125 -0.008558
0.001363 -0.057843 -0.021200
0.048285 0.036882 -0.000598
-0.061464 -0.028884 -0.021607
-0.003943 0.041490 -0.002037
0.059785 0.016329 0.015676
-0.049981 -0.053504 0.003199
0.017208 -0.044180 -0.027201
-0.057852 -0.055276 0.008276
0.043071 0.029119 -0.006070
-0.003895 -0.023539 0.019489
0.011952 0.056271 0.003025
-0.031977 0.024012 0.006928
0.025166 -0.014254 -0.021599
-0.053568 -0.059228 0.005717
-0.003715 -0.001549 0.017900
-0.024236 -0.048632 0.027400
-0.061821 -0.022253 0.017900
0.012903 0.055799 0.000185
0.028069 0.013484 -0.013309
0.018543 0.003623 0.017907
-0.055491 -0.057715 0.006262
-0.014589 0.031032 0.016864
-0.055342 -0.057849 0.005364
0.012843 0.028129 -0.012519
-0.032334 -0.028310 0.027400
0.021021 0.062172 0.001402
0.055912 0.028159 0.012996
0.018041 0.061932 0.010811
0.002637 0.046457 0.016818
0.053581 0.007441 -0.003411
-0.056789 -0.054896 0.010278
-0.004992 -0.026476 0.019789
0.010104 0.053301 -0.002939
-0.015731 -0.033964 0.019544
0.035533 -0.011219 0.007186
-0.011976 0.025822 -0.018746
0.054806 0.026610 -0.002633
0.046103 0.001079 0.014813
-0.010891 0.035882 -0.005017
0.023834 0.027823 -0.011665
0.011906 0.054976 0.010038
0.012215 0.027178 -0.013088
0.060119 0.015407 -0.000893
0.052521 0.010190 -0.007113
-0.062407 -0.023372 -0.021599
0.007753 0.051916 -0.006910
-0.054597 -0.056752 0.010365
0.040123 -0.004840 0.014824
-0.015590 -0.034069 0.019758
0.039988 -0.008590 -0.007845
-0.057254 -0.052136 0.008266
0.025638 0.012233 -0.011933
0.037196 -0.010000 0.012858
0.035715 0.050231 0.000842
-0.049401 -0.055287 0.008954
0.015441 0.031743 -0.009261
0.058227 0.013526 -0.002669
-0.019048 -0.034235 0.019544
-0.060996 -0.025522 0.018185
0.036551 -0.011404 0.007785
-0.047264 0.014774 0.016665
-0.037604 -0.058223 0.017033
-0.056707 -0.053495 0.009736
0.039792 -0.006413 -0.009298
0.009115 0.053572 -0.004080
0.011642 0.054711 0.011314
-0.003296 -0.015501 0.019603
0.019559 0.051740 -0.005756
-0.053703 -0.056536 0.009146
0.013088 0.057822 -0.003028
0.007636 -0.036042 0.026401
0.027413 -0.009396 0.014929
-0.016541 0.004215 0.027300
0.011022 -0.025828 0.027400
0.024334 0.011959 -0.011559
0.011374 0.054422 0.013054
0.017913 0.021037 -0.013159
-0.032583 0.022154 0.018081
0.025129 -0.032020 0.002579
0.062546 0.020508 0.008722
-0.011821 0.036322 -0.001274
-0.056760 -0.054583 0.002432
-0.049001 -0.047661 0.000784
0.019204 0.062294 0.010523
-0.038350 -0.057768 -0.027400
-0.054417 -0.057430 0.003474
-0.015320 0.034061 -0.014930
-0.056235 -0.056877 0.008388
0.024780 -0.024566 -0.021400
-0.032303 0.024372 -0.003613
0.020567 -0.037066 0.017907
0.028571 -0.026337 -0.012372
-0.054332 -0.057785 0.003172
0.019068 -0.038072 0.018364
0.001358 0.048026 -0.004483
0.022543 0.014039 -0.011412
-0.008186 0.037683 -0.007928
0.001750 0.047141 0.001016
-0.052756 -0.057707 0.007464
-0.050432 -0.046230 0.001560
-0.047200 -0.005280 0.026401
-0.011763 0.036140 0.007982
0.027322 -0.028302 -0.000600
0.034901 0.050552 0.000068
-0.049823 -0.048254 0.000834
-0.020140 -0.002968 0.019704
0.024216 -0.008563 -0.018850
-0.008579 0.038269 0.014349
0.040647 -0.007745 0.013295
0.041231 -0.006321 0.009801
0.034353 -0.013534 -0.015460
-0.054285 -0.049192 0.008346
-0.003442 -0.059943 -0.021599
0.006104 0.026405 -0.014516
0.027214 0.025210 -0.007993
0.030363 0.021319 -0.008805
0.016721 0.007599 -0.021201
-0.027979 0.027910 -0.001200
0.030580 0.004227 0.017274
0.033614 0.014203 -0.011201
-0.056548 -0.052842 0.009542
0.027374 -0.021394 0.015536
0.022977 -0.001636 -0.018740
0.055860 0.011809 0.001740
0.007929 0.029311 0.017374
0.029542 0.020961 -0.012380
0.056006 0.022503 0.016310
-0.052866 -0.058210 0.004438
0.057665 0.016500 0.016933
0.023813 -0.032146 0.005814
0.013773 -0.015946 0.018400
0.001320 0.046578 0.005750
-0.032950 -0.058524 0.018368
0.017384 0.058465 0.016655
-0.030331 -0.029038 0.019592
0.028672 0.023332 -0.008360
0.029519 -0.023201 0.014409
-0.058829 -0.035272 -0.025400
0.025989 -0.024767 0.014623
-0.061106 -0.007222 0.016790
-0.056031 -0.057080 0.003959
-0.052835 -0.047363 0.010680
0.047162 0.002983 -0.009243
-0.054835 -0.049858 0.002988
0.008492 0.052927 0.014153
0.012022 0.012965 0.014900
0.040522 -0.007185 0.005595
0.036186 -0.011435 0.008720
0.060229 0.017653 -0.003025
-0.049384 -0.048693 0.000636
-0.058107 -0.051245 0.006974
0.018737 0.021704 -0.014121
-0.056236 -0.054391 0.002519
0.011077 0.019952 0.015492
0.035090 -0.011571 -0.000856
0.012472 0.055634 0.006392
0.004111 -0.006506 0.017900
-0.024452 -0.034354 0.027400
0.002882 0.046573 0.014839
-0.011532 0.035425 -0.001976
0.027975 0.011468 -0.010682
-0.046822 -0.053406 0.004800
-0.046922 -0.009938 0.027400
0.026866 -0.030002 -0.009925
-0.011734 -0.004444 0.026407
-0.030858 0.026367 -0.006198
-0.057660 -0.054276 0.005540
0.044105 0.042599 0.004800
0.040929 0.040887 -0.003232
0.035949 -0.012269 0.013984
-0.057700 -0.052495 0.008079
-0.056234 -0.053096 0.002039
-0.054067 -0.056857 0.002657
0.045217 0.001513 0.014920
0.022977 -0.001636 -0.018740
-0.018284 0.009401 0.027369
0.026873 -0.025354 -0.018363
-0.008457 -0.061455 -0.021599
0.015851 0.024881 -0.014360
0.048788 0.037424 0.001074
0.024766 -0.030775 0.009823
-0.025041 0.024876 0.016860
-0.057529 -0.053007 0.004929
-0.034639 -0.013619 0.027400
-0.051161 -0.049038 0.000806
-0.028732 -0.006561 0.019704
-0.030519 0.025056 0.010201
-0.055668 -0.049018 0.004981
0.055912 0.028159 0.012996
-0.027235 -0.031624 0.019498
-0.000778 0.043478 -0.011086
-0.002978 0.041587 -0.008647
-0.055136 -0.058060 0.007195
-0.053911 -0.055452 0.001650
-0.005450 -0.060074 0.017737
0.032188 0.018272 -0.008779
0.060569 0.017126 -0.002361
0.021196 0.000024 0.016734
-0.020843 -0.062464 0.017070
0.008009 0.015213 0.018096
-0.058761 -0.036067 0.017406
0.003463 0.047081 -0.006742
-0.057517 -0.052696 0.008550
-0.057700 -0.052869 0.008591
0.052255 0.007416 -0.005586
-0.032112 0.023750 0.006095
0.010185 0.026619 0.017260
0.040251 -0.004427 -0.009541
-0.017493 0.003590 0.019397
0.053985 0.009600 0.014381
-0.054584 -0.057158 0.009328
0.023402 0.057018 -0.002811
-0.055532 -0.056030 0.002239
0.002309 0.045157 -0.010360
0.000989 0.047690 0.012318
0.046870 0.003424 0.014952
0.022171 0.002560 0.014908
0.027627 -0.028566 -0.009650
0.007641 0.018118 -0.016139
0.024459 -0.031487 -0.013863
-0.020597 0.031163 0.014597
0.029057 -0.001416 0.016215
-0.024466 -0.033079 0.019498
-0.057688 0.001706 -0.021200
-0.015728 0.030319 0.016687
-0.029970 -0.008203 0.019412
-0.057250 -0.055678 0.004831
-0.053067 -0.058566 0.005000
-0.055997 -0.056113 0.010433
0.012174 0.055920 0.005400
0.042987 -0.002722 0.014840
0.026070 -0.012330 -0.018091
-0.031088 0.025740 -0.000600
-0.057132 -0.054540 0.003521
0.012297 0.026608 -0.013022
-0.056531 -0.053919 0.009725
0.034647 -0.014311 -0.014602
-0.054741 -0.058178 0.005546
-0.034805 0.001390 0.026932
0.010133 0.015965 -0.018659
0.030109 -0.022965 -0.009947
-0.033338 0.000416 0.027399
0.040089 -0.004704 0.014917
-0.056785 -0.056117 0.008624
-0.033431 0.022627 -0.027400
-0.058223 -0.054983 0.008121
-0.051701 -0.046376 0.010750
0.037949 -0.007789 -0.013703
-0.015569 0.005728 0.027400
0.025912 0.012391 -0.011404
0.020614 0.062649 0.005400
-0.002493 0.032111 0.016874
0.024766 -0.030775 0.009823
-0.051054 -0.021305 0.018400
-0.003446 -0.022865 0.026404
-0.060673 -0.006224 -0.027400
-0.002824 0.009795 0.018400
0.019582 0.060796 0.014816
-0.000951 -0.027894 0.017900
-0.062236 -0.018213 0.017651
0.035951 -0.010701 0.010044
-0.012371 0.026114 -0.018085
-0.006554 0.038889 -0.009164
0.057518 0.013676 0.004800
-0.032745 -0.060198 0.017043
-0.000951 -0.027894 0.017900
0.053195 0.010260 0.014943
-0.052678 -0.056751 0.009268
0.046870 0.003424 0.014952
-0.009435 0.036543 0.013860
-0.005036 -0.010931 0.019568
0.017905 -0.042639 0.017435
0.010917 0.013731 -0.027400
0.026107 0.026471 -0.010422
0.018776 0.059893 0.015795
-0.054152 -0.046046 0.005518
0.062589 0.019718 0.005400
0.010217 0.053467 0.014158
-0.052549 -0.050948 0.002468
0.001550 -0.037520 0.017900
-0.015569 0.005728 0.027400
-0.033363 -0.023903 0.019581
-0.061442 -0.018471 0.018244
-0.026746 -0.032119 0.019757
0.006251 0.050936 0.015757
-0.058295 -0.054621 0.005976
-0.002835 0.040846 0.017209
-0.046038 0.013717 0.018368
-0.030296 0.025670 0.010144
-0.004723 0.040072 -0.009497
-0.050074 0.011885 -0.021400
0.000759 -0.038533 0.017900
0.062543 0.020784 0.003360
0.017356 0.059792 0.015969
0.025222 -0.008168 -0.017593
-0.023175 0.026997 -0.018793
0.028066 0.023592 -0.011609
-0.047737 -0.017609 0.017900
0.008645 0.051703 0.014423
0.013164 0.028704 -0.012538
0.016299 0.059958 -0.002906
-0.009366 -0.031097 0.019473
-0.053130 -0.051559 0.001638
0.012241 0.055264 0.004978
0.025115 -0.022970 0.016790
0.036901 0.044117 0.016222
0.040465 -0.007671 0.013873
-0.036861 -0.028643 0.026900
0.037372 -0.008365 0.014171
-0.061146 -0.028717 0.017482
0.024778 -0.029335 -0.016893
-0.034139 -0.018174 0.019449
-0.012232 0.035844 0.000749
0.016921 0.019867 0.017087
0.027627 -0.028566 -0.009650
0.017298 0.032543 -0.008739
-0.001664 -0.012661 0.017900
-0.003686 -0.000330 0.026932
-0.003540 0.042201 0.009228
0.026534 -0.019759 0.014908
-0.001927 0.042437 0.014341
0.061797 0.018400 0.005400
0.011664 -0.050579 -0.027195
0.039281 -0.005743 -0.013079
0.021884 0.000721 -0.018785
-0.054589 -0.055650 0.009718
0.011397 0.055732 0.011729
0.035820 -0.012240 0.002501
0.030945 -0.020923 -0.016380
-0.016759 0.029696 0.016507
-0.056414 -0.056569 0.003466
-0.026950 0.026303 0.013533
0.025727 -0.023857 0.014908
0.027118 -0.027913 -0.016054
0.000952 0.044818 0.014871
-0.011165 0.035417 -0.001487
-0.029072 0.026416 -0.015812
0.025694 -0.031520 0.005829
0.037583 -0.009664 0.013620
0.029786 0.014501 -0.011847
-0.010161 0.036242 -0.005608
-0.018232 -0.003016 0.019544
0.032046 -0.017155 0.016100
-0.006999 0.039781 0.014971
0.038902 -0.007782 0.014696
-0.050284 -0.053196 0.009892
0.035722 -0.010589 0.007799
-0.046624 -0.053574 0.009413
-0.004162 0.022950 -0.021201
-0.034805 0.001390 0.026932
-0.011341 0.036561 -0.004140
-0.028766 -0.030220 0.019410
-0.050151 -0.052123 0.011088
0.033647 -0.016020 0.012772
-0.056486 -0.056720 0.007964
-0.058043 -0.053423 0.006934
0.009641 0.052850 0.013978
-0.000430 0.001818 0.026939
0.002421 0.049062 0.013719
-0.035653 -0.011591 0.026900
0.004438 0.047191 -0.009461
0.029873 -0.022545 -0.016949
-0.057593 -0.038701 -0.021400
-0.018465 0.026921 0.014949
0.035923 -0.011852 -0.002888
0.008954 0.013555 0.018367
0.043171 0.000843 -0.011169
0.037513 -0.012083 -0.002039
-0.057182 -0.053551 0.009693
0.012143 0.055058 0.013411
-0.029041 0.027009 -0.000600
0.027662 -0.004522 0.015369
-0.053687 -0.055744 0.002598
0.053762 0.010722 0.013905
-0.035589 0.007955 0.026401
0.013629 0.012742 -0.018655
-0.058438 -0.053431 0.007725
0.010039 0.054389 0.013995
-0.048229 -0.052012 0.002274
0.025785 -0.028976 0.011940
0.016606 0.031233 -0.009368
-0.047380 -0.013928 0.017900
-0.051300 -0.058053 0.005465
0.020623 0.018316 -0.013256
-0.011470 0.037901 -0.004804
0.047812 0.001847 -0.003061
-0.003078 0.044326 -0.007450
-0.009991 -0.048940 0.026401
-0.029257 0.026971 -0.001200
-0.015043 0.024572 0.017907
0.055325 0.012268 0.010043
0.016398 0.009794 -0.016148
-0.040226 -0.055136 0.018366
0.022098 -0.033435 0.017907
0.049502 0.036884 0.004800
-0.047413 -0.052785 0.002018
-0.005927 0.024725 -0.017247
-0.055502 -0.042695 -0.021200
-0.058107 -0.051245 0.006974
0.007488 0.051060 -0.007650
0.007394 0.053678 -0.002460
-0.047849 0.014299 -0.021200
-0.052232 -0.057207 0.008443
-0.033683 -0.015450 0.019412
-0.040881 0.005106 0.018400
0.045469 0.003836 0.017389
0.013120 0.056022 0.003428
0.049321 0.002788 0.013767
0.058583 0.025877 0.005400
0.024619 0.026423 -0.012288
-0.005662 -0.009847 0.019616
0.008777 0.055004 0.012031
0.027182 -0.026891 0.013261
0.062078 0.018175 0.008559
-0.010232 0.037596 0.012108
-0.004994 0.040945 -0.009367
-0.054733 -0.057204 0.005638
-0.052582 -0.056753 0.002519
0.053721 0.031096 0.012627
0.005211 0.040858 -0.011058
0.060921 0.018332 -0.002244
0.028170 0.023865 -0.008700
0.017992 0.022716 -0.014264
-0.003942 0.000416 0.027399
-0.001664 -0.012661 0.017900
-0.061003 -0.007547 0.017313
0.008556 -0.028364 0.017900
0.010473 0.055630 0.000194
0.006924 0.019748 0.014911
-0.003679 0.040884 -0.009432
-0.007054 -0.060852 0.017313
0.036327 -0.010093 0.011767
0.012423 0.055604 0.007523
-0.000749 -0.009078 0.017900
0.013342 0.011628 -0.021201
-0.046436 -0.043789 0.009954
-0.055779 -0.054429 0.010321
0.018514 0.062204 0.002671
0.008300 0.017553 -0.016228
0.025344 -0.020170 -0.018961
-0.019463 0.031871 -0.015631
-0.039939 -0.056901 0.017287
0.010252 0.054334 0.013765
0.008262 0.015549 0.017739
0.026048 0.026078 -0.008719
-0.010977 0.036685 -0.006290
0.032251 -0.012995 0.017068
-0.023156 0.024966 -0.027400
0.011911 0.012330 0.017740
0.020568 -0.000142 0.017907
0.055673 0.011612 0.010816
-0.059291 -0.035463 -0.025400
0.018483 0.061796 -0.000298
-0.058726 -0.054485 0.003986
0.040576 -0.004144 0.014871
0.012172 0.055117 0.002191
-0.034272 -0.038856 0.027399
-0.057149 -0.052212 0.009816
0.061214 0.019498 -0.001745
-0.035668 -0.024313 0.017900
0.037010 0.041739 -0.004465
0.058061 0.014908 -0.004519
0.024220 0.026722 -0.008705
-0.048606 -0.050876 -0.021599
0.048655 0.005386 -0.006104
-0.056609 -0.055057 0.003176
0.026688 0.014251 -0.014384
0.024869 0.059109 0.000700
-0.006990 0.039558 -0.009371
0.052330 0.009338 -0.004477
0.015964 0.031248 -0.009881
-0.005959 0.041968 0.011988
0.024098 -0.030436 0.010372
-0.003199 -0.018770 0.019418
0.062030 0.019449 0.012351
-0.057311 -0.052041 0.009556
-0.015985 -0.062560 0.016588
-0.050300 -0.049215 -0.027201
-0.031871 0.023341 -0.000600
-0.030043 0.026921 -0.000600
-0.013044 0.011381 0.027400
-0.024210 0.012383 0.026400
0.057266 0.013086 -0.004250
0.054452 0.010403 0.013620
0.026386 -0.016197 -0.018554
-0.010673 0.028343 0.015049
-0.051701 -0.046376 0.010750
-0.014113 0.034684 0.008622
-0.054818 -0.049862 0.009820
0.009215 0.052281 0.014259
-0.036386 -0.016005 0.026900
0.059249 0.016686 -0.003840
0.044749 0.001021 0.014976
0.054394 0.029525 -0.000981
-0.009452 0.036853 -0.007434
0.016992 0.060690 0.014802
0.012337 0.055278 0.004355
-0.054417 -0.057430 0.003474
0.034576 -0.014228 -0.001200
-0.054175 -0.048101 0.004034
-0.032327 0.024278 0.001297
0.049640 0.005363 -0.007924
0.015763 0.057326 -0.004893
-0.061884 -0.013918 0.017734
-0.047200 -0.031970 0.026401
0.002640 0.049141 -0.005416
0.027975 0.011468 -0.010682
0.011619 0.026492 -0.011418
-0.035710 -0.026247 0.017900
-0.059199 -0.053595 0.007379
0.017992 0.022716 -0.014264
0.043383 -0.002559 -0.004401
-0.016610 0.004136 0.019400
0.023120 -0.032387 0.016860
0.056204 0.011911 0.009236
0.026052 -0.026426 -0.018292
-0.008238 0.024975 -0.018833
0.060422 0.018269 0.015457
-0.045449 -0.052628 0.009029
-0.058279 -0.054931 0.009438
0.052506 0.008117 0.014761
-0.053125 -0.057777 0.003763
-0.050929 -0.049306 0.011192
0.010348 -0.031012 0.019401
0.009451 0.014558 0.017759
-0.020252 0.008910 0.019397
-0.006096 -0.027538 0.019414
-0.055818 -0.056118 0.008989
-0.057710 -0.055208 0.005700
-0.007383 0.038243 0.014650
0.024958 0.013192 -0.013233
-0.012550 0.032848 -0.016256
0.006467 0.049669 -0.005137
-0.024210 -0.049634 0.026400
-0.047429 0.014212 0.017510
-0.053254 -0.058452 0.008183
0.028146 -0.027342 0.008697
0.012439 0.027692 -0.011459
0.042847 -0.003175 -0.004435
-0.018640 0.006375 0.018157
0.024917 -0.024678 0.016780
0.026503 0.012326 -0.013043
0.010875 0.053858 -0.002143
0.054530 0.010321 -0.002717
0.002182 -0.006297 0.027400
0.027880 0.024232 -0.008309
0.012548 0.055501 0.008799
0.035829 -0.012217 0.000749
0.048469 0.003844 -0.006344
-0.003226 0.042590 -0.009179
-0.009561 0.037552 0.013502
-0.005366 0.041865 0.010480
0.008083 0.017358 -0.018834
0.056354 0.010228 0.006831
-0.027313 0.011682 0.019400
-0.048797 -0.027809 0.026401
0.013137 0.055751 0.000536
-0.054835 -0.049858 0.002988
-0.047069 0.014727 -0.027400
-0.009932 0.039045 -0.006995
-0.019240 0.031831 -0.016185
0.010256 0.056374 0.006857
-0.056785 -0.056117 0.008624
0.025985 0.058096 0.012014
-0.005018 0.042752 0.013653
-0.008809 -0.047523 0.027400
0.008365 0.051455 0.014939
-0.004991 0.039868 0.016937
-0.004883 0.042824 -0.006664
-0.014864 0.025198 0.016734
0.025397 -0.026771 -0.018270
-0.051701 -0.046376 0.010750
0.014275 0.029788 -0.012059
-0.027647 0.027750 0.011425
-0.010602 0.024658 -0.021599
0.011374 0.054422 0.013054
-0.047068 -0.053162 0.004024
-0.054761 -0.056706 0.009395
0.028777 0.023313 -0.008557
0.029768 0.022112 -0.008662
0.032537 -0.017930 -0.004868
0.049640 0.005363 -0.007924
0.025991 -0.031279 -0.006368
-0.041698 -0.041564 0.018400
-0.000992 0.043094 0.014407
0.014016 0.012117 -0.018830
-0.007819 0.039037 -0.010487
-0.026174 0.028284 -0.015829
-0.057989 -0.053477 0.005517
0.041875 0.034950 0.017067
-0.005164 0.036181 0.017382
0.031654 -0.002182 0.016809
0.017905 -0.042639 0.017435
0.014086 0.026692 -0.014412
-0.051704 -0.048494 0.011730
0.011397 0.055732 0.011729
-0.028057 -0.061631 -0.021201
0.008954 0.013555 0.018367
-0.053067 -0.058566 0.005000
0.059823 0.017073 0.015893
-0.052512 -0.056916 0.009015
-0.059991 -0.033202 -0.021400
0.035716 -0.010961 -0.014833
-0.009173 0.036881 -0.007707
-0.006567 0.039921 0.015891
0.017924 0.031024 -0.012645
0.024740 -0.032040 0.005927
0.052255 0.007416 -0.005586
0.042602 -0.003232 -0.008514
-0.052422 -0.057780 0.007743
0.001983 0.047746 -0.006167
0.022396 0.017450 -0.013747
-0.030130 0.025873 -0.015093
-0.051596 -0.057762 0.004245
0.047067 0.000434 -0.004641
-0.018640 0.006375 0.018157
-0.025072 0.027736 0.014301
-0.013685 0.024841 0.017406
0.002408 0.046103 -0.006657
0.009934 0.054682 0.013033
0.012154 0.012771 0.016761
0.014810 0.058807 -0.003545
0.034647 -0.014311 -0.014602
-0.020094 0.003724 0.019400
-0.057450 -0.055459 0.004454
-0.003540 0.042201 0.009228
-0.035053 0.022225 -0.021200
0.038150 -0.007184 -0.009128
0.050272 0.032993 0.014872
0.061338 0.017624 0.013560
0.007881 0.016513 -0.018850
0.022518 -0.005027 0.017907
0.055612 0.012536 0.005393
0.035951 -0.010701 0.010044
-0.019060 0.025375 0.014900
-0.016236 -0.033832 0.019410
0.016606 0.031219 -0.011947
-0.004888 0.041009 -0.001929
-0.010727 0.035876 0.008015
0.044129 0.000256 -0.008134
-0.001029 0.006306 0.027400
0.025691 -0.029589 0.011231
0.035396 -0.011309 0.006350
0.019722 0.031866 -0.010430
0.022037 0.054585 -0.004368
-0.030737 0.026132 -0.012597
0.038185 -0.011431 0.005860
0.026083 0.026462 -0.007613
-0.027979 0.027910 -0.001200
0.036387 -0.011872 -0.001363
0.057534 0.027884 0.005400
0.019110 0.005833 -0.018693
-0.060246 -0.026729 0.018368
-0.005803 0.010166 0.026401
0.025024 -0.024232 -0.021200
-0.046933 0.013631 0.018189
0.016556 0.061317 0.004800
0.006703 0.052903 0.013822
-0.013130 0.030438 0.016355
0.009892 0.054382 -0.005308
0.039620 0.043036 0.015582
0.039523 -0.005342 -0.010015
-0.056242 -0.055224 0.003177
-0.011727 0.037937 -0.002660
-0.034016 -0.022019 0.019794
-0.005492 0.024249 -0.018825
0.043313 -0.004290 0.013143
-0.007668 0.032321 0.016762
-0.027706 0.027992 0.008748
-0.052596 -0.056814 0.003608
0.013987 0.056245 0.017129
0.062329 0.018727 0.005401
-0.006622 0.041485 -0.008244
0.036146 -0.009995 -0.006832
0.053481 0.008591 0.013982
0.006814 0.017049 -0.027400
0.008954 0.013555 0.018367
0.023850 -0.027927 0.017737
-0.012071 -0.062156 -0.027201
0.047035 0.003595 -0.006829
0.013493 0.014302 0.014904
-0.053710 -0.046488 0.003710
0.053145 0.006998 0.013803
-0.009435 0.036543 0.013860
-0.002597 0.041898 -0.009071
0.040123 -0.004840 0.014824
0.021943 0.030251 -0.007805
0.024648 -0.026524 -0.018205
0.047714 0.004427 -0.007070
-0.011157 0.035589 0.002309
-0.000454 -0.033045 0.027399
-0.033439 0.022624 -0.021400
0.031842 0.019317 -0.008992
-0.009807 0.038272 0.012885
-0.002054 -0.016246 0.027400
0.046978 0.038601 0.012899
0.010788 0.055048 -0.001841
0.011663 0.054821 0.010943
0.036704 -0.011173 -0.004767
-0.044490 -0.029671 0.017900
0.031000 -0.021089 0.014154
-0.042635 -0.047573 0.008320
0.055768 0.011039 0.015182
-0.005459 -0.026579 0.019414
0.057396 0.013264 0.015992
0.040857 0.046244 0.006984
0.012446 0.057175 -0.003313
0.015825 0.008678 0.016860
-0.056112 -0.055689 0.010370
-0.054273 -0.058936 0.004584
0.056110 0.012008 0.006752
0.010881 0.055351 0.014448
-0.046683 -0.053548 0.005600
-0.009625 0.039421 0.012138
-0.058440 -0.004169 0.018383
0.006467 0.049669 -0.005137
0.024369 -0.029999 0.010978
-0.011994 0.035887 -0.002111
0.014712 0.030110 -0.011828
-0.051993 -0.057443 0.005122
0.024865 -0.031629 -0.013046
-0.002870 0.023510 -0.018676
-0.057753 -0.051600 0.008621
0.002399 0.046625 -0.009514
-0.046922 -0.009938 0.027400
-0.056095 0.004414 0.016844
0.029877 0.055464 0.005400
0.011893 0.054847 0.010862
0.022548 -0.003654 -0.027400
0.048766 0.003972 -0.007816
-0.000619 0.044701 -0.000296
-0.035658 -0.024374 0.026897
-0.003867 -0.024003 0.019712
0.019713 0.004574 -0.018829
0.045147 0.001519 -0.010360
0.011452 0.013508 -0.021599
-0.039070 -0.006417 0.027400
-0.055818 -0.056118 0.008989
-0.053022 -0.056402 0.003101
-0.005637 0.039476 0.014856
0.042875 -0.001261 0.014908
0.062452 0.019184 0.006805
0.005413 0.047274 0.017351
0.026609 0.011258 -0.011277
0.043549 -0.001930 -0.002120
0.049342 0.005491 -0.008330
0.012967 0.022924 -0.011053
0.046871 0.001682 0.004220
0.054925 0.010593 0.013549
0.020169 -0.000314 0.018198
0.011664 -0.050579 -0.027195
0.011911 0.012330 0.017740
0.025702 -0.030992 -0.013254
-0.054067 -0.058011 0.008338
-0.044757 -0.007141 0.027400
0.011046 0.054732 0.016636
-0.052360 -0.049915 0.001816
-0.016610 0.004136 0.019400
0.039050 -0.007396 -0.012735
-0.023288 -0.062203 -0.021400
-0.013585 0.034654 0.016146
0.009641 0.052850 0.013978
-0.056073 -0.054488 0.003124
0.004775 0.048233 0.014856
-0.028217 0.027449 -0.014480
-0.051550 0.010628 -0.027201
-0.000778 0.043478 -0.011086
-0.050884 -0.049314 0.002489
-0.011096 -0.061311 0.017907
0.014570 0.009970 -0.021400
0.002297 -0.000948 0.027400
0.016087 0.031563 -0.009516
-0.061390 -0.028438 -0.027400
-0.036818 -0.039070 0.026937
0.011049 0.055800 0.015185
-0.056707 -0.053495 0.009736
-0.046767 -0.051310 0.011133
0.045993 0.002207 0.016847
0.048958 0.005593 -0.005901
-0.053739 -0.056817 0.003006
-0.003089 0.000900 0.017900
0.044218 0.000202 0.014832
-0.004991 0.039868 0.016937
-0.053233 -0.058642 0.005932
-0.010804 0.036659 0.011197
-0.018995 -0.034370 0.019765
0.041706 -0.004295 -0.011081
-0.029721 0.026571 -0.014096
0.054773 0.011882 0.000729
0.020894 0.030567 -0.008570
0.031729 -0.004417 -0.015155
-0.042635 -0.047573 0.008320
0.037741 -0.011675 0.008209
0.011651 0.055958 0.000852
-0.055994 -0.054480 0.009858
0.026386 -0.016197 -0.018554
0.042282 -0.001837 0.014300
-0.055299 -0.055607 0.002178
-0.056724 -0.056406 0.006869
0.042744 -0.001597 -0.008727
0.012372 0.055324 0.010223
-0.005074 -0.011410 0.019409
0.052005 0.009007 0.014931
-0.002402 0.042731 0.005835
-0.020680 0.028349 0.015900
0.056263 0.011967 0.008395
-0.055229 -0.055010 0.003000
-0.048744 -0.051455 0.000969
0.049017 0.033517 0.015410
-0.053261 -0.058841 0.007198
-0.033867 -0.022742 0.026406
0.007394 0.053678 -0.002460
-0.054409 -0.056223 0.010285
-0.012202 0.035868 -0.002096
0.061019 0.016886 0.005400
-0.043372 0.016956 0.017900
0.010073 0.053044 0.014978
-0.011705 0.036388 -0.011799
0.036411 -0.009631 -0.007282
-0.056268 -0.055670 0.006600
0.027537 -0.027263 0.012548
-0.052943 -0.057268 0.003795
-0.033867 -0.022742 0.026406
0.024618 0.002152 0.015260
-0.026224 -0.061711 0.017406
0.023779 -0.029632 -0.027400
-0.008729 0.037020 0.016938
0.024386 -0.005674 -0.018756
-0.030282 -0.029221 0.019772
0.013294 0.055842 0.010297
-0.062663 -0.017678 -0.021594
-0.035662 -0.058855 0.017491
-0.003559 0.041164 -0.009262
0.037616 -0.007893 -0.008014
0.060595 0.015874 0.013182
0.023120 -0.032387 0.016860
-0.053242 -0.056184 0.002897
-0.033789 -0.025803 0.027400
-0.028522 0.027485 -0.013155
-0.029914 -0.007887 0.019509
-0.011154 0.037339 0.010003
0.018574 0.013340 0.015638
-0.001661 0.043163 -0.011074
-0.033363 -0.023903 0.019581
0.040422 -0.007315 0.002493
0.025521 -0.026741 0.013667
0.009262 0.052479 -0.004273
0.017457 0.008200 -0.018709
0.011244 0.055778 0.002304
-0.055754 -0.055718 0.003106
-0.052876 -0.057725 0.006514
0.015644 0.008428 0.017514
-0.011958 0.037530 0.006236
0.025379 -0.030793 -0.014543
-0.037724 -0.033868 0.017900
0.000989 0.047690 0.012318
-0.020970 0.004466 0.019398
0.040401 -0.007896 0.008281
0.012879 0.025103 -0.011472
-0.049228 -0.050985 0.011190
-0.057938 -0.053733 0.008083
0.025572 -0.009502 -0.017723
0.026724 -0.027137 -0.017480
0.024469 -0.005048 -0.017142
-0.028918 0.024182 -0.027200
-0.014648 0.034170 -0.015262
-0.020865 0.029501 -0.018074
0.025702 -0.030992 -0.013254
-0.030903 -0.008863 0.019620
-0.027128 0.028169 0.010705
-0.031088 0.025740 -0.000600
0.024350 0.027845 -0.008531
0.043280 0.041813 0.013748
0.040576 -0.004144 0.014871
0.018748 0.060850 0.015014
-0.002587 -0.038574 0.026929
-0.011183 0.035474 -0.003937
0.009578 0.053047 0.016788
-0.012038 0.037625 0.003603
-0.002966 0.043143 0.010485
-0.056862 -0.055251 0.010304
0.034427 -0.013114 0.016515
0.011663 0.054638 0.017026
-0.000187 -0.038985 0.026931
-0.003257 0.042516 -0.003739
0.062109 0.021058 0.001276
0.040634 -0.007504 -0.003688
0.032661 -0.006518 0.016857
0.038513 -0.008843 0.013732
