-0.046163 0.000965 -0.071662
0.008139 0.089500 -0.003803
-0.088621 0.017995 -0.018959
0.072055 -0.077288 0.013862
0.009262 0.017358 0.043852
-0.081680 0.060663 -0.063772
0.095336 -0.041195 -0.007707
-0.007971 0.059431 0.014433
-0.018323 -0.019208 0.043039
0.015140 -0.005609 0.068148
0.008013 0.053109 -0.003061
0.047416 -0.014836 0.079385
0.009179 -0.058565 0.066522
-0.017530 -0.014059 0.032013
-0.090817 0.039257 -0.013243
-0.039437 -0.001691 0.014534
0.035802 -0.083242 0.038924
0.078809 -0.065364 0.041298
0.007937 0.049215 -0.001779
-0.057971 -0.001106 -0.067507
0.037254 0.010291 0.057608
-0.033351 0.020838 0.020789
-0.004923 -0.023788 0.059805
-0.049416 -0.015642 -0.002821
0.087315 -0.044803 0.048404
-0.044296 0.044380 0.024251
-0.013632 -0.045690 0.010871
-0.078527 -0.003053 -0.046723
-0.077096 -0.009591 -0.031674
-0.090201 0.068033 -0.051854
-0.070569 -0.001106 0.003243
-0.036674 -0.001634 -0.070368
0.011231 0.048644 -0.008321
0.082685 -0.052503 0.065812
0.001485 -0.028268 0.067466
-0.004732 0.047318 -0.066056
-0.019776 0.065144 0.021814
0.019804 0.020727 0.016826
0.078636 0.002543 0.036989
0.074867 -0.036826 0.072929
0.086852 -0.006137 0.003897
-0.074334 -0.008109 -0.045966
-0.044968 -0.019269 -0.011156
-0.034416 -0.007698 0.011252
0.008139 0.089500 -0.003803
0.014226 0.016427 -0.046418
0.006111 0.019110 -0.038280
-0.009479 -0.002842 -0.055277
0.034432 -0.008531 0.076687
0.073195 0.005128 0.035570
-0.031794 0.052594 -0.080456
-0.066630 0.039288 0.017047
-0.005048 0.012227 0.042744
-0.005792 -0.014821 0.054069
-0.016256 -0.030523 -0.037443
0.024517 0.021818 -0.046407
0.066116 0.010088 0.026748
0.016624 0.039805 -0.024470
-0.085145 0.000965 -0.027323
0.029241 -0.075161 0.063157
0.021686 0.009041 0.046633
-0.005334 -0.044719 0.054297
-0.042242 -0.021707 -0.024822
0.073115 -0.047335 0.072188
-0.016790 0.027429 -0.071584
0.049714 0.011768 0.061281
0.083805 -0.001193 -0.000361
0.014189 0.052632 -0.027532
0.006501 -0.075592 0.002520
-0.013371 0.062816 0.018361
0.002583 -0.000552 0.045921
0.003486 0.015988 0.022149
0.038740 -0.089152 -0.012376
0.025472 0.004743 0.063319
0.054273 0.018419 -0.007699
0.012127 0.023075 0.037689
-0.027451 -0.016470 0.006860
0.019973 0.013570 0.028737
0.011730 -0.048856 0.073254
0.055425 -0.076614 0.059019
0.038784 0.019136 0.005861
0.008893 -0.025043 0.072699
0.017610 -0.078800 0.032128
0.070668 0.003271 0.045097
0.007597 0.028705 -0.039443
-0.078302 0.089500 -0.068684
0.015937 -0.068516 0.063161
-0.024111 -0.022472 -0.046275
-0.061385 -0.008805 -0.058959
-0.010082 -0.031523 0.052627
-0.082680 0.006576 -0.008438
-0.081554 0.006639 -0.006189
-0.025986 -0.020404 -0.002285
-0.050801 0.075568 0.025915
0.085004 -0.038474 0.060205
-0.021149 -0.024323 -0.046411
0.021572 0.027166 -0.044548
-0.056455 0.061241 0.023793
-0.012282 -0.046696 0.021743
-0.084173 0.029790 -0.001757
0.031264 -0.002299 0.072930
0.039710 0.005402 0.066739
0.023511 0.007564 0.055359
-0.054854 -0.020055 -0.032908
-0.093096 0.082899 -0.009791
-0.018850 -0.011986 0.028038
-0.004749 -0.063425 -0.004628
0.068747 -0.082142 -0.027532
-0.019701 0.001450 -0.066532
-0.021665 -0.006981 0.042782
0.010247 0.065173 -0.009707
0.040080 0.014385 0.039715
0.013059 0.082886 -0.019506
-0.020862 0.016374 0.020616
-0.088141 0.045675 -0.051693
0.019638 0.018469 0.020217
0.020025 0.026914 0.003670
-0.022892 -0.018403 0.017557
0.020597 0.005474 0.057615
0.034970 -0.085529 0.024264
-0.008688 -0.017555 0.051669
0.018299 -0.080171 0.035812
0.034999 0.010204 0.057083
0.070504 -0.014437 0.071293
-0.089368 0.049868 -0.050220
0.009873 -0.015414 0.072907
-0.004873 -0.047423 0.052188
0.089181 -0.022846 0.037402
0.039181 0.008842 0.061331
0.004077 -0.021862 0.068489
-0.020480 -0.010653 0.027649
-0.004749 -0.063425 -0.004628
0.013822 0.056791 -0.027532
0.033000 -0.076093 0.063161
-0.091794 0.072474 -0.007207
0.006218 0.043463 -0.049912
-0.004236 -0.007593 0.048200
0.075826 -0.017776 0.068527
-0.095013 0.075602 -0.017491
-0.061979 0.035045 0.018715
-0.067678 0.011509 0.010741
0.031894 -0.078701 0.056971
0.018343 -0.074127 0.054922
-0.064757 0.017500 -0.070041
-0.016256 -0.030523 -0.037443
0.023163 -0.057862 0.075257
-0.017517 -0.005916 0.026274
-0.002001 -0.066402 0.003279
-0.005024 -0.034845 0.060173
0.059912 -0.083391 0.017186
-0.039662 0.057448 -0.081721
0.024584 -0.048188 0.079031
-0.000368 0.031449 -0.057841
-0.010584 -0.034551 0.050559
-0.087020 0.011784 -0.017476
-0.055417 -0.006286 -0.064695
-0.004005 0.002299 -0.052372
0.096254 -0.034500 -0.025532
0.050477 -0.016401 0.079499
-0.044927 0.017661 -0.076069
-0.029351 -0.016259 0.003776
0.045475 -0.088022 0.004011
0.052224 -0.080405 0.048405
0.068275 0.005432 0.043369
-0.063392 0.022543 -0.071838
0.012812 -0.038890 0.075677
0.006046 0.033659 0.009996
-0.003261 0.021246 0.037522
0.006608 0.019114 -0.035678
0.015625 -0.077683 0.035079
-0.037969 -0.016254 -0.002522
0.043931 -0.086536 0.019086
0.002485 0.010854 0.025912
-0.044114 -0.021653 -0.031511
0.018515 0.022752 0.014047
0.013631 0.056805 -0.022818
-0.079536 -0.005274 -0.040062
0.046498 0.008815 0.060837
0.012688 0.060617 -0.017809
-0.013629 0.004377 0.023664
-0.014219 -0.001731 0.026930
0.087737 -0.063911 -0.027532
-0.043925 -0.003014 -0.069686
0.012812 -0.038890 0.075677
-0.073839 0.042554 -0.068742
0.073569 0.006652 0.017279
0.007610 -0.049048 0.072900
-0.016788 0.011433 0.020898
0.072787 -0.070021 0.060383
-0.022736 -0.026616 -0.029556
0.036863 0.019060 0.036529
0.045475 -0.088022 0.004011
0.013485 0.047023 -0.014418
-0.019366 -0.026019 -0.046405
0.021296 0.016342 0.023323
-0.002547 0.031097 -0.060544
-0.067988 -0.011943 -0.008764
-0.045408 0.071969 -0.082516
-0.038018 -0.009866 0.007966
-0.016596 0.031678 0.019574
0.060573 -0.009038 0.073821
0.081078 -0.011244 0.063883
-0.040925 0.046398 -0.080642
0.028524 -0.004050 0.073134
0.011711 -0.073664 0.038945
-0.012566 -0.034829 0.045547
0.090645 -0.052662 0.036973
-0.039869 -0.011535 0.005573
0.084312 -0.068731 -0.027532
-0.054647 0.002896 0.014620
-0.025561 0.028341 0.021099
0.004210 0.089500 -0.030938
-0.003867 -0.061816 0.036878
0.041253 -0.089500 -0.027532
-0.007896 -0.057764 0.000299
0.071138 -0.052250 0.071860
0.041253 -0.089500 -0.027532
-0.017362 -0.037450 0.036956
-0.014009 -0.039412 0.033823
0.086555 -0.063356 0.003714
0.087163 -0.011549 0.024818
0.058494 -0.006389 0.073156
-0.017226 -0.031219 0.031276
-0.093971 0.049998 -0.022585
-0.077651 0.000965 -0.003490
0.050721 0.013184 0.057097
0.043074 -0.019399 0.081082
0.089791 -0.031844 0.041295
0.016743 -0.066324 0.066437
0.037462 -0.031081 0.082811
-0.002737 0.018480 0.038183
0.011803 -0.074797 0.035132
0.076963 -0.027453 0.070499
-0.080597 -0.004543 -0.017708
0.008695 0.046755 -0.044715
0.006801 0.078756 -0.001503
-0.060073 0.031791 -0.075048
-0.022344 0.000641 -0.067512
-0.091532 0.053665 -0.010154
0.057604 0.006849 0.058946
0.024566 -0.032754 0.080641
-0.083098 0.005004 -0.010399
0.024529 -0.066371 0.070848
0.002691 0.074416 0.004619
0.085732 -0.009481 0.026880
-0.007905 0.004743 0.043309
-0.030231 0.018898 0.020546
0.039757 -0.000788 0.072921
-0.016834 -0.029479 -0.043922
-0.016095 -0.036493 -0.017766
0.013161 -0.056884 0.070916
0.007526 -0.019974 0.072904
-0.022160 -0.009978 -0.058063
0.022144 -0.084110 0.009745
0.089759 -0.055596 0.012336
0.072326 0.004573 0.035151
0.000863 -0.063954 0.034906
0.082745 -0.059741 0.056979
0.040491 -0.041284 0.082638
0.034630 -0.068284 0.072116
-0.087147 0.027976 -0.047956
0.013206 -0.069963 0.056852
0.071725 -0.013207 0.069768
0.019304 0.019765 0.044633
-0.047845 0.012081 -0.074607
-0.051831 -0.019242 -0.014241
0.017424 0.037319 -0.022942
-0.040443 -0.021263 -0.036070
0.052858 0.006989 0.061927
-0.021134 0.068109 0.022569
0.008831 -0.072837 0.032125
0.076895 -0.003572 0.061252
-0.057371 0.038488 -0.077071
-0.078316 0.002896 -0.003042
0.016673 -0.075077 0.060567
-0.063392 0.022543 -0.071838
-0.077323 0.005597 -0.000150
0.021864 -0.041690 0.079360
0.001305 0.017764 0.042751
-0.070656 0.060922 -0.073303
0.085777 -0.011434 0.034995
0.065325 -0.009032 0.071650
-0.002953 0.020013 0.020230
0.077945 -0.000602 0.035112
0.039119 -0.080195 0.064655
0.003294 0.059959 0.003294
0.009205 -0.002670 0.059670
-0.022327 -0.026900 -0.024839
0.004488 0.018235 0.020895
-0.052358 -0.013870 -0.055718
0.068745 -0.079883 0.010703
-0.024525 -0.019670 0.006802
-0.060792 -0.007272 -0.061130
0.063793 -0.041197 0.078230
0.081692 -0.005207 0.035069
0.022772 0.027279 -0.041030
0.023113 -0.014178 0.076495
-0.073839 0.042554 -0.068742
-0.021683 -0.024511 0.000402
0.026963 -0.050922 0.078948
-0.061072 0.045311 -0.076634
-0.047620 0.046210 -0.080232
-0.028843 -0.010195 -0.061114
0.052161 -0.086708 0.008000
0.074423 -0.057060 0.066522
0.072920 -0.065757 0.058871
0.066051 -0.037619 0.077588
0.063263 -0.074607 0.055038
0.000182 0.061843 0.007016
-0.067155 0.064721 -0.075692
0.042671 -0.054913 0.079445
-0.032484 0.003698 -0.072175
-0.046215 0.049999 -0.080804
-0.013739 0.039865 0.018204
0.049543 -0.079274 0.065153
0.009444 0.041912 -0.039962
-0.070508 -0.011640 -0.011910
0.014036 0.028587 0.036901
0.052301 -0.088288 -0.018659
-0.027850 -0.011972 0.012855
0.085955 -0.049684 0.048338
-0.026476 0.003546 0.018614
0.058030 0.017683 -0.015188
0.091148 -0.035400 0.034066
-0.083990 0.000419 -0.036914
0.014636 -0.025115 0.075985
0.039107 0.018240 0.014548
-0.004520 0.005607 -0.055066
-0.006019 -0.013295 0.052390
0.027303 0.022476 -0.039713
0.062278 0.000805 0.065199
0.021340 -0.011263 0.074646
-0.088390 0.012716 -0.026282
0.027760 0.020237 0.044780
0.086326 -0.061145 0.017002
0.013565 0.000130 0.067070
0.064452 -0.011226 0.073238
0.071577 -0.049420 0.072589
0.009370 0.089500 -0.049573
0.084366 -0.016429 0.050536
-0.007390 0.013969 0.021916
-0.075702 0.024157 0.007349
0.013363 0.072960 -0.023939
-0.095452 0.064538 -0.026075
0.069885 -0.070255 0.054791
0.068724 -0.002389 0.063403
-0.072902 -0.009156 -0.009802
-0.086501 0.038960 -0.003062
0.078513 -0.000886 0.034995
-0.036714 0.045986 0.024340
0.091866 -0.016490 0.003689
0.071416 -0.074657 0.049509
-0.010484 0.004006 0.038651
-0.079151 0.000964 -0.050185
-0.007902 0.084775 -0.071758
0.069412 -0.032483 0.075985
0.010377 0.058366 -0.009324
0.080079 0.001137 0.014037
0.094939 -0.033144 0.003916
-0.017970 0.055684 -0.076262
-0.026084 0.081772 -0.080854
0.019486 -0.066447 0.068239
0.083449 -0.028988 0.062886
0.058293 -0.076418 0.056765
0.041253 -0.089500 -0.027532
-0.031038 -0.018461 -0.004500
0.091884 -0.019251 0.012440
-0.090550 0.024047 -0.025687
-0.001026 -0.008749 0.054726
-0.020409 -0.027349 -0.040516
0.089531 -0.014186 0.016835
0.063982 -0.053163 0.075325
-0.009902 -0.050172 0.034021
-0.009972 -0.029291 0.053119
-0.059818 0.039080 -0.076280
0.039757 -0.000788 0.072921
0.004845 0.019599 -0.043284
0.070372 -0.072949 0.043267
-0.088398 0.070050 -0.000611
0.011400 0.028768 0.037298
0.073564 -0.012540 0.067790
0.083723 -0.037257 0.062887
-0.021127 0.081921 0.023114
-0.076697 -0.004541 -0.047993
0.090966 -0.025490 0.030249
-0.031370 -0.022675 -0.024808
0.076610 -0.005378 0.054791
0.004518 0.083251 -0.058493
-0.042697 -0.018402 -0.047939
0.002040 0.052525 0.005607
-0.075025 0.012066 0.004702
0.015157 -0.077047 0.035125
0.096225 -0.033503 -0.022533
-0.058362 0.083450 -0.080281
0.067208 -0.040676 0.076787
-0.079832 0.053860 -0.064932
0.050028 -0.067246 0.072514
-0.073261 -0.012001 -0.035511
-0.065843 -0.014795 -0.014275
0.042076 -0.087085 0.036834
-0.014465 -0.020238 -0.042739
-0.010082 0.036205 -0.068791
-0.009623 -0.002940 0.033105
0.029930 0.021116 0.008597
0.088560 -0.062266 -0.016125
-0.019915 -0.023629 0.025397
0.070653 -0.054470 0.071233
0.095661 -0.035724 -0.006345
0.004419 -0.006310 0.058921
-0.001151 -0.037786 0.064596
0.007263 -0.035056 0.072425
-0.052590 0.002893 -0.071285
-0.009281 0.060377 0.015434
-0.053445 -0.001105 -0.069127
0.047361 -0.084316 0.035023
-0.026561 0.060174 -0.079927
-0.031139 -0.004612 0.014763
-0.049231 0.038601 0.022985
-0.083785 0.075894 0.006508
0.049430 -0.009283 0.076865
-0.012557 0.012307 0.037408
-0.014839 0.064324 0.019327
0.004188 0.089500 -0.025158
-0.077831 0.089500 0.013054
-0.002001 -0.066402 0.003279
0.050745 -0.084487 0.046397
0.052124 -0.066356 0.072928
0.089322 -0.050886 0.028524
-0.006233 0.037340 0.015355
-0.060996 -0.013404 -0.051445
-0.035274 -0.021506 -0.028968
-0.001202 0.031524 0.015281
0.005242 -0.054800 0.064839
-0.007312 -0.027349 0.057277
0.009707 0.033809 0.006477
-0.000932 0.061847 -0.064044
0.030086 0.020937 0.043559
0.080942 -0.069068 0.036972
-0.030228 -0.016317 0.002354
0.007362 0.033180 -0.043019
-0.062603 -0.005274 -0.062015
-0.071889 0.035044 0.012908
0.083165 -0.051049 0.057351
0.068506 0.009224 0.023459
-0.071472 0.005796 0.006177
0.015842 0.041959 -0.036675
-0.061798 0.084767 -0.079034
0.007285 0.024419 0.016649
-0.008688 -0.017555 0.051669
-0.016604 -0.005171 0.037603
0.007866 -0.044571 0.071772
0.013926 0.031463 0.004124
0.093553 -0.040211 0.036831
-0.023166 -0.019094 0.015163
0.067300 0.013734 -0.015080
-0.085096 0.068212 0.004261
0.011295 -0.080282 -0.012466
-0.054084 0.028156 -0.076423
-0.021693 -0.011958 0.022782
0.013741 0.089500 -0.026521
-0.026018 -0.013256 0.014588
0.078723 -0.054826 0.062776
0.077935 -0.075055 -0.011735
0.002513 -0.012824 0.062983
0.000707 0.043463 -0.059201
-0.016426 -0.030586 -0.038644
-0.062384 0.075567 -0.078581
-0.012016 -0.048945 -0.021738
0.069978 -0.069441 0.056806
0.069148 -0.076598 0.030371
0.059486 0.012988 0.035503
0.073569 0.006652 0.017279
-0.078303 0.057025 0.010794
-0.080166 -0.001106 -0.046008
-0.016691 -0.012576 -0.048534
0.089832 -0.022212 0.034987
0.049520 0.003195 0.068322
-0.093878 0.089500 -0.012047
-0.032817 -0.000441 0.016021
-0.032982 0.067954 -0.081843
-0.059723 0.011644 -0.071191
0.010846 0.008808 0.033775
-0.084963 0.004934 -0.015813
-0.020380 -0.026651 0.003692
0.066000 0.003967 0.055048
0.073789 0.000473 0.059646
-0.005427 0.052534 0.012553
-0.017644 -0.032672 0.024727
-0.011882 -0.040165 0.041649
-0.040457 -0.002346 -0.070186
-0.018182 -0.029612 0.035596
-0.015114 0.083290 -0.076399
-0.009037 -0.053643 0.015582
-0.082202 0.000965 -0.043851
0.077197 -0.001804 0.041429
0.040182 0.020308 -0.014798
-0.059978 -0.009490 0.002889
-0.007607 0.031078 0.017453
-0.004018 0.036049 -0.063307
0.003858 0.052627 -0.056375
0.093401 -0.025062 0.011371
0.068745 -0.079883 0.010703
0.026772 -0.073428 0.064551
-0.016540 -0.025470 0.038341
-0.078176 -0.004535 -0.045092
0.063792 -0.032025 0.078580
-0.052018 0.061047 -0.080940
-0.085260 0.002896 -0.035871
0.029269 0.017313 0.021853
-0.029340 0.019368 -0.075050
0.005956 0.013959 -0.032695
0.007265 0.016749 -0.027532
-0.011056 -0.005154 -0.054621
-0.011930 0.000640 -0.060538
-0.071770 -0.003754 -0.000290
0.031828 -0.086814 0.009740
-0.029133 -0.015164 0.006490
0.059907 -0.077362 0.050536
-0.076319 0.003360 -0.056052
0.012631 0.071356 -0.036995
-0.013257 0.000393 0.026229
-0.056839 0.005520 -0.070857
0.074004 -0.066716 0.054235
-0.015287 -0.041824 0.005591
0.013436 0.081835 -0.022545
-0.095718 0.082922 -0.035417
0.038463 0.004446 0.070667
0.021854 -0.068203 0.067978
0.050372 -0.044663 0.081460
0.076329 -0.053955 0.066519
-0.010613 -0.016734 0.047857
-0.020917 -0.011165 -0.055389
-0.071050 0.060866 0.016971
-0.062118 0.011983 -0.070167
0.044943 -0.082590 0.043273
0.080555 -0.072937 -0.021839
0.073748 -0.043521 0.072929
0.015737 0.041960 -0.020446
0.046042 0.011971 0.050666
0.040488 -0.024721 0.082220
0.044022 -0.001693 0.073191
0.065857 -0.000304 0.063605
-0.005157 -0.016745 0.056394
-0.011412 0.029716 0.018645
-0.036524 0.012294 -0.074883
0.020233 0.020501 0.043921
-0.008868 -0.048843 0.035090
-0.017913 -0.004184 0.037842
0.021708 0.012315 0.033851
0.026064 -0.076920 0.057354
-0.016401 -0.015231 0.043839
0.045613 0.019616 0.036821
-0.037713 -0.011257 0.006284
0.092066 -0.020913 0.036824
-0.025887 0.002300 -0.069782
-0.058729 -0.016596 -0.045173
-0.086720 0.038036 -0.052339
0.014775 0.033184 -0.000130
-0.079874 0.013148 -0.055278
0.017885 0.034657 -0.041727
0.093680 -0.021503 -0.000044
-0.084526 0.040727 -0.056700
0.013256 0.084508 -0.029020
-0.094956 0.066373 -0.019743
-0.081420 0.010870 -0.004063
-0.086167 0.004935 -0.021504
-0.003233 -0.066733 -0.019813
0.013962 -0.014833 0.072785
0.060217 -0.076180 0.054821
-0.089356 0.017596 -0.025866
0.053510 -0.078336 0.065214
0.032147 0.000472 0.070729
0.014850 -0.037916 0.076806
0.074822 -0.011483 0.065744
0.093486 -0.046994 0.003862
-0.050531 -0.003059 -0.068696
0.024008 0.025481 -0.041868
0.004073 0.009451 -0.046399
-0.083888 0.000965 -0.038482
0.010135 0.044560 -0.003507
0.038740 -0.089152 -0.012376
0.047520 0.018543 0.007127
-0.056123 0.024345 0.019095
-0.072921 0.064873 0.016022
0.044026 -0.045394 0.081972
0.015865 -0.013382 0.073163
0.027612 0.022887 -0.038474
-0.021120 -0.000279 0.037235
0.063802 -0.003981 0.068994
0.032496 0.021148 -0.002145
-0.015532 0.008342 0.021595
0.018529 0.016743 0.022484
0.006508 -0.043027 0.071055
-0.018340 0.025360 0.020191
-0.020610 -0.012908 0.028471
0.092862 -0.046596 0.011237
0.051054 0.017992 0.007292
0.016283 0.004742 0.053543
-0.093387 0.053674 -0.016625
-0.054654 0.082865 0.025276
-0.033351 0.020838 0.020789
-0.014862 -0.025120 0.042977
0.002604 0.052963 -0.058339
0.006273 0.070243 -0.001184
-0.094660 0.089500 -0.041165
-0.012209 -0.048802 0.009816
0.009240 0.054566 -0.005832
0.071922 -0.078598 0.003719
0.014713 0.048444 -0.025346
0.059870 -0.085325 -0.001693
-0.005176 -0.050636 0.056215
-0.020327 0.001247 0.037272
-0.023644 0.063291 -0.079250
-0.008232 0.046726 0.014922
0.069978 -0.069441 0.056806
-0.015980 0.055900 -0.075281
0.020044 -0.064431 0.072891
0.015300 -0.082935 -0.019789
0.009052 0.041038 0.000825
0.010443 -0.046402 0.073112
0.036626 0.012438 0.048572
0.068588 -0.006091 0.067372
0.052894 0.001619 0.068995
-0.030524 -0.022861 -0.031391
-0.021197 0.045214 0.020812
-0.034901 0.004693 0.017497
0.013468 0.015589 0.023444
0.026965 -0.046623 0.080027
0.063793 -0.041197 0.078230
0.061844 -0.044556 0.078489
0.092600 -0.045580 0.036754
0.077948 -0.035813 0.072902
0.033044 0.011236 0.051817
-0.084050 -0.001208 -0.029270
0.002282 0.016094 -0.047941
0.087566 -0.060465 0.010399
-0.014671 0.053402 0.018389
0.096123 -0.031053 -0.022021
0.060185 0.007184 0.054859
-0.048988 0.001447 -0.071475
-0.086492 0.004934 -0.024394
-0.058773 -0.018606 -0.036305
0.034321 0.018598 0.016950
0.008831 -0.072837 0.032125
0.012439 0.022664 0.042655
-0.096254 0.089500 -0.027290
-0.089354 0.024856 -0.016366
0.084682 -0.051050 0.063035
0.054500 0.003463 0.069068
0.069979 0.011052 0.002030
0.087301 -0.006039 -0.001688
0.063105 -0.082363 0.036880
0.031426 -0.028868 0.081950
-0.016198 -0.036053 -0.021641
-0.033296 -0.012949 0.005831
-0.017060 -0.031483 -0.036239
-0.069719 0.012205 0.009442
-0.059231 -0.005274 0.007850
-0.016156 -0.029121 -0.043360
-0.018047 0.084763 -0.077887
-0.078657 0.075509 -0.068056
0.011806 -0.008881 0.068353
0.039551 -0.077847 0.061347
-0.024635 -0.023060 -0.010481
-0.004581 0.012229 0.039217
0.084166 -0.039557 0.061691
0.023938 0.025714 -0.002464
-0.077831 0.089500 0.013054
-0.003795 0.011254 0.026389
0.000848 -0.047443 0.063457
0.014796 -0.011539 0.071765
0.007610 -0.049048 0.072900
-0.000004 -0.052408 0.057908
0.025634 0.018724 0.019137
0.075615 -0.069326 0.039587
0.014760 0.009934 0.034551
0.041912 -0.089006 -0.008049
-0.028026 -0.023456 -0.022230
0.001524 -0.051352 0.061874
0.029370 0.009046 0.057083
0.089716 -0.043137 0.037952
-0.067222 0.004930 -0.065268
0.014192 0.014973 0.027596
0.086125 -0.002683 -0.027532
-0.006741 -0.060388 -0.006314
-0.017894 0.005145 0.037351
-0.078929 -0.001106 -0.007589
0.007597 0.028705 -0.039443
-0.010107 -0.027354 0.052876
-0.010428 -0.053449 -0.006460
0.064766 0.015198 -0.022482
0.038117 0.020639 -0.027531
-0.031576 0.007421 0.018412
-0.064931 -0.016590 -0.021745
0.005024 -0.045294 0.069194
0.049714 0.011768 0.061281
0.001941 -0.056724 0.057044
-0.054905 0.061008 -0.080269
-0.046246 0.002896 0.016396
-0.080216 0.082509 -0.066788
0.040488 -0.007566 0.076639
0.023090 -0.025466 0.079507
-0.017196 -0.015779 0.043338
-0.008216 -0.000365 0.031522
-0.021317 -0.004192 -0.063799
-0.017132 -0.032381 -0.027533
0.003199 0.012289 -0.043601
-0.016762 0.007819 0.037790
-0.012456 0.057869 0.017368
0.062936 -0.080422 0.028524
-0.091860 0.042551 -0.015470
0.032857 0.008616 0.060211
-0.017211 -0.035909 0.013904
-0.022044 0.052888 -0.077750
0.019243 0.028713 0.000106
-0.007939 0.027267 0.018507
-0.035274 -0.021506 -0.028968
-0.029299 -0.018696 -0.003076
0.008572 0.035014 -0.039578
0.029162 -0.087861 -0.012466
0.072055 -0.077288 0.013862
0.002272 -0.069571 0.036772
0.007570 0.036468 0.006348
-0.011318 -0.009226 -0.048858
-0.026536 -0.006359 0.017067
0.011527 0.014633 -0.027533
-0.020027 0.040649 0.020342
0.083869 -0.063746 0.022301
0.007696 -0.071759 0.035058
0.013738 0.000956 0.058998
-0.019411 0.050920 -0.076444
-0.038650 -0.005651 -0.067771
0.018995 0.016587 0.051734
0.078375 -0.016053 0.064662
-0.001086 -0.045549 0.061667
-0.003203 0.001815 -0.028408
0.064710 0.011387 0.023339
0.056936 0.016209 0.010524
-0.025477 -0.018439 0.007146
0.061431 -0.084308 0.003402
-0.069042 0.079249 0.019309
0.013452 0.026856 0.011204
-0.020609 -0.012801 0.025017
0.043497 -0.064648 0.074858
0.031942 0.020273 0.010002
-0.003261 0.021246 0.037522
-0.069165 0.000383 0.005508
0.088698 -0.011456 0.013673
0.038117 0.020639 -0.027531
0.074748 0.002826 0.035006
0.009440 0.009058 0.032080
0.059433 -0.071693 0.064751
-0.035351 -0.010504 -0.062477
0.043822 -0.080077 0.064861
0.013077 0.051923 -0.016157
-0.025650 -0.000719 0.018472
-0.044365 -0.018608 -0.008920
-0.095697 0.071557 -0.023727
0.047105 -0.081325 0.048445
0.093243 -0.018096 -0.008012
-0.021053 -0.008780 0.037439
0.074748 0.002826 0.035006
-0.041995 0.068124 -0.082484
-0.037085 0.084692 -0.082867
-0.018402 -0.005233 -0.061077
-0.026875 0.076781 -0.080944
-0.039437 -0.001691 0.014534
-0.016720 0.060338 0.020007
0.091315 -0.013030 -0.007182
0.006967 0.028710 -0.041845
-0.005849 0.012103 0.042708
-0.023117 -0.013458 0.020056
0.052681 0.015777 0.023165
-0.094169 0.083627 -0.042943
-0.064608 0.000966 -0.065206
-0.008981 -0.024783 0.054363
-0.010599 -0.011022 -0.027532
-0.021190 -0.027606 -0.035304
-0.094406 0.053850 -0.032949
0.092519 -0.052753 -0.006345
-0.020542 -0.014827 0.042631
0.015738 0.009162 0.037891
-0.064639 0.068395 0.021151
0.027163 0.016570 0.054343
-0.080457 0.046208 0.007011
-0.032997 -0.013999 0.004289
-0.014165 -0.036946 0.037715
-0.004236 -0.007593 0.048200
0.081654 -0.071554 -0.015116
0.031257 -0.080722 0.060975
-0.034782 -0.003894 -0.068668
-0.016768 -0.003050 -0.061807
0.029140 0.003890 0.066324
0.009476 0.046750 -0.042163
0.029545 0.016688 0.023563
-0.002608 0.056411 0.009984
-0.067103 -0.011241 -0.006011
-0.000469 0.050621 -0.062012
0.071714 -0.031558 0.074646
-0.000207 -0.006494 0.052820
0.013822 0.056791 -0.027532
-0.085514 0.007320 -0.040576
-0.070569 -0.001106 0.003243
-0.077360 -0.009495 -0.026284
0.092064 -0.055039 -0.014902
-0.018296 -0.033208 0.029785
-0.010557 -0.023953 0.051552
0.018077 -0.035906 0.078365
-0.020061 -0.017472 0.027398
-0.089495 0.053476 -0.005253
0.018696 0.001300 0.068572
0.006967 0.028710 -0.041845
-0.078260 -0.001107 -0.049662
-0.067443 0.089500 0.020335
-0.010112 -0.051693 0.037207
0.017356 -0.025973 0.077393
0.001941 -0.056724 0.057044
0.002213 0.055828 0.004982
0.072274 -0.068152 0.054922
-0.014100 -0.022994 0.044402
-0.010772 -0.045013 0.036427
0.068724 -0.002389 0.063403
-0.031703 -0.020639 -0.012539
0.042411 -0.084962 0.030532
-0.020575 -0.025006 -0.046312
0.035888 0.013876 0.060467
-0.082612 0.006892 -0.047949
-0.093878 0.089500 -0.012047
-0.022924 -0.014678 0.020165
0.001774 -0.008522 0.058258
-0.021078 -0.026270 -0.008499
0.034999 0.010204 0.057083
-0.056104 -0.019213 -0.037283
0.037518 -0.041738 0.082482
0.021671 0.028965 -0.013140
-0.025782 -0.010227 -0.059752
0.011461 0.082764 -0.012437
0.053271 0.017992 0.002027
0.004188 0.089500 -0.025158
0.024072 0.021978 0.012359
-0.004119 0.008985 0.025138
-0.055408 -0.001106 -0.068497
-0.083611 0.064026 0.005789
0.037518 -0.041738 0.082482
-0.018088 -0.032752 0.001879
-0.012773 -0.005651 -0.055877
-0.003233 -0.066733 -0.019813
0.094440 -0.047824 -0.015468
-0.068356 -0.005896 -0.056929
0.087767 -0.063248 -0.011546
-0.060903 -0.007752 0.004467
0.015717 -0.072468 0.054960
-0.018088 -0.032752 0.001879
0.089571 -0.013657 0.036956
0.090612 -0.029821 0.035902
0.093226 -0.050935 -0.007867
-0.006350 0.007712 0.027845
0.008199 0.026977 -0.034567
0.024037 0.020620 -0.038481
-0.041995 0.068124 -0.082484
0.028809 0.019565 0.016357
-0.002967 0.000074 0.036821
-0.003413 -0.004246 0.043967
-0.016358 -0.009852 -0.053675
0.062278 0.000805 0.065199
-0.055336 -0.010874 -0.059482
-0.021190 -0.027606 -0.035304
-0.013141 -0.047196 -0.003020
-0.083225 -0.001510 -0.035507
-0.014130 0.011153 0.021421
0.043000 0.007018 0.067833
0.083393 -0.001688 0.007243
0.012772 0.055096 -0.027532
-0.007514 0.051566 0.014115
-0.040534 -0.011301 -0.061915
0.064668 -0.048669 0.076431
-0.037462 0.078603 -0.082784
-0.074376 0.024188 -0.064656
0.013595 0.051647 -0.018692
0.009376 -0.069859 0.046389
0.003107 0.031895 -0.052514
-0.077183 0.027978 -0.062851
0.088082 -0.010548 0.036851
0.090819 -0.016596 0.014038
0.085613 -0.025749 0.056885
-0.020353 -0.028792 -0.032649
0.017624 0.017853 -0.046219
0.011758 0.026551 0.012702
0.022750 0.028174 -0.027532
-0.092394 0.045891 -0.040098
0.045946 -0.067841 0.072931
0.006501 -0.075592 0.002520
0.093591 -0.050779 -0.015080
0.005828 0.010067 -0.027532
0.025252 0.020880 -0.043136
-0.020242 -0.016353 0.026751
-0.071830 0.002897 -0.060640
0.007265 0.016749 -0.027532
-0.019114 -0.030454 -0.025195
0.034321 0.019516 0.010714
0.064452 -0.011226 0.073238
0.018384 0.001244 0.063196
0.004536 0.040977 0.006500
-0.061072 0.045311 -0.076634
-0.010594 0.017310 0.020995
-0.016168 0.071156 0.020476
0.010838 0.072977 -0.011280
0.005169 0.040526 -0.051235
0.006801 0.078756 -0.001503
-0.010985 0.075527 -0.073707
-0.089481 0.046207 -0.007085
0.067892 -0.074707 0.043267
0.077221 -0.074759 0.000318
0.008355 -0.006720 0.063697
-0.049416 -0.018625 -0.045507
0.000724 0.016061 0.042709
0.080102 0.002138 0.007235
0.013965 0.047717 -0.017298
-0.047845 0.012081 -0.074607
0.033242 0.007371 0.062759
-0.072290 0.005685 -0.061461
0.000838 0.015669 0.039222
0.008893 -0.025043 0.072699
-0.065501 0.040725 -0.073934
0.025634 0.018724 0.019137
0.079265 -0.058927 0.056961
-0.029299 -0.018696 -0.003076
-0.005102 0.057197 0.012138
-0.019586 -0.004992 0.026188
0.089433 -0.046215 0.035908
-0.027383 -0.009864 0.014947
-0.020328 0.012281 -0.070221
-0.024360 -0.004492 0.019062
-0.017695 -0.002097 0.024023
-0.085999 0.061234 -0.058260
0.081212 -0.014980 0.058947
-0.028870 0.060497 0.024485
-0.036172 -0.014814 0.000933
-0.068587 0.082673 -0.075712
-0.020182 -0.007814 0.023887
-0.019106 -0.027640 0.024050
-0.007198 0.015184 0.042788
0.017610 -0.078800 0.032128
-0.025490 -0.001561 -0.067633
0.033242 0.007371 0.062759
-0.066335 -0.007743 -0.056552
-0.065039 0.057232 -0.076168
0.006455 -0.021633 0.070279
0.030428 -0.088447 -0.027532
0.077580 -0.036395 0.070516
0.011426 0.058800 -0.039094
0.009237 0.057447 -0.006432
0.084310 -0.056965 0.041539
-0.092764 0.068536 -0.010336
0.051626 -0.086171 0.014041
0.091793 -0.012848 -0.022278
0.006262 0.041941 0.004038
-0.089382 0.027345 -0.041295
0.090038 -0.022637 0.032232
0.014881 0.026293 0.042771
-0.014822 -0.007251 0.043259
0.033709 -0.069984 0.070595
-0.011503 0.070698 -0.073807
-0.071937 0.028280 -0.067612
-0.044927 0.017661 -0.076069
-0.057936 0.089500 -0.080445
0.061673 0.016547 -0.022496
0.011283 0.056339 -0.044112
-0.046926 0.048034 0.024456
0.037288 0.016567 0.035528
-0.000602 0.017530 0.038725
0.016624 -0.080644 0.017403
-0.006756 0.074498 0.014493
0.010838 0.072977 -0.011280
0.040187 -0.070128 0.071152
-0.051508 0.053531 -0.080393
-0.029965 -0.000127 0.016885
0.031496 0.016300 0.025258
0.068250 -0.014082 0.072558
0.073823 0.005440 0.023340
0.087751 -0.005111 -0.027532
-0.043272 0.016547 -0.075951
-0.001776 -0.058330 0.039565
0.022288 -0.085419 -0.004946
0.075157 0.002153 0.035161
-0.053091 -0.019429 -0.039900
-0.086138 0.046749 -0.055540
-0.016321 -0.028084 0.044271
0.022785 0.003995 0.062646
0.058518 0.012639 0.032219
0.089394 -0.061041 -0.021825
0.090079 -0.041316 0.037542
-0.027140 -0.020134 -0.028826
0.074822 -0.011483 0.065744
-0.042697 -0.018402 -0.047939
-0.035706 0.060205 -0.081680
0.005169 0.040526 -0.051235
-0.062749 0.017335 0.015003
0.074995 0.007684 -0.000037
-0.052470 0.013514 -0.074025
0.095738 -0.039171 -0.011545
0.050229 -0.083608 0.033931
0.046212 0.016991 0.021988
-0.001831 0.006350 -0.051327
0.021360 0.029935 -0.027531
-0.046510 -0.020441 -0.016376
-0.062393 -0.016068 -0.042486
0.043682 -0.087560 0.010171
0.083784 -0.048747 0.057935
0.040663 -0.066520 0.073764
-0.021931 0.023106 0.020566
-0.026809 -0.002698 0.017614
0.046212 0.016991 0.021988
0.036338 0.015465 0.032194
-0.015900 -0.000897 0.024908
0.087889 -0.063604 -0.021827
0.001161 -0.064915 0.035256
-0.044952 0.082746 -0.082876
0.016733 -0.078321 0.035077
0.084482 -0.048194 0.065591
-0.060195 -0.012002 -0.054899
0.079376 -0.011568 0.058918
-0.037756 -0.019385 -0.010824
0.086136 -0.062801 0.010702
-0.027817 -0.002602 0.017102
-0.010303 0.081741 -0.073448
-0.027383 -0.009864 0.014947
-0.088369 0.012916 -0.031054
-0.014075 -0.007074 -0.055463
-0.013317 -0.001864 -0.059988
-0.007135 -0.045367 0.048855
-0.087571 0.024344 -0.010824
-0.046454 -0.017441 -0.006163
0.003154 0.060681 -0.058716
-0.053445 -0.001105 -0.069127
-0.078359 -0.007834 -0.020373
-0.023596 -0.020932 0.006502
-0.009889 0.022611 0.019823
0.066727 0.006949 0.056330
0.053772 -0.075181 0.062891
-0.074474 0.032226 0.010281
-0.022394 0.062697 0.022693
-0.036393 -0.021200 -0.018185
0.076344 -0.060414 0.060873
0.000558 -0.042650 0.065280
0.038602 0.005981 0.065929
0.073840 -0.075426 0.017389
0.012853 0.065455 -0.019604
0.064949 -0.013476 0.073995
0.005936 0.015548 0.022643
-0.092942 0.089500 -0.009241
0.017173 0.037405 -0.019762
0.005358 0.032188 0.011587
-0.060991 -0.015524 -0.046061
0.080959 -0.033893 0.067027
0.092369 -0.016298 -0.003571
0.012688 0.060617 -0.017809
-0.088489 0.057198 -0.053536
0.063648 -0.069304 0.064759
-0.005030 -0.003868 0.040814
0.051542 -0.088266 -0.013285
0.020643 0.031641 -0.034531
0.053110 0.015309 0.034462
-0.008833 0.011411 0.038753
-0.009983 -0.039982 0.047812
0.071216 -0.067315 0.059019
-0.089114 0.016107 -0.028338
-0.033993 -0.012071 -0.060009
-0.013658 -0.040974 0.042336
0.082103 -0.048185 0.061938
0.028254 0.023442 -0.010321
0.040491 -0.041284 0.082638
0.041253 -0.089500 -0.027532
0.066011 -0.051477 0.074989
0.048747 -0.082474 0.041613
0.086181 -0.021587 0.050537
0.012012 0.013293 0.029523
0.007722 0.060351 -0.050667
0.079477 -0.067472 0.030499
0.038284 -0.086708 0.017578
-0.012749 -0.016810 0.043987
0.020052 -0.073427 0.059302
0.007648 -0.078045 -0.027532
0.069170 -0.022132 0.074680
-0.013068 0.007911 0.022473
0.027996 0.021374 -0.027532
0.031014 -0.084877 0.024258
-0.095452 0.064538 -0.026075
0.030477 0.007642 0.066841
-0.059014 0.000960 0.012125
0.013451 -0.061692 0.067984
-0.023648 0.023950 -0.074139
-0.019098 -0.001871 -0.064235
0.033709 -0.069984 0.070595
-0.055299 -0.004543 -0.066212
-0.071084 -0.013611 -0.022758
-0.062229 0.017510 -0.071367
-0.023377 -0.005051 0.037147
0.007667 -0.035297 0.072928
0.009078 0.004024 0.044320
0.005125 0.031477 -0.048290
0.001458 0.055807 -0.060370
0.042690 0.018856 0.007474
0.040488 -0.050178 0.080939
-0.065841 0.053222 0.019288
-0.090144 0.042262 -0.046056
-0.023134 0.002420 0.019687
0.016259 0.035695 -0.009155
0.087430 -0.014252 0.030892
0.065984 -0.083422 -0.015088
0.081859 -0.005546 0.034228
0.073024 -0.077585 0.005909
0.051038 0.011708 0.048241
-0.005500 -0.038920 0.058128
0.022750 0.028174 -0.027532
0.005843 0.010091 -0.028250
-0.000602 0.017530 0.038725
0.085673 -0.043453 0.065570
-0.022165 -0.022718 0.008821
0.093516 -0.017987 -0.015080
-0.028825 -0.004640 0.015974
0.027581 0.015620 0.026383
0.080508 -0.070205 0.010707
-0.023774 -0.025594 -0.022306
-0.051658 -0.009159 0.006982
0.066754 -0.072526 0.054887
-0.000442 -0.008579 0.062918
-0.022836 0.006954 0.019763
0.015842 0.041959 -0.036675
-0.021196 -0.024834 0.006055
0.004192 0.049604 -0.055257
0.054761 -0.028988 0.081234
-0.077440 0.068546 -0.068745
-0.008232 0.046726 0.014922
-0.036067 -0.019174 -0.009707
0.070611 0.006067 0.035013
-0.010975 0.009118 0.022735
0.066011 -0.051477 0.074989
0.012246 0.019670 0.019551
-0.020969 0.020605 0.020572
0.090122 -0.010353 -0.007874
0.030783 -0.018642 0.079953
0.079187 -0.035491 0.068994
0.013214 0.042577 -0.046379
-0.030777 0.003268 0.017602
-0.025986 -0.020404 -0.002285
0.009356 0.031682 -0.029656
-0.093158 0.075353 -0.010537
0.055177 0.009080 0.054999
-0.050531 -0.003059 -0.068696
0.014045 0.049336 -0.036718
0.002938 0.034855 0.011381
-0.062873 0.027814 -0.073120
0.091161 -0.047304 0.023474
0.076076 0.002028 0.030604
0.025791 -0.069020 0.069118
-0.005308 0.002534 0.030735
-0.031820 0.017813 0.020376
-0.046163 0.000965 -0.071662
0.005433 0.084770 0.001036
-0.006150 -0.036716 0.057966
0.090764 -0.058146 -0.016743
0.025154 -0.077353 0.054911
-0.053295 -0.015064 -0.003141
-0.005350 0.032391 0.016407
0.074316 -0.075399 0.036817
-0.014918 -0.040071 -0.017171
-0.055299 -0.004543 -0.066212
-0.011124 -0.049463 0.036909
-0.027530 -0.008607 -0.062512
0.068714 0.011297 0.007236
0.092459 -0.036201 0.044745
0.013588 0.089500 -0.032418
0.001485 -0.028268 0.067466
0.004188 0.089500 -0.025158
0.040187 -0.070128 0.071152
0.027760 0.020237 0.044780
-0.071636 0.012008 0.007856
0.003073 0.009105 0.028115
0.095017 -0.025483 -0.007914
0.015575 0.019973 0.018837
-0.060278 0.004933 0.013179
0.039057 0.020088 -0.008123
-0.032128 -0.021270 -0.040542
0.021131 -0.080513 0.032135
-0.086138 0.046749 -0.055540
-0.030295 -0.009045 0.012666
0.096242 -0.033072 -0.027532
0.021686 0.009041 0.046633
0.060217 -0.076180 0.054821
0.013088 0.056543 -0.028466
-0.026574 -0.014488 0.037516
0.090519 -0.013899 0.007235
-0.010303 0.081741 -0.073448
0.008884 0.084769 -0.050633
-0.019970 -0.028119 -0.010580
0.009789 0.039676 0.000766
0.014327 0.051393 -0.027532
-0.038329 0.001450 -0.072053
0.015270 0.015407 0.037585
-0.060996 -0.013404 -0.051445
-0.088815 0.020981 -0.038943
0.072880 -0.009837 0.066520
-0.003203 0.001815 -0.028408
-0.082901 -0.003054 -0.030033
-0.011534 0.039072 -0.070348
-0.004047 0.027170 0.017836
0.037254 0.010291 0.057608
0.055663 -0.077323 0.056961
0.013137 -0.071561 0.062880
-0.009878 -0.049727 0.035512
0.055286 -0.010427 0.076168
0.024035 -0.035590 0.080494
-0.012209 -0.048802 0.009816
0.000101 -0.026617 0.068752
0.007582 0.077278 -0.052993
-0.067378 -0.013656 -0.043197
0.075786 -0.014770 0.066952
0.043664 -0.071546 0.069821
-0.009228 -0.054533 0.008074
-0.044651 0.006662 -0.073758
-0.026018 -0.013256 0.014588
-0.025477 -0.018439 0.007146
0.031931 0.019250 0.015712
0.017890 0.029985 -0.000149
0.082894 -0.023443 0.061927
-0.062397 -0.017640 -0.021988
0.041253 -0.089500 -0.027532
-0.025199 -0.019400 0.004848
0.007263 -0.035056 0.072425
-0.017969 -0.031863 -0.033075
-0.076452 0.006216 0.001174
-0.075801 0.082504 -0.070772
-0.034417 0.064929 -0.081863
-0.060991 -0.015524 -0.046061
-0.095881 0.071891 -0.028268
-0.018849 -0.029203 -0.040667
0.064409 -0.080027 0.045411
0.073543 -0.074618 0.023644
-0.005327 0.089500 -0.069694
-0.016713 -0.012077 0.035641
-0.005308 0.002534 0.030735
-0.058411 0.049497 0.022069
-0.088633 0.018022 -0.037090
-0.005977 0.005913 0.029552
0.017638 0.036964 -0.025791
0.071725 -0.013207 0.069768
-0.043853 -0.001100 0.014770
-0.061689 0.075569 0.022800
0.012786 0.050656 -0.014239
0.006335 -0.070594 0.032135
-0.050296 -0.017901 -0.008723
-0.080737 0.049505 -0.063309
-0.024355 0.000954 -0.068560
0.082562 -0.020600 0.060951
0.003092 -0.027308 0.068741
0.079842 -0.028446 0.067790
0.000085 0.002136 0.036738
0.018895 -0.075119 0.063324
0.008695 0.046755 -0.044715
0.005640 0.066917 -0.000268
-0.019719 -0.028181 0.004201
-0.015422 0.003055 0.038348
0.020208 -0.078441 0.056443
-0.074877 -0.010874 -0.035549
-0.011251 -0.019780 0.055331
0.048729 -0.078361 0.058871
0.068503 0.010435 0.015399
0.071927 -0.004230 0.061932
0.022144 -0.084110 0.009745
0.047118 0.004906 0.066869
0.027789 0.023353 -0.037215
0.000514 -0.000699 0.059156
0.087379 -0.049672 0.041591
-0.036674 -0.001634 -0.070368
-0.021188 0.050791 0.021147
0.094657 -0.038593 0.005504
-0.003404 0.059967 0.010659
-0.071276 0.000966 0.003997
0.014932 0.038954 -0.010348
0.003199 0.012289 -0.043601
-0.040457 -0.002346 -0.070186
0.076076 0.002028 0.030604
0.005156 0.010127 -0.032628
0.083510 -0.005326 0.043984
-0.088516 0.089500 -0.056160
-0.089766 0.024191 -0.018826
-0.043392 0.006628 0.017763
0.003211 -0.036035 0.069224
0.061711 -0.085532 -0.022539
-0.071889 0.035044 0.012908
-0.016680 -0.030795 -0.038795
0.075563 0.003343 0.026570
-0.085310 0.075743 0.004529
0.016036 -0.079314 0.024275
0.074654 -0.046851 0.071170
-0.041959 0.046294 0.024561
0.061242 -0.065019 0.070418
0.024224 0.015737 0.030011
-0.072978 0.046410 -0.070000
-0.042162 0.013201 0.019235
-0.035669 0.035808 0.022909
-0.088392 0.053400 -0.003075
-0.019865 0.003366 0.020977
-0.021053 -0.008780 0.037439
0.012758 0.067158 -0.034607
-0.095452 0.064538 -0.026075
-0.068746 0.053184 0.017659
0.027440 -0.083825 0.044755
0.009773 0.039595 -0.036836
0.016091 0.019419 0.037899
-0.047196 -0.021215 -0.034087
0.018460 0.028166 0.003240
0.009237 0.057447 -0.006432
-0.058153 -0.013629 -0.053113
-0.023159 -0.016990 -0.043166
-0.073695 -0.007373 -0.007633
0.044022 -0.001693 0.073191
0.092490 -0.028932 0.023363
0.052419 -0.085388 0.019124
-0.046048 -0.008102 0.009292
0.012830 0.046033 -0.011213
-0.013739 0.039865 0.018204
-0.083744 0.027540 -0.054300
0.090638 -0.025659 0.049928
0.063105 -0.082363 0.036880
-0.011260 -0.051207 -0.019276
0.012043 0.082420 -0.014584
-0.067988 -0.011943 -0.008764
-0.076352 0.084658 0.014290
0.044015 0.017083 0.032890
0.013047 0.065307 -0.028124
-0.013297 0.048797 0.017609
-0.069160 -0.013462 -0.040398
-0.007035 -0.060847 -0.027532
-0.027519 0.042349 0.022366
0.079821 -0.032343 0.068280
-0.031861 -0.010764 0.009813
-0.032013 -0.009013 0.011420
0.026349 -0.001927 0.070998
0.019804 0.020727 0.016826
-0.064322 0.035251 0.017640
-0.061738 0.002743 -0.067709
-0.051993 0.005598 -0.072344
0.071350 0.010486 -0.001694
-0.089237 0.089500 -0.001151
0.006532 0.037880 0.006363
0.019639 0.012899 0.035727
0.041256 -0.089500 -0.027378
-0.095013 0.075602 -0.017491
-0.021685 -0.026043 -0.012724
0.083177 -0.041184 0.063072
-0.001968 -0.062506 0.024151
0.083338 -0.012029 0.059815
0.090763 -0.037176 0.035905
0.011501 0.057886 -0.012481
-0.036419 0.002718 0.016758
0.011231 0.048644 -0.008321
0.004210 0.089500 -0.030938
0.002583 -0.000552 0.045921
0.006641 0.027069 0.037125
-0.019092 -0.024667 0.042855
0.093226 -0.035582 0.020015
-0.030703 -0.022291 -0.036523
-0.018268 0.030703 0.019966
-0.047595 -0.009495 -0.063627
0.012438 0.021651 0.037920
-0.084205 0.023923 -0.052299
-0.020958 -0.027045 -0.013902
-0.023612 -0.015785 0.017872
-0.027635 -0.001864 -0.068230
-0.070109 0.004933 0.007003
0.034595 0.021085 -0.017258
0.015687 0.002302 0.058731
-0.025355 -0.016255 0.012542
0.023689 0.010268 0.044542
-0.007796 -0.052545 0.028808
0.061004 -0.021319 0.078131
0.003567 -0.032906 0.069573
-0.058773 -0.018606 -0.036305
0.088560 -0.062266 -0.016125
-0.037969 -0.016254 -0.002522
-0.021120 -0.000279 0.037235
0.009287 -0.075909 0.017408
-0.071748 -0.011152 -0.043272
0.041253 -0.089500 -0.027532
-0.071765 -0.005285 -0.054094
-0.005224 0.021104 0.019957
-0.082409 0.002896 -0.010589
0.009757 -0.004298 0.062440
-0.019728 -0.028671 0.028282
-0.086383 0.017823 -0.011115
-0.020013 -0.011835 0.025796
-0.007700 0.003795 0.043851
-0.053692 0.022532 0.019455
-0.045501 -0.020010 -0.042009
0.024603 0.014579 0.028367
0.007416 -0.000838 0.054059
-0.007896 -0.057764 0.000299
0.030783 -0.018642 0.079953
0.024041 0.015714 0.055504
-0.071290 0.089500 -0.074109
-0.017094 -0.022496 0.036816
-0.090174 0.044376 -0.009353
0.082742 -0.046136 0.061921
-0.095497 0.072071 -0.021488
0.026212 0.024848 -0.013627
-0.020911 -0.003574 0.042532
0.039535 -0.084628 0.035023
0.083478 -0.061523 0.034985
0.091649 -0.054253 -0.001693
-0.073252 -0.009867 -0.012151
0.069572 0.008155 0.044657
0.057158 0.003335 0.065280
0.002659 0.009775 0.049264
-0.020061 -0.017472 0.027398
0.024041 0.015714 0.055504
0.087315 -0.044803 0.048404
-0.079832 0.053860 -0.064932
-0.076425 -0.009159 -0.018189
-0.053197 0.039048 -0.078326
-0.030857 0.037734 0.022555
-0.089287 0.044376 -0.048886
-0.022910 -0.004567 -0.064328
-0.005711 -0.001627 0.036158
-0.020027 0.040649 0.020342
-0.077816 0.010965 -0.057245
0.024757 0.000341 0.068361
-0.011026 0.049840 0.016372
0.059593 -0.050599 0.077851
-0.035887 0.064930 0.025965
-0.010178 0.018229 0.020825
-0.022961 0.055552 0.022298
0.048682 0.014165 0.037909
-0.042713 -0.004286 -0.068876
0.011806 -0.008881 0.068353
0.047361 -0.084316 0.035023
-0.042904 0.000777 0.015766
0.025154 -0.077353 0.054911
-0.021053 -0.008780 0.037439
0.013756 0.056405 -0.030706
0.005106 -0.036001 0.070803
-0.018031 0.001726 0.042772
-0.007108 0.002983 0.028781
0.052161 -0.086708 0.008000
0.066011 -0.051477 0.074989
0.056721 -0.082555 0.030494
0.044481 -0.080042 0.055380
0.082389 -0.017615 0.058946
-0.024143 -0.020659 0.004459
-0.019827 -0.006281 0.023729
0.074998 0.008685 -0.014899
-0.077656 0.011806 0.001658
0.080959 -0.004253 0.035159
0.065857 -0.000304 0.063605
-0.026742 0.066584 0.024360
0.010478 0.007771 0.035940
0.023008 -0.071601 0.064833
-0.085846 0.029794 -0.004713
-0.051339 0.031452 -0.077608
-0.007095 -0.005993 0.041075
0.006514 0.026639 0.036972
-0.054278 -0.002259 0.012125
0.002286 0.022472 0.042474
-0.005302 0.005645 0.030269
0.001774 -0.008522 0.058258
-0.028216 -0.023558 -0.024439
-0.000119 0.056058 0.007562
0.014343 0.035135 -0.002444
-0.084988 0.035619 -0.001385
-0.027520 -0.020576 -0.006885
-0.073252 -0.009867 -0.012151
-0.079832 0.053860 -0.064932
0.023452 0.016861 0.026559
-0.010594 0.017310 0.020995
-0.013068 0.007911 0.022473
-0.019315 0.037271 0.020140
-0.006150 -0.036716 0.057966
-0.017236 -0.029941 -0.042669
0.053829 0.002854 0.067368
0.000033 0.051297 0.007931
-0.026158 -0.023897 -0.036660
-0.010778 -0.000600 -0.058588
0.006541 0.072664 -0.054599
0.082558 -0.031709 0.064746
-0.086130 0.024367 -0.007352
0.004554 0.026195 0.037602
0.069352 -0.078873 0.036754
0.048640 0.019026 -0.000356
-0.056799 -0.001212 0.011855
-0.092242 0.053401 -0.012380
0.032893 -0.081369 0.046389
-0.054603 0.083203 -0.081356
-0.020386 -0.008100 -0.059348
-0.012566 -0.034829 0.045547
-0.059577 -0.016199 -0.010542
-0.022325 -0.028754 0.037156
-0.012043 -0.000345 0.043011
0.003294 0.059959 0.003294
0.092950 -0.053293 -0.027532
-0.026902 -0.020525 -0.005332
-0.010005 0.089500 0.017244
-0.019296 0.022348 -0.071903
-0.095098 0.083012 -0.017007
0.084453 -0.058838 0.035914
-0.078303 0.057025 0.010794
-0.036415 -0.020771 -0.038095
-0.089368 0.049868 -0.050220
-0.060827 -0.010226 -0.057389
0.010889 0.056148 -0.044944
0.026967 -0.034126 0.081301
-0.058412 0.075435 0.023989
-0.069376 -0.011943 -0.045215
-0.090659 0.038900 -0.043154
-0.002860 -0.035248 0.062966
-0.004939 -0.064388 -0.027531
0.002938 0.034855 0.011381
0.082742 -0.046136 0.061921
0.006762 -0.006227 0.061555
-0.027999 -0.015353 0.008079
-0.017398 0.042497 0.019473
0.049789 -0.074440 0.065543
0.011093 -0.006055 0.065534
0.080269 -0.001494 0.026390
0.017424 0.037319 -0.022942
-0.024720 -0.012391 -0.055767
0.095256 -0.036054 -0.000215
-0.072674 0.057196 0.015493
-0.023517 -0.001864 -0.066592
-0.050890 -0.020763 -0.033661
-0.027850 -0.011972 0.012855
-0.014496 0.006355 0.022483
-0.073853 0.002898 0.002555
0.009971 0.037790 0.002181
-0.003184 0.006283 -0.053445
0.007128 0.037703 -0.045749
0.004108 -0.061185 0.055031
-0.092613 0.062702 -0.045027
0.080700 -0.059580 0.050549
-0.058954 0.004934 -0.069829
-0.073441 -0.012435 -0.026805
0.061364 -0.002311 0.068998
-0.019170 -0.029622 -0.012876
-0.012667 0.081935 -0.074974
0.015760 0.016958 -0.027532
0.036214 -0.070207 0.070795
-0.017913 -0.004184 0.037842
-0.013251 -0.005283 0.031164
-0.013701 -0.006620 0.043806
0.007494 0.017238 0.043336
-0.017531 -0.030578 0.043094
0.034621 0.005209 0.066329
0.013535 0.029591 0.007363
0.009570 0.029592 -0.027532
-0.088055 0.035090 -0.048638
-0.025968 0.089500 -0.080875
0.091148 -0.043691 0.047247
0.071078 -0.077872 0.037046
0.027671 -0.084081 0.024258
-0.084526 0.040727 -0.056700
-0.053819 -0.018684 -0.042411
-0.013855 -0.030025 0.044779
0.089267 -0.031115 0.058425
-0.004047 0.027170 0.017836
0.086942 -0.004213 -0.015054
0.078980 -0.040424 0.068761
0.012012 0.021009 0.038188
0.052400 -0.074072 0.065169
0.077614 -0.045572 0.068934
-0.011710 -0.002693 0.036735
0.053832 -0.013039 0.077630
-0.052470 0.021184 -0.075567
0.013047 0.065307 -0.028124
-0.002575 0.002078 0.033939
-0.087382 0.084741 -0.057948
0.086563 -0.065106 -0.011546
-0.021149 -0.024323 -0.046411
-0.025782 -0.010227 -0.059752
-0.095660 0.071889 -0.032941
-0.013855 -0.030025 0.044779
-0.020385 0.089500 0.022867
-0.004627 -0.051539 0.045606
0.081459 -0.035196 0.066388
0.087737 -0.063911 -0.027532
0.004414 0.062977 0.001626
-0.079024 -0.007870 -0.025433
-0.010141 -0.025665 0.052628
-0.013947 0.000734 0.042626
0.013273 0.089500 -0.020706
-0.071239 0.072025 0.017645
-0.018903 -0.023840 0.035627
-0.011799 -0.003896 -0.056767
-0.068022 0.057193 -0.074571
0.012077 -0.022749 0.074156
0.082872 -0.008091 0.037583
-0.078605 0.006630 -0.001462
0.055708 -0.004992 0.073237
-0.001521 -0.053038 0.052937
0.048747 -0.082474 0.041613
0.021003 0.014880 0.026083
-0.012935 -0.012119 -0.044400
-0.029419 -0.012084 0.010722
-0.019913 -0.025919 0.020704
0.055361 -0.063511 0.073620
-0.010364 0.054765 0.015945
0.080079 0.001137 0.014037
-0.060286 -0.018712 -0.027235
0.078969 -0.009563 0.056885
0.073823 0.005440 0.023340
-0.004446 0.012034 0.042781
0.009261 -0.035673 0.073761
-0.050322 0.000965 0.014926
0.011585 0.049016 -0.046298
0.027356 -0.071277 0.067494
0.085345 -0.028742 0.058945
-0.075341 -0.004541 -0.005834
0.001627 0.037055 0.011052
-0.019881 -0.022545 0.026675
0.059071 -0.081345 0.035002
0.002364 0.007253 0.030212
0.048353 0.016442 0.033812
-0.067443 0.089500 0.020335
0.093290 -0.026458 0.037066
-0.081691 0.024358 -0.056424
0.023161 0.027666 -0.021136
0.005828 0.010067 -0.027532
0.092311 -0.047303 0.037009
-0.008256 0.003697 -0.058643
0.010020 0.071568 -0.046912
0.073845 0.009201 -0.008046
0.011459 -0.074927 0.032135
0.052465 0.009886 0.054867
-0.049176 0.004411 0.016505
-0.014105 0.019799 0.020535
0.003716 -0.009840 0.061885
0.015575 0.019973 0.018837
-0.078605 0.006630 -0.001462
0.053110 0.015309 0.034462
0.092600 -0.045580 0.036754
-0.069851 -0.014529 -0.026016
0.074822 -0.011483 0.065744
-0.079548 0.031268 0.004976
-0.092689 0.038899 -0.032904
0.014010 0.009067 0.036215
0.012630 -0.007128 0.067644
0.076099 -0.071444 0.028524
-0.067678 0.011509 0.010741
-0.011658 -0.027425 0.050034
0.036501 -0.061149 0.076584
-0.077366 0.038906 0.008923
-0.028829 0.089500 -0.081619
-0.000529 -0.053331 0.055361
0.022206 0.004910 0.060543
0.020055 -0.009363 0.073215
0.053967 -0.081366 0.041554
-0.080142 -0.006286 -0.022372
-0.030797 -0.020103 -0.009719
-0.008443 -0.043000 0.048447
-0.075341 -0.004541 -0.005834
-0.005557 -0.056733 0.034730
-0.080737 0.049505 -0.063309
-0.070359 0.006750 -0.063484
-0.000007 0.016236 0.039029
-0.014711 -0.043101 -0.001269
0.077077 -0.071521 0.023527
-0.029187 0.002096 0.017658
0.009789 0.039676 0.000766
0.007722 0.060351 -0.050667
-0.012582 -0.014527 -0.028572
-0.016768 -0.003050 -0.061807
-0.014155 0.001894 0.042622
0.088114 -0.011614 0.018698
0.011937 0.063474 -0.015016
0.086934 -0.037787 0.054827
-0.018172 -0.003864 0.025458
0.065821 -0.076820 0.055447
0.063291 0.015694 -0.015116
0.003442 -0.050846 0.065060
-0.050362 -0.020971 -0.023847
0.014617 0.049389 -0.030100
0.061245 0.011547 0.032216
0.029118 0.023148 -0.027532
0.090315 -0.015705 0.036761
0.041852 0.009091 0.060912
0.094661 -0.046221 -0.011546
-0.062104 -0.000971 0.009515
-0.017782 -0.014708 0.035582
-0.022155 -0.023314 0.004604
-0.005331 0.033539 -0.064124
