0.001516 -0.055283 -0.091804
-0.004144 -0.023753 -0.062543
-0.024719 0.002053 -0.027776
0.024067 -0.004140 0.034722
0.042838 -0.033686 -0.055745
-0.037617 0.095737 0.070848
0.031211 0.019707 -0.026733
0.042289 -0.004590 -0.025836
0.043339 -0.050365 -0.070013
-0.032981 0.053104 0.079568
0.037550 0.042467 0.070311
-0.044307 0.011074 -0.019634
0.036387 0.091631 0.074466
-0.020881 -0.008903 0.033344
-0.042689 0.051284 0.069981
-0.028418 -0.050310 -0.082203
-0.006770 -0.100507 -0.091777
-0.009798 -0.100745 0.017026
0.041283 -0.029595 -0.050556
0.006350 -0.044215 -0.087237
-0.049987 -0.018039 -0.000704
0.042368 -0.014405 -0.031856
0.019123 0.016621 -0.030796
0.036537 -0.010420 -0.031448
-0.013267 -0.012003 -0.037968
-0.045335 0.080065 0.069585
-0.054908 -0.039866 -0.035342
0.020065 0.028171 0.070795
-0.054219 0.041227 0.008128
0.036048 -0.099505 -0.078753
-0.053987 -0.047895 -0.025400
0.021235 0.050134 0.084893
-0.002239 0.090440 0.088389
-0.052133 0.040847 -0.006972
-0.036466 0.097658 0.070550
-0.045924 0.064285 0.070350
0.054312 0.054795 -0.002090
0.041815 0.093645 0.061999
-0.048433 -0.072347 -0.010288
-0.036186 0.044550 0.073039
0.051583 0.037872 -0.007512
-0.050233 0.091827 0.025531
-0.011141 0.085799 0.088864
-0.040289 0.022298 -0.022869
0.032310 0.111696 0.037780
0.004439 -0.020624 -0.056440
-0.037323 -0.007189 -0.029173
0.041233 0.038529 0.055249
-0.050918 -0.015009 -0.023934
-0.040186 -0.003563 -0.026343
-0.046012 -0.124512 -0.040112
-0.052244 -0.033237 -0.038313
-0.050314 0.084017 0.041215
-0.046738 0.005912 -0.018726
0.006621 -0.007296 -0.033613
0.002330 -0.003785 -0.031205
-0.043256 -0.072146 -0.071154
0.012675 -0.066102 0.018375
0.044784 0.082288 0.069588
-0.028017 0.074297 0.085037
-0.015257 0.067036 0.090198
0.014284 0.013467 -0.029058
-0.052960 0.043006 -0.003003
-0.053522 0.052987 0.025582
0.047656 -0.009556 -0.024608
0.053782 0.006022 -0.005191
0.038122 0.071047 0.078514
0.016018 -0.019452 -0.049833
-0.037586 0.070684 0.078952
-0.032842 -0.034223 -0.067052
-0.017307 0.016974 -0.033524
-0.016954 0.095560 0.083511
0.054641 0.062693 -0.025096
-0.019162 -0.016270 -0.042620
-0.040286 0.068506 0.076638
-0.019798 0.093859 0.083327
0.011271 0.114416 0.070162
0.033647 0.098487 0.072546
-0.039632 -0.024495 -0.043855
-0.052102 0.051508 -0.030146
0.048936 0.074688 0.057556
0.049538 0.045467 -0.034199
-0.054942 0.061289 0.016045
0.035221 -0.027211 -0.052237
0.049713 -0.093719 -0.013361
0.009922 -0.034989 0.024615
0.008710 -0.014016 0.034229
0.045311 0.100554 0.026742
0.054013 -0.039867 -0.041944
-0.018381 0.053916 0.087156
0.027821 0.019132 -0.028195
0.045389 -0.049266 -0.003284
0.009898 -0.009705 -0.035718
0.028131 0.019809 -0.028607
0.008629 -0.039688 -0.083773
-0.001041 0.122077 0.041425
0.007938 -0.024890 -0.064029
-0.048533 -0.036387 -0.051484
0.037991 0.082891 0.076667
-0.050220 0.044326 0.033988
-0.008820 -0.057968 -0.091487
-0.009667 0.100877 0.082422
0.044238 -0.072026 -0.003427
0.007007 -0.048207 -0.089114
0.003184 0.006099 -0.027805
0.046908 -0.047041 -0.005327
0.040258 0.071821 0.076637
-0.038785 -0.057564 0.003912
0.021278 0.016878 -0.029808
0.029223 0.018434 -0.027032
0.016941 0.116815 0.053066
-0.040890 -0.014894 -0.033048
0.032721 0.070252 0.082505
0.030202 0.105031 0.069226
-0.054431 0.064624 0.025038
0.053171 -0.031155 -0.033063
-0.048533 -0.036387 -0.051484
0.054513 -0.119522 -0.036210
0.011403 -0.057916 -0.091008
-0.045627 -0.027244 -0.041914
0.053060 0.023163 0.000386
-0.041106 0.041034 0.059149
0.006030 -0.050268 -0.090052
0.053341 0.030727 0.016374
0.010555 0.015502 -0.036695
0.046973 -0.011309 -0.026309
-0.049943 -0.109205 -0.060206
0.023907 -0.025736 -0.058467
-0.046209 0.008283 0.019778
0.002526 -0.097757 0.017921
-0.048708 0.066413 0.058979
-0.039550 0.028856 -0.027638
0.046908 -0.047041 -0.005327
-0.019995 -0.011652 0.032086
-0.035420 0.096410 0.072431
-0.045159 -0.042596 -0.063297
-0.054582 -0.052867 -0.030197
-0.033422 -0.044547 0.010870
0.002577 0.010843 -0.028988
0.002086 -0.007272 0.039318
-0.037273 0.025122 -0.026411
0.051599 -0.052848 -0.016622
-0.053373 0.041810 0.021141
-0.006637 0.121525 0.042134
0.052351 -0.080698 -0.019836
0.007086 0.121297 0.043089
-0.036777 -0.023507 -0.044566
-0.035781 -0.036491 0.010996
0.035776 0.099241 0.069651
-0.027621 0.116953 0.027613
-0.045882 0.065252 0.070574
0.015041 -0.021777 0.028591
-0.041015 -0.012709 -0.031285
-0.044708 -0.009920 0.012111
0.052961 0.041600 0.022613
0.021233 0.098027 0.080533
0.022791 -0.093847 0.013189
-0.034540 0.038395 0.069920
0.051889 0.021915 -0.003759
-0.054947 -0.124512 -0.039299
-0.011174 -0.050377 0.020540
0.024486 0.018458 -0.029785
-0.031506 -0.037557 -0.072013
-0.046294 0.070693 0.070182
0.005240 0.045365 0.086897
0.044300 0.087613 0.063937
-0.042068 -0.018808 0.011283
-0.033890 0.010930 -0.025092
0.040000 0.009098 -0.022946
0.044689 -0.096909 -0.004873
-0.037610 0.096515 0.070168
0.040197 0.084974 0.073979
0.036822 0.073781 0.079384
0.048164 -0.053364 -0.008702
0.054001 -0.004924 -0.010931
0.046335 0.073791 0.069702
0.029668 -0.000251 -0.027849
-0.054372 0.070117 0.026940
-0.037796 0.037394 0.061560
0.054107 0.071357 0.028993
-0.028817 0.108265 0.061800
0.047359 0.041386 -0.034187
-0.054284 -0.035533 -0.033733
-0.029977 0.035069 0.071120
-0.047995 -0.043543 -0.059745
0.016151 0.003958 0.044728
0.027306 -0.019627 0.023993
0.018406 0.049117 0.085562
-0.036956 -0.048301 -0.075628
0.045127 0.000019 0.016822
0.029625 0.034020 0.070416
0.035364 -0.012771 0.021313
0.025592 -0.088800 0.012009
-0.021407 -0.019344 -0.046909
0.019105 -0.002398 0.038503
0.054379 -0.027902 -0.025721
0.030007 0.056274 0.082466
0.049192 0.077610 0.054432
0.033024 0.046138 0.076524
-0.049610 0.022664 -0.009589
-0.025993 -0.012514 -0.035804
-0.051176 0.045388 0.031197
0.042787 -0.110945 -0.002625
-0.003406 -0.077587 0.018850
0.053498 -0.112974 -0.024370
-0.009667 0.100877 0.082422
-0.045490 0.044794 0.051132
-0.003724 0.026216 0.073595
0.019342 0.027209 0.070040
0.010728 -0.021430 -0.056436
0.050221 0.033591 0.026680
-0.027627 0.100013 0.075843
0.010476 -0.040283 -0.083790
0.039831 -0.043423 -0.070274
-0.020997 -0.043359 -0.081999
-0.025066 -0.020826 -0.047580
-0.025337 0.084529 0.084465
0.028711 -0.033076 0.017547
0.030650 0.099527 0.074129
0.035630 0.047797 0.075328
-0.049905 -0.108032 -0.014069
0.001981 -0.040776 -0.085427
0.028899 -0.051983 -0.082603
0.054779 -0.113424 -0.042300
-0.023955 0.106863 0.072541
0.048176 0.040542 -0.025570
-0.053915 -0.061252 -0.048003
-0.033346 -0.023347 0.017961
0.006194 0.098566 0.084330
-0.053666 -0.030391 -0.017008
-0.023209 0.034046 0.074686
0.045958 0.042659 0.047057
0.045886 0.065168 0.070596
-0.006901 -0.055372 -0.091378
-0.014040 0.119853 0.042922
-0.009664 0.068859 0.091425
0.047250 -0.014380 0.006103
-0.033325 -0.037155 -0.070365
0.004437 0.014545 -0.034711
0.006106 -0.006291 0.039573
-0.048790 -0.022546 -0.032848
0.046644 0.028994 -0.017558
-0.036795 0.066003 0.079451
0.006473 0.012283 0.055658
0.025840 0.010755 0.045153
-0.014427 -0.049121 -0.087724
0.039705 0.105041 0.036789
-0.013992 -0.036432 0.023171
-0.007763 -0.045417 0.022166
0.004751 -0.023257 -0.061540
-0.023376 0.088036 0.084265
-0.050588 -0.025454 -0.032896
0.013696 0.114000 0.069564
0.040571 -0.049586 0.003016
0.053406 -0.044437 -0.048496
-0.035696 0.006443 0.032649
-0.050307 -0.027081 -0.035059
0.040946 0.023905 0.039466
-0.045286 -0.025361 -0.039892
-0.022441 -0.028126 -0.064131
0.009810 -0.022495 0.029613
0.031239 -0.005996 -0.030038
-0.040082 0.107157 -0.036695
0.046353 0.004257 -0.019683
0.013204 -0.041343 -0.083766
0.048857 -0.046601 -0.008882
0.024000 0.051180 0.084064
-0.044079 0.035853 -0.030738
0.034427 0.067096 0.081307
0.048414 0.043353 -0.036695
0.046936 0.020490 -0.014988
-0.016234 -0.073625 0.016758
-0.035100 0.024352 -0.027733
-0.045292 -0.033620 -0.052294
0.029552 -0.019095 0.022768
0.052348 -0.031374 -0.035680
-0.019119 0.027135 0.070060
0.018991 -0.046057 0.018955
-0.017618 -0.050194 -0.087082
0.035123 -0.056782 0.007505
0.040481 0.017603 -0.022031
-0.044894 -0.044904 -0.065333
-0.046265 0.074123 0.069739
-0.013432 -0.033806 -0.076515
0.026507 0.029197 0.066595
-0.038612 -0.016171 -0.035232
0.049449 0.001137 -0.017371
-0.054113 -0.019406 -0.012414
0.053046 -0.021843 -0.024776
0.033960 -0.056684 0.008511
-0.023376 0.088036 0.084265
0.017906 -0.030306 0.023999
0.049618 0.082094 0.047725
0.052115 -0.032792 -0.038154
0.045293 -0.047958 -0.066515
0.039606 0.007013 -0.023484
0.054935 0.065630 -0.016872
-0.038823 0.030319 -0.033666
-0.038764 -0.056127 -0.076202
0.021897 -0.048586 0.017220
0.032041 -0.074679 0.008720
0.035864 -0.041731 0.009486
0.043480 0.070592 0.073541
0.048668 0.011393 0.017242
0.000013 0.018990 -0.036695
0.042715 0.020073 0.033305
0.005875 0.071054 0.091919
0.051230 -0.019978 -0.004278
-0.045096 0.079000 0.070560
-0.054823 0.065191 -0.032821
0.018890 0.020851 0.061076
0.003922 -0.040472 0.023859
-0.052259 0.023152 -0.002266
-0.044432 -0.089456 -0.004358
-0.033934 0.112790 -0.036695
0.048914 0.026603 0.025621
0.013222 0.012710 -0.028748
-0.006614 0.012675 0.056062
0.039376 -0.028354 -0.050390
-0.018762 -0.006067 -0.031782
0.030288 -0.100373 -0.083118
0.045958 0.042659 0.047057
-0.053014 0.069948 0.036140
-0.041768 -0.101528 -0.072965
0.020358 -0.031605 0.022529
-0.054439 0.006787 -0.002107
-0.042604 0.034589 -0.034276
0.031540 0.024212 -0.033716
0.044051 0.101692 0.029159
0.019347 -0.056491 0.017204
-0.044879 -0.018806 0.007572
0.043537 0.040420 0.051648
0.043323 0.042878 0.055620
0.039679 -0.010925 0.017935
0.039835 -0.000678 -0.025370
0.031927 0.042733 0.075396
-0.033363 0.025406 -0.032845
-0.048441 0.041023 -0.025322
-0.030622 0.061156 0.083115
0.048967 -0.022514 -0.000716
0.042519 -0.048258 -0.070162
-0.044553 -0.013790 -0.029932
-0.048142 -0.064780 -0.063768
0.030501 0.012653 0.042883
0.039482 -0.052937 -0.075017
0.053121 -0.050003 -0.021420
-0.037895 0.043167 0.070477
-0.050994 -0.020522 -0.027809
0.054844 0.010334 0.002723
-0.005959 0.070836 0.091910
-0.040834 0.044928 0.066048
0.030761 0.008990 0.039506
-0.047438 -0.002630 0.011732
0.048762 -0.009095 0.006159
-0.019231 0.074183 0.088854
-0.050614 -0.048706 -0.057837
-0.010411 0.118600 0.053495
-0.047488 -0.009914 0.007880
0.007397 -0.005255 -0.032016
-0.039855 0.005956 -0.023542
-0.004512 -0.019445 -0.053989
-0.048980 -0.044790 -0.008790
-0.044794 0.017943 -0.018025
-0.013839 0.000581 0.042832
-0.051722 -0.089738 -0.055876
-0.021972 -0.057654 -0.087615
-0.050658 -0.081449 -0.015292
0.000137 -0.037998 0.024808
0.000766 0.104346 0.081031
-0.052312 0.006008 0.006836
0.034295 -0.053966 -0.079714
0.038958 -0.035122 0.008384
0.015035 0.098396 0.082603
0.013590 0.015519 -0.032289
0.053597 0.052437 -0.012512
0.041961 -0.124512 -0.001664
0.006731 0.056147 0.090324
-0.011034 0.123360 0.027255
0.053022 0.043540 -0.003163
-0.046422 0.066984 0.069744
-0.025713 -0.050702 -0.083773
0.054682 0.060709 -0.007356
-0.041877 -0.093645 -0.001226
0.002717 -0.035902 -0.081180
-0.052530 0.047649 -0.014682
0.048470 -0.003981 -0.020875
-0.041331 0.076682 0.075084
-0.045882 0.041727 0.046150
0.052191 -0.001786 0.003052
-0.054642 -0.035694 -0.025461
0.048236 0.032059 -0.015764
0.005065 -0.007812 -0.034150
0.000132 0.001318 0.045907
-0.038385 -0.076331 0.003198
-0.041904 0.032540 -0.029298
-0.008607 -0.039365 0.023542
0.043773 0.012211 -0.019911
-0.048039 -0.081224 -0.009821
0.006626 -0.073227 0.018880
-0.018028 0.016639 -0.031645
-0.011074 -0.007676 0.037626
0.031563 0.031070 0.062993
-0.044172 -0.002794 -0.023942
-0.026089 0.116651 0.033684
0.028195 -0.031141 -0.065762
-0.016658 -0.025034 -0.061265
0.054013 -0.039867 -0.041944
0.049283 -0.076353 -0.012047
0.009028 -0.035461 -0.079748
0.045519 0.087176 0.059519
0.016018 -0.019452 -0.049833
-0.031440 -0.010732 0.025687
-0.046328 0.025129 -0.016475
-0.039506 0.027218 -0.025926
-0.032878 0.066793 0.082322
-0.053811 0.021012 0.002498
-0.019340 0.111219 0.070690
-0.053451 0.056562 -0.036695
-0.033873 0.111141 0.034699
0.022849 -0.084059 0.013583
0.022793 -0.043887 -0.081533
-0.019797 0.036691 0.078369
-0.007653 0.084551 0.089788
0.051229 0.029598 -0.005363
0.043088 0.035280 -0.036695
-0.010869 0.028694 0.074840
0.032318 -0.111892 -0.081714
0.045206 0.031495 -0.022075
-0.022833 0.068551 0.087694
-0.026119 0.005041 -0.027027
0.024882 -0.032842 -0.070330
-0.026207 -0.004434 -0.030031
0.009154 0.039632 0.083447
-0.044676 0.020936 0.030475
-0.053496 -0.035702 -0.037564
-0.048073 0.006040 -0.017140
0.054056 0.042960 0.006095
-0.050445 0.070889 0.050844
0.030087 -0.028570 -0.059598
-0.054056 -0.001545 -0.008596
-0.052244 -0.033237 -0.038313
-0.043341 0.059970 0.072555
0.044235 0.035301 0.043775
0.035864 -0.041731 0.009486
0.012979 0.105065 0.078745
-0.030809 -0.047571 0.012221
0.051889 0.021915 -0.003759
-0.009788 0.020010 0.064220
-0.031506 -0.037557 -0.072013
-0.000234 -0.029542 -0.072764
0.042399 0.056383 0.072590
0.036257 0.028112 -0.036695
-0.003333 -0.009363 0.037834
-0.005386 -0.039067 0.024111
0.034466 -0.000459 -0.026989
-0.022743 -0.086636 0.013495
0.039181 0.045398 0.070708
0.039872 -0.048828 -0.073245
0.036360 0.080353 0.078694
-0.023835 -0.045093 0.016967
-0.050658 -0.081449 -0.015292
-0.035328 -0.074992 -0.079342
0.050773 0.048227 -0.034238
0.022285 -0.026841 -0.061781
-0.033163 -0.064047 -0.081069
-0.023249 0.119340 0.026654
0.019425 -0.065470 0.016316
-0.028616 0.033371 0.070583
-0.032088 0.057836 0.081544
0.051208 -0.051068 -0.057313
-0.050358 0.025159 0.021335
-0.054854 -0.100503 -0.041039
0.054052 0.042452 0.019012
-0.002070 -0.089745 0.018219
-0.051798 -0.016321 -0.023319
-0.033384 0.003095 0.032628
-0.052699 -0.039313 -0.017094
0.053037 -0.014888 -0.019820
-0.047995 -0.043543 -0.059745
0.039098 -0.034381 -0.061328
-0.031886 0.024673 -0.036695
-0.021007 0.108492 0.072639
-0.033193 0.019728 -0.025958
-0.011480 0.006897 -0.027653
-0.009548 -0.108229 -0.091360
0.041638 0.048531 0.069503
-0.012524 -0.030784 -0.072731
0.011136 -0.024002 -0.061481
0.015251 -0.124512 -0.090061
-0.049814 -0.012789 -0.024114
-0.044819 0.032773 0.039770
-0.041917 -0.000354 0.021024
0.044852 -0.010894 -0.027755
0.026511 -0.024463 0.022252
0.000186 -0.048104 0.022275
-0.045144 -0.036308 0.000323
0.045217 0.094467 0.045521
-0.048214 -0.113367 -0.063640
0.024378 -0.029189 0.021531
0.033878 -0.046025 0.010197
0.054156 -0.039340 -0.040518
-0.044708 -0.009920 0.012111
-0.046972 -0.012814 -0.027272
0.016186 -0.042344 0.020843
0.054915 -0.017920 -0.015523
0.032617 0.026510 0.055133
-0.027621 0.116953 0.027613
0.054560 -0.057425 -0.044301
0.046544 -0.027078 -0.040619
-0.034317 -0.092907 0.006140
-0.043520 0.097991 0.043514
0.011166 0.058485 0.090131
0.052901 -0.056332 -0.021210
0.048557 0.091184 0.036938
-0.046924 0.026264 -0.015719
0.034675 0.026005 -0.031289
-0.018351 -0.073155 0.016086
-0.022885 0.114059 0.053623
-0.005906 -0.000516 0.043851
0.039988 0.106022 0.031848
0.048617 0.030588 -0.013771
0.000137 -0.037998 0.024808
0.010728 -0.021430 -0.056436
0.024934 -0.030146 -0.066228
0.018887 0.121068 0.027690
0.007957 0.116415 0.065288
-0.044499 0.088548 0.061397
-0.000468 0.018837 0.064209
0.041772 -0.035132 -0.059330
-0.002393 -0.049495 -0.090106
-0.049155 0.043983 -0.029232
0.016847 -0.030839 -0.071291
0.019276 0.114544 0.058901
0.027351 0.106867 0.070172
-0.016776 -0.021036 0.028364
-0.004911 0.124282 -0.036695
-0.021108 0.002376 0.041086
-0.011013 -0.102803 -0.091081
-0.048494 -0.037699 -0.053257
-0.048873 0.091218 0.035035
-0.045795 0.051984 0.059519
-0.053436 0.034780 0.003511
0.020901 0.008401 -0.027157
-0.030999 0.030578 0.063021
-0.048284 -0.028241 -0.039683
-0.027332 0.002421 0.037214
-0.038229 -0.034868 -0.062966
0.033758 -0.026708 0.016241
0.035364 0.107994 0.042475
0.054417 0.046776 0.019229
0.032041 -0.074679 0.008720
0.032742 -0.032864 -0.065132
-0.000702 -0.020496 -0.056515
-0.015202 -0.063573 0.017931
-0.037703 -0.021661 0.014801
-0.037037 -0.030288 0.011942
-0.042577 -0.027559 -0.045713
0.050673 0.073143 0.049335
0.024691 0.035318 0.074911
-0.012192 0.015856 -0.036695
-0.025276 0.015020 -0.027094
-0.052639 0.004200 -0.009681
0.025836 -0.000340 -0.028368
0.005167 -0.066585 0.019609
-0.051507 -0.036273 -0.045275
-0.028704 -0.046826 0.013787
-0.051331 0.062528 0.043117
-0.025526 -0.112460 -0.085909
-0.029593 -0.056177 -0.083429
-0.053436 0.034780 0.003511
-0.049886 -0.028095 -0.036923
0.005973 0.023549 0.070316
-0.000694 0.014483 -0.035501
-0.008188 0.078597 0.090948
0.020177 -0.048011 -0.085084
0.023139 0.018288 -0.030603
-0.050684 -0.105946 -0.015804
0.052226 -0.018138 -0.023794
-0.046029 -0.124512 -0.034257
-0.038897 0.106634 0.033957
0.054107 0.071357 0.028993
-0.040795 -0.042434 -0.068514
-0.030266 0.101002 0.073313
0.016387 -0.038257 -0.080090
0.028180 -0.033989 -0.069952
0.011769 -0.026885 -0.066632
-0.026938 0.016243 -0.027006
0.053983 -0.100543 -0.047828
-0.041996 -0.022157 -0.039125
-0.030266 0.101002 0.073313
-0.002513 0.115750 0.070126
-0.054983 -0.108612 -0.037872
0.016941 0.116815 0.053066
-0.048491 -0.031929 -0.044639
-0.049526 -0.031958 -0.042771
0.040781 -0.046923 0.003279
-0.015513 0.055098 0.088352
-0.045236 0.085464 0.063363
-0.052649 0.053579 -0.036695
0.018213 -0.076279 0.015925
-0.000779 0.021417 0.067740
-0.041599 -0.100256 -0.001064
-0.019798 0.042775 0.082142
0.004497 0.104659 0.080615
-0.005906 -0.000516 0.043851
-0.037273 0.025122 -0.026411
0.055004 0.070485 -0.031697
-0.051347 -0.057015 -0.016412
0.051230 -0.019978 -0.004278
0.030118 0.023441 -0.036695
-0.049341 0.020250 -0.010481
0.051951 0.050855 -0.029494
0.036460 -0.041004 -0.071577
0.036691 0.097281 0.070663
-0.042878 -0.099169 -0.071627
0.032213 0.113943 0.027792
0.010632 0.056178 0.089752
-0.000229 -0.048881 -0.089925
-0.027692 0.019885 -0.029016
-0.050185 -0.096371 -0.059679
-0.039673 -0.036079 -0.063116
-0.003723 0.074151 0.091917
-0.044446 0.024539 -0.019206
-0.005817 0.067808 0.091914
0.053133 0.003297 -0.008872
0.024298 -0.035250 -0.073584
0.040666 -0.021970 -0.039869
-0.031049 0.012954 0.042591
-0.031202 0.019805 -0.026773
0.010632 0.056178 0.089752
0.039482 -0.082155 0.001853
0.006861 -0.039212 0.023876
0.037490 -0.046017 -0.074081
0.018448 -0.016426 0.030073
0.027557 0.094871 0.079078
-0.045096 -0.040947 -0.061946
0.052348 -0.031374 -0.035680
-0.033893 -0.053861 -0.079970
-0.054253 0.045353 0.007548
-0.053000 -0.049081 -0.051903
-0.033157 0.080877 0.080889
-0.039175 -0.011760 -0.031415
0.052794 -0.025381 -0.011198
0.042787 -0.110945 -0.002625
0.007086 0.121297 0.043089
-0.008593 -0.001759 0.042420
0.029641 -0.057510 0.011674
0.050126 -0.034897 -0.046363
0.012538 0.016690 0.059029
-0.049840 0.013397 0.015985
-0.047308 0.037607 0.037731
-0.033572 0.022024 0.048590
-0.045469 -0.124512 -0.006291
0.025777 0.114948 0.042816
0.047250 -0.014380 0.006103
0.055006 -0.119514 -0.038193
-0.050082 -0.016466 -0.026191
-0.013870 0.007466 0.048735
0.053642 0.012903 -0.001817
0.044139 -0.079336 -0.003584
0.016387 -0.038257 -0.080090
-0.053613 -0.069535 -0.024491
-0.043154 -0.071863 -0.002000
-0.038608 0.095445 0.069645
-0.020997 -0.043359 -0.081999
-0.046333 0.093063 0.043623
-0.054656 0.048086 0.011880
0.043547 0.034328 -0.028594
-0.042804 -0.004421 -0.025460
-0.001852 -0.041856 -0.086187
0.001786 -0.049887 -0.090273
0.003563 -0.015149 -0.044644
-0.045692 -0.081731 -0.067796
-0.039036 -0.052636 -0.075334
0.029699 0.104607 0.070704
0.035860 0.111189 0.026980
-0.039345 0.018318 -0.022826
-0.006160 0.048291 0.088007
0.034283 0.112525 -0.036695
-0.053629 0.076462 0.029928
-0.002419 0.005702 0.049603
0.036853 -0.007270 -0.029378
0.006641 0.004861 0.048282
-0.002017 0.007978 0.051798
0.039851 0.012212 -0.022658
0.029628 -0.007214 -0.031043
-0.053106 0.010227 0.007135
0.008382 0.119478 0.051191
-0.051977 -0.073190 -0.055141
0.015901 0.019504 0.061075
-0.001717 0.023157 0.070247
0.049119 -0.083490 -0.011909
-0.029755 -0.044366 -0.078391
-0.025296 0.018935 -0.029777
0.015251 -0.124512 -0.090061
0.037109 0.045967 0.073072
0.011167 0.109599 0.075397
0.038095 -0.110845 -0.076886
0.008214 0.048989 0.088001
0.018367 -0.010144 -0.035064
-0.039831 0.037154 0.056639
-0.004837 0.007145 -0.027781
-0.009665 0.109776 0.075588
0.043665 -0.047019 -0.068195
-0.016376 0.033503 0.077331
-0.033724 -0.074720 -0.080633
0.048668 0.011393 0.017242
-0.014006 -0.084317 0.016723
-0.015814 -0.039670 -0.081516
-0.035109 -0.027176 -0.052252
-0.022554 -0.030971 -0.068873
0.035452 -0.073200 0.006108
-0.049850 -0.041515 -0.009786
0.034220 0.014055 -0.024972
-0.010152 -0.046354 0.021517
-0.053609 -0.056287 -0.024267
-0.023883 -0.047775 -0.083283
-0.000720 0.075880 0.091870
0.023739 -0.015826 0.027946
-0.034472 0.021242 -0.025965
0.016775 -0.017727 -0.046070
-0.044430 0.022695 -0.018739
-0.052530 0.047649 -0.014682
-0.054852 -0.075900 -0.033117
-0.036982 -0.011161 -0.031822
0.000190 0.003859 0.048081
0.044880 -0.105562 -0.005309
0.039299 0.094521 0.069447
0.049148 0.020029 -0.011013
-0.019282 0.068807 0.089026
-0.003212 -0.052898 0.021311
0.002197 0.119077 0.056250
-0.040135 -0.055355 0.002670
-0.052186 -0.064451 -0.054538
0.020264 -0.045435 -0.083652
-0.012607 0.092701 0.086086
0.012555 -0.056835 -0.090640
0.017837 0.108139 0.074489
0.026337 -0.039491 0.017003
-0.043898 0.063459 0.072641
-0.026126 -0.065735 0.013114
-0.014730 -0.021705 0.028715
0.031733 0.000221 0.032180
-0.003383 -0.032100 -0.076541
0.014091 0.081338 0.089321
-0.051507 -0.036273 -0.045275
-0.054369 0.060795 -0.025597
0.028643 0.003899 0.037325
-0.049156 -0.110996 -0.061847
0.020551 0.004457 0.043079
0.042836 -0.045267 -0.068231
0.027784 -0.015015 0.025996
0.031776 -0.053767 0.010552
0.043314 -0.007551 -0.026752
0.001326 0.007897 -0.027914
0.050673 0.073143 0.049335
0.006128 -0.033943 -0.078598
-0.035281 -0.030965 0.013293
-0.014040 0.119853 0.042922
-0.033226 -0.022384 -0.045229
-0.054958 -0.055151 -0.035383
-0.014273 0.019497 -0.036695
-0.052056 0.031057 0.020118
-0.027275 -0.014302 -0.037315
0.054313 -0.037962 -0.024020
0.008214 0.111017 0.074713
-0.025172 0.019835 -0.031717
-0.036186 0.044550 0.073039
0.029552 -0.019095 0.022768
-0.030346 0.023106 -0.032103
-0.047788 0.042055 0.040396
-0.048039 -0.081224 -0.009821
0.050335 -0.083401 -0.014514
-0.021623 -0.045576 0.017929
0.045574 -0.041189 -0.001748
-0.037965 -0.043776 0.006960
-0.049503 -0.002202 -0.018765
-0.030456 0.076440 0.083424
-0.041452 0.048340 0.069672
0.045017 -0.037255 -0.058017
-0.041302 -0.045536 -0.070082
0.000685 -0.094960 0.018059
0.054980 -0.051432 -0.035329
-0.008811 -0.026257 0.028117
0.048838 -0.031753 -0.043797
-0.049794 0.041209 -0.020647
0.026808 -0.065734 0.012752
-0.023883 -0.047775 -0.083283
0.044193 0.033155 -0.025265
0.053291 0.048437 -0.007285
0.012932 0.121481 0.035907
0.050416 0.076004 0.049357
0.029610 -0.035557 -0.071001
0.051660 0.049422 -0.026729
-0.048818 -0.052836 -0.062511
-0.001063 -0.045041 -0.088124
-0.054901 -0.008258 -0.008903
0.007185 -0.009811 -0.036073
0.000186 -0.048104 0.022275
0.051583 0.037872 -0.007512
0.028041 0.036619 0.073830
0.048218 -0.057317 -0.009247
0.049698 0.045887 -0.036695
0.041809 -0.102504 -0.072951
-0.035205 0.019312 -0.025126
-0.011243 -0.035999 -0.079733
-0.046404 -0.018584 -0.032097
-0.025439 -0.057504 -0.085965
0.026220 -0.044902 0.015725
0.021207 0.018504 -0.033926
-0.053373 0.041810 0.021141
-0.034394 0.070218 0.081355
-0.038887 0.004283 0.027593
0.035724 -0.030799 0.012987
-0.008188 0.030345 0.076923
-0.054909 0.065241 -0.006352
0.022285 -0.026841 -0.061781
0.041054 0.048612 0.070631
0.052576 0.025481 -0.000776
-0.036157 -0.009564 -0.030988
0.035187 0.088163 0.077081
0.007397 -0.005255 -0.032016
-0.053666 -0.030391 -0.017008
-0.046633 0.024288 0.029016
-0.043713 -0.041114 -0.063958
0.009692 0.106377 0.078518
0.011007 -0.007229 -0.033305
0.054974 -0.124512 -0.039409
0.003522 -0.043914 -0.087372
0.036205 -0.109986 -0.078614
-0.053489 -0.032828 -0.033852
-0.045698 0.028761 0.034294
-0.045092 0.080155 0.070140
-0.043081 -0.081828 -0.002321
-0.039776 -0.020813 -0.039146
0.000013 0.018990 -0.036695
0.050652 0.051479 0.038125
-0.009441 0.015297 -0.036695
-0.046549 0.032714 -0.020417
-0.051542 -0.027267 -0.008630
-0.039857 0.073261 0.076886
-0.014006 -0.084317 0.016723
-0.002513 0.115750 0.070126
-0.042822 0.030360 -0.024640
0.008337 0.115062 0.070137
0.053498 -0.112974 -0.024370
-0.052150 -0.043977 -0.051733
0.042678 -0.057555 -0.000588
0.001516 0.034609 0.081013
-0.032878 0.066793 0.082322
0.046949 -0.039873 -0.003606
0.034426 0.095013 0.074208
-0.032351 0.107716 0.053510
0.049647 0.041911 -0.022432
-0.030346 0.023106 -0.032103
0.000279 -0.051837 0.021598
0.047719 -0.105187 -0.009739
0.006617 -0.014800 -0.043504
0.039240 0.030467 -0.032234
-0.020997 -0.043359 -0.081999
0.036491 -0.016043 -0.036038
0.042379 -0.022649 -0.039387
0.051503 -0.041212 -0.051186
-0.054624 -0.039071 -0.036628
0.010370 0.013056 -0.029587
-0.002191 0.123410 0.033664
-0.021992 -0.012037 -0.036266
0.016186 -0.042344 0.020843
-0.049814 -0.012789 -0.024114
-0.049263 -0.048157 -0.060253
0.049529 0.013091 -0.012239
-0.051336 0.088994 0.025673
0.038337 0.040771 0.065860
-0.005362 -0.033313 0.025926
-0.040862 0.018081 -0.021753
0.042060 -0.036547 -0.060970
-0.031869 0.018106 -0.026009
0.019825 0.077454 0.088282
0.000969 0.123447 0.033655
-0.017717 -0.004946 0.037303
-0.001792 -0.015221 -0.044960
-0.025719 -0.086135 -0.085814
-0.013716 0.113700 0.070214
0.008317 0.123773 0.027802
0.040556 0.020420 0.037103
0.009694 0.092921 0.086589
0.039592 -0.024659 0.011595
-0.036712 -0.057880 0.005952
-0.010378 0.026008 0.072217
-0.052312 0.006008 0.006836
-0.037525 0.005376 -0.024596
0.043878 0.096601 0.045975
0.036610 0.032684 0.057022
-0.025337 0.099460 0.077571
0.034283 0.112525 -0.036695
-0.019669 0.011640 -0.027351
-0.037630 0.109481 0.027348
-0.049886 -0.028095 -0.036923
-0.028707 -0.041117 -0.076697
0.044899 0.057003 0.069449
-0.041638 0.011471 -0.021635
0.039713 -0.098319 -0.075267
0.003922 -0.040472 0.023859
0.053060 0.023163 0.000386
0.046514 -0.080962 -0.007157
-0.045698 0.028761 0.034294
-0.008028 -0.028934 -0.070993
0.010057 -0.049961 -0.089246
-0.051102 0.075428 0.045931
-0.043337 -0.091147 -0.002957
0.054563 -0.012737 -0.013617
-0.005086 0.010660 -0.028664
0.043725 0.031890 0.041504
-0.019679 -0.035642 -0.076154
-0.007588 0.074413 0.091534
-0.044962 0.101168 0.025819
-0.018383 0.103345 0.078189
0.008542 0.009944 -0.028080
0.012232 -0.019188 0.030659
-0.050867 -0.053622 -0.014787
0.008769 -0.108539 0.017112
-0.054350 -0.026361 -0.024381
0.004497 0.104659 0.080615
0.051517 -0.084206 -0.017472
-0.024184 0.020061 -0.035647
0.041052 0.032423 -0.032259
0.048257 -0.049959 -0.062807
0.048472 0.043379 -0.034222
0.042869 -0.053733 -0.000421
-0.047338 0.022758 -0.014273
0.003958 -0.002383 -0.030382
-0.052373 -0.048767 -0.053728
0.016979 0.056616 0.088304
-0.015144 0.122369 0.026717
-0.048105 -0.057492 -0.009091
-0.022554 -0.030971 -0.068873
0.029020 0.022627 -0.034322
-0.041501 0.089131 0.070794
-0.050472 0.003577 -0.014652
-0.035254 0.026919 -0.032874
-0.053561 -0.124512 -0.049798
-0.009726 -0.021288 -0.056482
-0.046404 -0.018584 -0.032097
0.032202 -0.020279 -0.042708
-0.027557 -0.037651 0.016804
0.022090 0.103933 0.076099
-0.009200 0.010969 -0.028381
0.047417 -0.022337 0.002118
0.044112 0.035687 -0.030144
-0.031440 -0.010732 0.025687
-0.026986 -0.019237 -0.043817
0.027616 0.010557 -0.026367
0.052315 -0.031674 -0.012714
0.029496 0.114559 0.033871
-0.005697 -0.010694 -0.037225
0.014186 0.122640 -0.036695
-0.028432 -0.015883 -0.038693
-0.046964 -0.072612 -0.065805
-0.049281 0.072574 0.056515
-0.051470 -0.028094 -0.033935
-0.042823 0.086947 0.070318
-0.001265 0.067480 0.092174
-0.008325 0.123863 0.026723
-0.041832 -0.084960 -0.072887
-0.021407 -0.019344 -0.046909
-0.054089 -0.097969 -0.027161
-0.020881 -0.008903 0.033344
0.002905 -0.014222 -0.042859
0.052030 0.051586 -0.036695
0.023775 0.018974 0.055269
-0.018475 -0.034848 0.022169
0.040781 -0.046923 0.003279
0.054852 0.073586 0.023022
-0.046029 -0.124512 -0.034257
-0.018800 0.020811 0.061069
0.009692 0.106377 0.078518
-0.040020 0.093236 0.069608
0.046079 0.010340 0.021219
0.033495 -0.004415 -0.028779
0.035692 0.023173 -0.026296
0.045219 0.058305 0.069515
0.051691 -0.073091 -0.017703
-0.035965 0.041089 0.070901
-0.052680 -0.073100 -0.052971
-0.018381 0.053916 0.087156
-0.022398 0.016132 -0.028512
0.023369 -0.042188 -0.080100
-0.050113 -0.080897 -0.059840
0.050668 0.042535 0.031165
0.033437 0.025773 -0.035723
-0.023528 -0.049748 -0.084405
-0.043252 -0.063051 -0.001693
0.026585 0.116381 0.033741
-0.035880 0.027319 -0.032288
-0.040850 0.062576 0.075594
0.047916 -0.033735 -0.003321
0.031802 -0.040781 -0.074718
0.039835 -0.000678 -0.025370
-0.047599 -0.017387 0.004037
-0.039170 -0.113174 0.001369
-0.054506 -0.089813 -0.044478
0.050829 0.015886 0.015301
0.010487 -0.015540 -0.044087
-0.044566 0.057381 0.070405
-0.024063 -0.056596 -0.086533
0.014359 -0.085630 0.016563
-0.043252 0.015628 -0.019846
-0.002393 -0.049495 -0.090106
0.046030 -0.044035 -0.063194
0.003525 0.014594 -0.036695
-0.035946 0.012412 -0.024400
0.002500 0.002727 -0.028417
-0.000936 -0.124512 0.017804
0.048889 0.022245 -0.011290
0.042202 -0.027938 -0.046748
-0.046029 -0.124512 -0.034257
-0.019801 0.100113 0.079839
0.042355 -0.092464 -0.001728
-0.017717 -0.004946 0.037303
0.024233 0.096497 0.080003
0.031363 -0.009431 0.026514
-0.006471 -0.014862 -0.043637
-0.021527 -0.101948 0.013508
0.044852 -0.010894 -0.027755
-0.049358 -0.042415 -0.056511
-0.039914 0.030622 -0.030240
-0.000229 -0.048881 -0.089925
0.042202 -0.027938 -0.046748
-0.006476 0.120145 0.049303
-0.038832 -0.066304 -0.076133
0.012282 -0.055041 0.019609
0.014062 0.111276 0.072897
-0.045236 0.085464 0.063363
0.052489 0.002009 -0.011338
0.041554 0.046282 0.066180
0.046973 -0.011309 -0.026309
-0.014273 0.019497 -0.036695
0.050018 -0.030803 -0.040182
-0.006705 0.081596 0.090594
0.050429 0.060278 0.046677
0.020847 0.012049 -0.027270
0.026065 0.018848 -0.029069
-0.054947 -0.124512 -0.039299
-0.044079 0.035853 -0.030738
-0.037894 0.028714 -0.030753
-0.013548 -0.003495 -0.030636
0.037644 0.109620 -0.036695
0.004496 0.005492 -0.027857
0.023803 0.019615 -0.033545
-0.047168 0.040308 -0.029563
-0.046474 -0.030726 -0.045904
-0.054683 0.043239 0.012413
-0.004397 -0.124512 -0.092055
0.039861 0.003624 0.026032
-0.005882 -0.110339 0.017489
-0.007198 -0.036966 -0.081663
0.019392 -0.024347 -0.058421
-0.050247 -0.056975 -0.013605
0.034301 -0.101753 -0.080205
0.044502 0.034499 -0.026370
0.036640 -0.057399 0.006080
0.045886 0.065168 0.070596
-0.012103 -0.022488 0.029081
0.052494 -0.039062 -0.046468
0.008097 -0.030184 -0.072975
0.054135 -0.023800 -0.023207
-0.052373 -0.048767 -0.053728
-0.009931 -0.124512 0.016904
-0.025526 -0.112460 -0.085909
0.046798 0.091107 0.046058
-0.051129 -0.088911 -0.016615
-0.039495 0.009351 -0.023141
-0.041296 0.032358 -0.030792
0.033030 -0.034463 -0.067265
0.010197 -0.107366 -0.091245
0.026994 0.021553 -0.036695
0.008906 -0.104542 -0.091473
0.051862 -0.103534 -0.055544
0.037639 0.028185 -0.030087
-0.033890 0.010930 -0.025092
-0.050834 -0.063074 -0.058168
0.002912 -0.033421 -0.078346
0.011386 -0.032525 -0.075524
-0.009994 0.017305 0.060659
0.045719 0.007650 -0.019225
0.048347 -0.073817 -0.010123
-0.041535 -0.049818 -0.071889
0.053853 -0.036221 -0.020623
0.001313 0.115376 0.070811
0.040037 -0.037300 -0.064301
0.027306 -0.019627 0.023993
0.051968 0.020146 0.014903
-0.031005 0.104197 0.069557
-0.036976 -0.124512 -0.077927
-0.027628 0.085573 0.082982
0.048272 0.014094 -0.014058
-0.025598 0.006758 -0.026866
-0.052088 -0.028619 -0.033135
0.045980 -0.023419 0.003944
0.016515 0.010138 -0.027481
0.053803 0.051567 -0.005988
0.046983 -0.048333 -0.064204
0.026940 0.107437 0.069630
0.006101 0.076456 0.091509
0.031045 -0.040739 0.013619
-0.054391 -0.045469 -0.027689
-0.018762 -0.006067 -0.031782
-0.047134 0.017181 -0.015014
0.017891 0.007977 0.047513
0.002966 0.021320 0.067472
-0.014712 0.012453 0.053357
0.006101 0.076456 0.091509
0.033664 0.029762 0.057941
0.029418 -0.021668 -0.046430
-0.035696 0.006443 0.032649
-0.051445 0.004433 -0.012382
0.037712 -0.002372 -0.026770
0.044396 0.006331 0.021543
0.054921 -0.102745 -0.033961
-0.048432 -0.029994 -0.041813
0.045165 0.012528 -0.018491
0.022115 -0.051871 -0.085940
0.045948 0.077113 0.069578
0.039870 0.002000 -0.024498
0.049132 -0.114167 -0.012483
-0.054506 -0.089813 -0.044478
-0.026004 0.107224 0.070909
-0.014712 0.012453 0.053357
0.004751 -0.023257 -0.061540
-0.027066 -0.028283 0.020343
0.013503 0.066268 0.090595
-0.051522 -0.033433 -0.040573
-0.032008 0.033358 0.065899
-0.020881 -0.008903 0.033344
-0.054089 -0.097969 -0.027161
0.048110 0.032232 0.031331
0.005834 -0.049457 0.021626
-0.054893 0.002830 -0.002249
0.012297 -0.042425 0.021948
-0.050588 -0.025454 -0.032896
-0.053629 0.076462 0.029928
-0.040123 -0.055817 -0.074806
-0.038374 -0.003014 -0.026803
0.028899 -0.051983 -0.082603
0.053529 -0.038509 -0.042253
0.004491 -0.025505 0.029061
-0.023798 0.111543 0.061861
-0.033028 0.023918 0.051421
0.042925 0.019593 -0.020073
-0.003455 -0.068711 0.019555
0.040453 -0.043295 0.004477
-0.042402 0.066904 0.074559
-0.022743 -0.086636 0.013495
0.001516 -0.055283 -0.091804
-0.023758 -0.099273 -0.086795
0.012972 0.015068 -0.031585
0.045450 0.060455 0.070167
0.018890 0.020851 0.061076
0.054055 -0.124512 -0.026975
0.026049 0.057067 0.084831
0.023803 0.019615 -0.033545
-0.013267 -0.012003 -0.037968
-0.046029 -0.124512 -0.034257
0.046004 0.001020 -0.021148
-0.021480 0.019498 0.057586
-0.044886 -0.052731 -0.003155
0.004303 -0.048907 -0.089731
-0.034139 0.041690 0.072952
-0.015084 -0.015928 -0.043429
0.032583 0.018971 -0.025974
0.039186 0.035482 0.055780
-0.037531 -0.051870 -0.076497
-0.008188 0.078597 0.090948
0.025402 0.020045 -0.031968
0.053641 -0.031491 -0.031876
0.038836 -0.014663 -0.033841
-0.030346 0.041457 0.075698
0.043480 0.070592 0.073541
-0.010957 -0.124512 -0.091117
-0.022833 0.068551 0.087694
0.052324 0.049777 -0.022055
-0.027033 0.021545 -0.035355
0.043518 0.046755 0.060605
0.003866 -0.053000 0.021244
0.031924 0.094764 0.076269
0.019978 0.010233 0.048545
0.000750 0.030099 0.077451
-0.001309 -0.051198 -0.090739
-0.009328 0.013592 -0.030428
0.052777 -0.023749 -0.026988
0.055013 0.069488 -0.034690
0.054980 -0.112066 -0.035225
-0.054539 -0.020009 -0.018694
-0.023209 0.034046 0.074686
0.053697 -0.057707 -0.049179
-0.053225 0.047856 -0.006721
0.025364 0.100606 0.076792
-0.045676 -0.048285 -0.003621
0.026192 0.015144 -0.026920
-0.045236 0.085464 0.063363
-0.016041 0.091108 0.085832
-0.022124 -0.099319 -0.087549
-0.020881 -0.008903 0.033344
-0.045600 0.060643 0.069847
0.024749 -0.020131 0.025242
-0.014273 0.019497 -0.036695
0.014089 0.074034 0.090361
0.036043 0.000884 -0.026147
0.054513 0.069488 -0.034662
0.049924 -0.104478 -0.014003
-0.039541 0.013331 -0.022722
0.054911 -0.041541 -0.038459
-0.054966 -0.111378 -0.035528
-0.015545 -0.033108 -0.074895
-0.030456 0.076440 0.083424
0.030482 0.027152 0.058805
0.005985 0.113059 0.073015
0.045193 0.060552 0.070627
0.049837 -0.010929 -0.022980
0.054461 -0.038731 -0.037448
-0.052239 -0.038496 -0.046416
-0.040145 -0.024399 0.011076
-0.034683 -0.034856 -0.066405
-0.005386 -0.039067 0.024111
0.039381 -0.038706 -0.066632
-0.006901 -0.055372 -0.091378
-0.051470 -0.028094 -0.033935
-0.014590 0.052147 0.087768
-0.006704 0.103610 0.081095
0.014090 0.056440 0.089059
0.028929 0.016804 -0.026591
0.026220 0.075672 0.085833
-0.031591 -0.040743 -0.074799
-0.050542 0.063827 0.048270
0.019839 0.018173 -0.036695
0.038047 0.043394 0.070523
0.054452 -0.045232 -0.044839
-0.034683 -0.054380 0.008142
0.036640 -0.057399 0.006080
0.035633 0.071426 0.080449
0.019826 0.101301 0.079053
0.041493 -0.124512 -0.073343
-0.038737 -0.011324 0.018719
-0.016355 -0.001467 0.040342
0.007285 0.014755 0.058281
0.000750 0.030099 0.077451
0.026527 0.007288 0.041632
0.016007 -0.041738 -0.083018
-0.046887 -0.043808 -0.061708
0.016677 -0.014064 -0.040075
0.054513 -0.119522 -0.036210
0.009900 -0.054978 -0.090795
0.021144 -0.057675 -0.087983
-0.019721 -0.100953 0.014258
-0.051916 0.070854 0.042704
0.053130 0.040764 -0.000276
-0.022086 -0.034291 0.020812
0.034446 0.024755 -0.029022
-0.042039 0.050664 0.070586
0.032975 -0.016491 -0.037769
0.033700 0.004378 -0.025903
0.045977 0.036432 -0.025648
0.039713 -0.098319 -0.075267
0.022425 0.112384 0.061600
-0.047826 0.089820 0.043700
0.008398 -0.088909 0.017647
0.044208 -0.040978 -0.063231
-0.043412 0.000024 -0.023336
-0.017266 -0.055283 -0.088914
0.010476 -0.040283 -0.083790
0.027306 -0.019627 0.023993
-0.004407 0.019248 0.064422
-0.039677 -0.027653 -0.048801
0.055004 0.070485 -0.031697
0.006307 0.006586 -0.027762
-0.040617 0.033033 0.049476
0.048122 -0.041013 -0.057488
-0.051709 0.065076 0.042389
-0.035602 0.091886 0.074965
-0.035328 -0.074992 -0.079342
0.009486 -0.033823 -0.077726
0.046514 -0.080962 -0.007157
0.035488 -0.002219 0.027184
0.023431 0.019072 -0.032099
0.035630 0.047797 0.075328
-0.005624 0.001244 -0.028823
0.007277 -0.054179 -0.091045
0.004293 0.102397 0.082197
-0.030416 -0.088917 -0.083012
0.037550 0.042467 0.070311
0.051087 -0.102974 -0.057619
-0.051580 0.042639 -0.013009
0.005939 0.001721 0.045667
0.044120 -0.124512 -0.070060
-0.034473 -0.049178 -0.077930
-0.029649 -0.052209 0.012247
0.013912 -0.016631 0.031522
0.017760 -0.104721 0.014915
-0.008188 0.078597 0.090948
-0.026288 0.114590 0.042990
-0.013539 0.101057 0.081399
0.038921 0.025630 -0.025377
0.044900 -0.015600 -0.031063
-0.051129 -0.088911 -0.016615
-0.042538 0.056152 0.072334
0.006617 -0.014800 -0.043504
-0.021204 0.071729 0.088289
-0.039993 -0.016043 0.014998
-0.018379 0.071055 0.089301
-0.014037 -0.054390 -0.089669
-0.028085 0.020671 -0.029748
0.002013 0.117335 0.064041
-0.037390 -0.101823 0.003257
-0.015513 0.108919 0.074666
-0.019679 -0.035642 -0.076154
-0.032878 0.066793 0.082322
0.054980 -0.051432 -0.035329
-0.021548 -0.025268 0.024501
-0.023824 -0.063516 0.014523
-0.006379 0.011453 -0.028977
0.037639 0.028185 -0.030087
-0.002501 -0.013059 -0.040821
0.051862 -0.103534 -0.055544
0.023315 -0.010804 -0.034792
0.013696 0.114000 0.069564
-0.054225 -0.012551 -0.014748
0.037681 0.109460 0.027338
-0.051916 0.070854 0.042704
-0.000137 0.017526 -0.036695
0.054660 -0.026946 -0.023677
-0.039108 0.087996 0.073742
0.039270 -0.001823 0.023412
0.031776 -0.053767 0.010552
-0.009582 0.120959 0.042660
0.054437 0.004818 -0.003374
-0.004084 -0.035520 -0.080660
0.001761 -0.005237 -0.032158
-0.029593 -0.056177 -0.083429
0.054107 0.071357 0.028993
0.035632 -0.023217 0.016098
0.001920 0.007252 0.051107
0.021053 -0.124512 0.013625
-0.046337 0.065537 0.069695
0.010057 -0.049961 -0.089246
0.020975 -0.022655 0.025934
0.000678 0.022893 0.069894
-0.054174 -0.073624 -0.046629
0.050486 0.087597 0.034041
-0.032242 0.010462 0.039293
0.027977 -0.005468 -0.030322
0.009628 -0.040906 0.022920
-0.042689 0.051284 0.069981
-0.003455 -0.068711 0.019555
0.018568 0.024472 0.066323
-0.046492 0.069977 0.069748
-0.043252 0.015628 -0.019846
0.027977 -0.005468 -0.030322
0.046464 0.071996 0.069700
0.008721 0.009081 -0.027865
-0.039625 0.033833 0.052585
0.043480 0.070592 0.073541
0.019047 -0.051613 0.017923
0.029174 0.008482 0.040494
0.054563 -0.012737 -0.013617
0.048127 0.036724 0.034740
-0.044940 0.037709 -0.034726
-0.051052 -0.099510 -0.057631
0.039300 -0.010692 -0.030651
-0.040953 -0.041498 0.004298
-0.053692 0.056005 0.026117
0.040251 0.092746 0.069826
0.010586 0.017028 0.060127
0.046205 0.070477 0.070418
-0.034472 0.021242 -0.025965
0.054641 0.062693 -0.025096
0.003952 -0.008670 -0.035022
-0.051235 -0.043220 -0.053359
-0.054092 0.033233 0.015119
-0.048142 -0.064780 -0.063768
0.054921 -0.102745 -0.033961
-0.047207 0.032895 0.034040
0.029356 0.085868 0.081908
0.031930 0.065094 0.082826
0.044384 -0.023983 -0.039209
-0.049216 0.052566 0.045510
-0.020248 -0.047237 -0.084647
0.036360 0.080353 0.078694
0.029020 0.022627 -0.034322
0.050794 -0.042381 -0.053732
-0.039889 -0.124512 0.000609
-0.053987 -0.047895 -0.025400
0.041815 0.093645 0.061999
0.013905 -0.032734 -0.075001
0.002260 0.037302 0.082791
-0.043412 0.000024 -0.023336
-0.040396 -0.010566 0.017273
-0.035608 0.079878 0.079353
0.020523 -0.029073 -0.066878
0.047680 -0.005323 -0.022333
0.044235 0.035301 0.043775
0.013761 -0.011867 -0.037741
0.029728 -0.023726 0.020517
0.016973 0.017194 0.057623
0.004497 0.104659 0.080615
-0.035948 -0.020057 -0.040488
-0.024096 0.022792 0.059715
0.048012 0.005050 -0.017630
-0.053175 -0.040610 -0.046003
-0.001292 0.116001 0.069650
0.025266 -0.099252 -0.086057
0.045678 0.060350 0.069514
-0.051789 0.049550 -0.025578
-0.015814 -0.039670 -0.081516
-0.017671 0.041489 0.082243
0.023717 0.117930 0.033573
0.050332 0.044246 -0.023300
-0.039550 0.028856 -0.027638
-0.035696 0.006443 0.032649
0.053510 0.056064 -0.027012
0.007489 -0.096877 0.017494
-0.041428 0.028793 0.043193
-0.024208 0.027898 0.066968
0.048470 -0.003981 -0.020875
-0.030623 0.063742 0.083471
-0.035948 -0.020057 -0.040488
0.044824 -0.031545 0.002438
0.032156 0.023425 -0.029702
-0.022318 -0.004376 -0.030432
0.050789 0.007197 -0.012402
-0.035313 -0.067112 -0.079356
0.046874 0.016329 -0.015600
0.052283 -0.048915 -0.054086
-0.018925 -0.027358 -0.064607
-0.004970 -0.036816 -0.081859
0.047868 -0.045060 -0.061043
0.027460 0.106330 0.070773
-0.045127 0.058905 0.070096
0.021234 0.085697 0.085946
0.046514 -0.080962 -0.007157
0.053129 0.010077 -0.005043
0.046059 0.076070 0.069731
-0.036722 0.014711 -0.024074
0.042831 -0.026745 -0.044295
-0.008695 -0.049547 0.021181
-0.048652 -0.054536 -0.009876
0.044824 -0.031545 0.002438
-0.020442 -0.029027 -0.066819
-0.017618 0.017385 -0.036695
-0.002320 -0.013604 0.035296
0.034539 0.012104 0.038226
0.019407 -0.004350 -0.030695
0.023357 0.006170 0.042895
-0.034052 -0.018991 -0.040137
-0.021676 -0.013319 -0.037775
0.000013 0.018990 -0.036695
0.035301 0.026103 0.050793
-0.053770 -0.046540 -0.048374
-0.046029 -0.124512 -0.034257
0.054518 0.054206 0.004636
0.036048 -0.099505 -0.078753
-0.042139 0.020931 -0.020955
0.054576 0.052383 0.020450
0.052575 0.028178 0.017337
0.054005 -0.000972 -0.008530
-0.021375 -0.029933 0.022708
-0.048461 -0.050905 -0.008966
0.054360 0.048729 0.006924
-0.009525 -0.063736 0.019276
0.052489 0.002009 -0.011338
-0.054145 -0.112707 -0.046793
-0.023592 0.019899 0.056466
0.008207 0.016771 0.060486
-0.044060 -0.054154 -0.070064
-0.033682 -0.041394 -0.073997
-0.051129 -0.088911 -0.016615
0.041868 -0.009774 0.015972
-0.051318 0.019128 0.015850
0.050977 -0.038343 -0.049404
0.050425 0.091271 0.026046
0.009900 -0.054978 -0.090795
0.040998 0.018520 -0.021699
-0.043887 -0.026329 -0.042600
-0.045921 0.073421 0.070566
-0.035960 0.026505 -0.029817
-0.047424 0.051120 0.051772
0.021252 0.006010 -0.027331
-0.007446 0.038457 0.083022
-0.032395 0.007279 0.036606
0.017590 -0.026379 0.025677
-0.046543 0.067537 0.069393
-0.051980 -0.070247 -0.018586
-0.013420 0.019399 0.062077
0.010546 -0.063423 0.019119
0.014091 0.081338 0.089321
-0.038728 0.023260 -0.024367
0.034071 -0.113980 0.005954
0.017432 -0.054682 -0.088709
-0.012170 0.013406 -0.029497
0.024001 0.088663 0.083750
-0.039107 0.059327 0.076534
0.008213 0.046192 0.086891
-0.009665 0.032210 0.078204
0.002905 -0.014222 -0.042859
-0.045649 -0.054353 -0.067860
0.004999 -0.026000 -0.066503
0.024019 0.106414 0.072942
0.033243 0.021417 0.048382
0.026498 -0.056310 -0.085253
0.016276 -0.043991 -0.084423
0.023803 0.019615 -0.033545
0.029356 0.096664 0.076920
0.035034 0.050687 0.077154
0.013696 0.114000 0.069564
0.014004 -0.035012 0.023612
-0.018808 0.015431 0.054568
0.032900 -0.093482 0.007235
-0.044819 0.032773 0.039770
0.019418 -0.112681 0.014259
-0.036114 -0.050162 -0.077079
-0.036466 0.097658 0.070550
-0.036308 0.093817 0.073295
0.043582 -0.025297 -0.041547
-0.021594 0.022271 0.061077
0.013561 0.016173 -0.036695
0.043806 0.014647 -0.019460
0.011790 -0.033963 -0.077245
-0.045676 -0.048285 -0.003621
-0.009441 0.015297 -0.036695
-0.015088 0.015773 -0.031837
-0.047644 0.072786 0.064194
0.050105 0.089580 0.032006
-0.029774 0.017529 -0.026509
-0.006614 0.012675 0.056062
0.014647 -0.053492 0.019181
-0.052847 0.058611 0.032035
-0.015497 -0.082727 0.016394
0.032377 -0.051723 -0.080382
0.022442 -0.110312 -0.087421
0.049307 -0.066694 -0.011791
0.051313 -0.047111 -0.014828
-0.035890 -0.024903 -0.047417
0.035488 -0.002219 0.027184
0.016991 -0.032685 -0.073804
0.049148 0.020029 -0.011013
-0.006284 0.004847 -0.027937
-0.036223 0.025362 -0.027687
0.016164 0.101893 0.080059
0.003249 -0.057990 -0.092105
-0.009878 0.061769 0.090884
-0.021204 0.071729 0.088289
-0.043412 0.000024 -0.023336
0.019120 0.062070 0.088610
0.033502 -0.037306 -0.070409
0.018413 0.034092 0.077022
-0.015870 -0.053697 -0.088920
0.024448 -0.048571 -0.083431
-0.011282 -0.110101 0.016630
-0.050684 -0.105946 -0.015804
-0.011962 0.003724 0.046002
0.015455 0.008616 -0.027464
-0.014384 -0.024549 -0.061326
-0.021429 -0.020458 -0.049018
0.048945 0.089394 0.038882
0.046004 0.001020 -0.021148
0.031418 0.021293 0.050461
-0.038349 -0.055130 -0.076534
-0.007060 0.097528 0.084782
-0.053927 0.037338 0.006269
-0.011594 -0.092659 0.016916
0.009316 0.010911 -0.028350
-0.052239 -0.038496 -0.046416
-0.031869 0.018106 -0.026009
0.045652 0.034421 -0.023913
-0.003082 0.086766 0.089600
-0.012393 0.099653 0.082560
-0.002458 0.031424 0.078517
0.048637 0.043590 0.039085
-0.045676 -0.048285 -0.003621
-0.043567 0.034639 -0.029187
-0.013861 -0.071061 0.017652
0.047097 -0.051463 -0.006482
-0.038901 -0.102529 0.001792
-0.043913 0.032185 -0.024680
0.040258 0.056274 0.074688
0.046818 -0.108514 -0.066084
0.042836 -0.045267 -0.068231
-0.035880 0.027319 -0.032288
0.036346 -0.049968 0.007297
-0.032039 0.102304 0.070855
-0.045600 0.060643 0.069847
0.024560 0.108979 0.069723
0.037930 -0.023199 0.013914
0.047282 -0.124512 -0.065322
0.015188 0.014166 -0.029413
0.003197 0.053310 0.089909
-0.035722 -0.042494 -0.073299
0.052832 -0.040167 -0.017756
-0.034454 -0.084481 0.006348
0.046527 0.069812 0.069707
-0.009757 0.010173 -0.028052
-0.043520 0.097991 0.043514
0.028776 0.053773 0.082472
-0.054893 0.002830 -0.002249
-0.039345 -0.032629 -0.058151
-0.004414 -0.040179 -0.084808
-0.054881 -0.030632 -0.025543
0.034900 0.085908 0.078179
-0.054624 0.063031 -0.029819
-0.038817 0.100802 0.054425
-0.041719 -0.003525 -0.025628
-0.014388 0.014722 -0.030306
-0.006509 -0.063546 0.019761
0.054225 0.062910 0.025986
-0.001166 -0.046662 -0.088939
-0.053436 0.034780 0.003511
-0.007416 -0.108892 0.017301
0.047327 -0.005084 0.010663
0.022386 -0.028140 -0.064210
-0.033855 -0.035761 0.012891
-0.047147 -0.114248 -0.008938
0.053357 0.052472 -0.017445
-0.053522 0.052987 0.025582
0.001422 -0.052665 -0.091182
-0.028829 -0.046324 -0.080035
0.050382 -0.044142 -0.055872
-0.027275 -0.014302 -0.037315
-0.046169 -0.009364 0.010251
-0.053175 -0.040610 -0.046003
0.029911 0.015315 0.045910
0.005074 0.118230 0.059123
0.044697 -0.045559 -0.066045
0.054748 0.063978 -0.030593
0.044456 0.064976 0.072249
-0.008939 -0.042424 0.022668
-0.041904 0.032540 -0.029298
-0.054526 0.052107 0.007780
0.038483 0.043282 0.069721
-0.026054 -0.040436 -0.077495
0.001681 0.120735 0.048310
-0.047395 0.020014 -0.014215
-0.016896 -0.057817 -0.089536
-0.037496 0.032202 0.054681
-0.046255 -0.104973 -0.066936
-0.046294 0.070693 0.070182
-0.023417 0.017364 -0.029121
0.009849 -0.012711 -0.039486
0.000050 -0.006435 -0.033064
-0.040459 0.028764 -0.026247
0.004925 0.000848 -0.028961
-0.054915 0.062779 0.021326
0.025844 -0.023008 -0.051331
0.010562 -0.030529 0.026068
-0.001573 -0.035632 -0.080961
0.039413 0.107897 0.026234
0.051374 0.057594 0.039546
-0.042689 0.051284 0.069981
-0.011476 -0.008643 -0.034496
0.049484 -0.023726 -0.033033
-0.035254 0.026919 -0.032874
-0.054490 -0.068935 -0.044589
0.036393 0.098147 0.070181
0.052233 0.045196 0.027176
0.047036 0.061087 0.064140
-0.051384 -0.062167 -0.056782
-0.037965 0.047572 0.073157
0.006142 -0.000637 -0.029522
0.035616 -0.018442 0.018262
0.010802 0.014978 -0.032571
-0.044756 0.046238 0.055574
0.036621 -0.093088 0.004207
-0.025066 -0.020826 -0.047580
-0.012524 -0.030784 -0.072731
0.012488 -0.046356 0.020991
-0.008820 0.065179 0.091416
-0.032093 -0.043181 -0.076260
0.044456 0.064976 0.072249
-0.026938 0.016243 -0.027006
0.010543 -0.018557 -0.050327
0.024472 0.027436 0.065990
0.050128 -0.036178 -0.048319
-0.010486 -0.030487 -0.072867
-0.008674 0.013941 -0.031143
