-0.020348 0.013855 0.018400
-0.052578 -0.045499 0.003641
-0.045059 -0.053017 0.007036
-0.048023 -0.022381 0.027400
0.035092 -0.011561 0.002587
0.005526 -0.054098 0.018180
-0.031088 0.025740 -0.000600
-0.057844 -0.054272 0.009564
-0.054928 -0.056763 0.010276
-0.029909 -0.007729 0.019622
0.014957 0.059251 0.015302
0.015987 0.010484 -0.016004
-0.032207 -0.025878 0.019412
0.011022 -0.011423 0.027400
-0.054424 -0.047866 0.004810
-0.058129 -0.051223 0.006198
0.025638 0.012233 -0.011933
0.024524 -0.028660 -0.017312
-0.031859 0.025343 -0.006425
0.001709 -0.035455 0.017900
0.047034 0.035561 -0.002680
-0.007560 0.040657 0.009177
-0.001630 -0.024420 0.026897
-0.026224 -0.061711 0.017406
0.019388 0.062535 0.004800
0.056263 0.010127 0.008496
0.017418 0.061620 0.001072
-0.058638 -0.052733 0.005552
0.022329 0.029031 -0.011885
0.026261 -0.014853 -0.018479
-0.052296 -0.057128 0.004188
-0.009466 0.037843 -0.007390
0.012634 0.055581 0.003556
0.002341 0.019850 -0.027400
0.039176 -0.009630 0.013068
0.035293 -0.011412 0.005210
-0.009466 0.037596 -0.007898
-0.008660 0.038378 -0.007989
0.062452 0.019184 0.006805
0.020967 0.017764 -0.013390
0.017384 0.058465 0.016655
0.019885 -0.039931 -0.021600
-0.055463 -0.053893 0.001647
0.036275 -0.009962 -0.006756
0.020623 0.018316 -0.013256
-0.014798 0.023541 0.018386
0.035157 -0.013317 -0.007199
0.010145 0.056268 0.008689
0.021164 -0.037305 0.016860
-0.013722 0.034908 -0.000600
0.004039 0.048894 0.015751
-0.032481 0.023166 -0.021599
0.039516 -0.005574 -0.009357
0.062310 0.020187 0.004800
0.045894 0.002760 0.017100
0.016436 0.031672 -0.011044
-0.005074 -0.011410 0.019409
0.008758 -0.050968 0.018368
0.016192 0.022372 -0.013401
-0.001272 0.043141 0.016788
-0.057273 -0.053189 0.003790
0.036154 -0.009958 0.010633
-0.010117 -0.031449 0.019407
0.040513 -0.004078 0.015032
-0.062305 -0.013018 -0.021200
-0.032313 0.023840 -0.004052
-0.031458 0.025707 0.006411
0.022716 -0.028987 0.018303
0.017815 0.007948 -0.016211
-0.031923 0.024583 -0.012286
-0.028737 -0.005246 0.027400
0.019990 0.002212 0.017104
-0.011086 0.035449 0.005067
0.049542 0.004100 -0.005359
0.020093 0.004542 -0.016347
0.024618 -0.025445 0.017311
0.010135 0.053389 0.013645
-0.059379 -0.003816 0.017907
0.041004 -0.005199 0.014841
-0.030771 -0.060915 0.016694
0.037035 -0.009151 -0.007727
-0.047142 -0.034295 0.018400
-0.005783 0.022786 0.017875
-0.000767 -0.044593 0.019401
0.007641 0.018118 -0.016139
0.026799 0.012888 -0.013528
-0.016313 0.033648 -0.014712
-0.008415 0.040068 -0.001386
-0.009616 0.024425 0.016734
-0.006630 0.025953 0.014910
-0.012709 0.034225 0.016756
0.025344 -0.020170 -0.018961
0.025949 -0.012352 -0.018269
-0.000382 0.042172 -0.011642
-0.056251 -0.056958 0.005996
0.037949 -0.007789 -0.013703
0.019990 0.002212 0.017104
-0.003620 0.042338 -0.004045
-0.061394 -0.022226 0.018190
0.025959 0.026340 -0.010316
-0.058718 -0.052922 0.007065
0.021500 -0.000546 -0.027201
0.026949 -0.029953 -0.001200
-0.023897 -0.033463 0.019757
0.010933 0.053140 -0.006840
0.007201 0.053334 -0.000491
-0.012267 0.025724 -0.018838
0.051868 0.008662 0.014779
0.015275 0.023208 -0.013378
0.025207 -0.014486 0.014900
-0.023295 0.026914 0.015175
0.011634 0.056373 -0.003754
-0.006630 0.025953 0.014910
-0.023843 0.029713 0.012867
0.020831 0.000873 -0.021599
-0.003446 -0.022865 0.026404
-0.031800 0.025502 -0.003761
0.013796 0.025924 -0.014268
0.024930 -0.013917 -0.027400
-0.048728 0.013355 0.017017
-0.052958 -0.057581 0.007653
-0.011539 0.035795 -0.014643
-0.010265 0.037211 -0.009463
-0.053409 -0.048868 0.002697
0.036901 0.044117 0.016222
-0.007283 0.040454 0.003469
0.024334 0.011959 -0.011559
0.035074 -0.010933 -0.015218
0.012477 -0.013579 0.026401
0.043230 -0.001785 0.004424
0.055031 0.012144 -0.001410
-0.009466 0.037596 -0.007898
0.039291 -0.009874 -0.002544
0.036090 -0.011708 -0.003980
-0.052272 -0.057927 0.006874
-0.006983 0.041130 -0.004967
-0.001592 -0.013031 0.026900
0.061745 0.018254 0.012623
0.031758 0.019656 -0.008462
0.037616 -0.007893 -0.008014
-0.031467 0.024246 -0.013994
0.007731 0.053905 -0.003171
0.023808 -0.032311 0.002294
0.002341 0.019850 -0.027400
-0.026559 0.027349 -0.017250
-0.030345 0.022371 0.018303
-0.033566 -0.001549 0.017900
-0.058718 -0.052922 0.007065
0.010853 0.056049 0.002567
0.024739 0.027679 -0.007972
-0.054566 -0.047719 0.007141
-0.032804 -0.011790 0.019728
0.024880 -0.014935 0.017505
0.042701 -0.003412 0.015202
-0.054203 -0.057371 0.009920
0.011352 0.055464 -0.000357
-0.013747 0.035027 -0.011399
-0.057732 -0.051622 0.004120
0.000546 0.046556 -0.003623
-0.011177 0.035643 -0.001385
-0.045478 -0.053482 0.016664
0.024951 0.012097 -0.011656
0.002733 -0.057113 -0.027201
0.059081 0.015574 0.016012
0.031540 0.019425 -0.011107
0.000344 -0.029420 0.026900
-0.054945 -0.058266 0.009434
0.008884 0.016802 -0.018817
0.011952 0.056271 0.003025
-0.062613 -0.019241 0.016832
-0.008086 -0.007122 0.019544
-0.057849 -0.037109 0.017907
0.028682 -0.025137 0.013582
-0.057311 -0.052041 0.009556
-0.014418 0.026336 -0.018347
0.013811 0.011128 -0.018850
0.031643 0.015567 -0.009364
-0.033969 -0.016018 0.019492
0.010065 -0.049797 0.018373
-0.054407 -0.055832 0.003156
0.035280 -0.009899 -0.015073
-0.055856 -0.053497 0.010988
0.022098 -0.033435 0.017907
-0.055566 -0.057631 0.003984
-0.020667 0.008618 0.027299
-0.038579 0.000708 0.026938
0.041707 0.043534 -0.000788
-0.015656 0.005997 0.019398
-0.012097 0.035890 -0.001201
0.024865 -0.031629 -0.013046
0.025976 -0.031052 -0.011780
-0.057381 -0.053473 0.004572
0.007129 0.050524 0.014824
0.021500 -0.000546 -0.027201
0.035668 -0.011824 -0.001200
-0.038831 -0.037519 0.017900
0.012690 0.055626 0.004357
0.009843 0.016058 -0.018807
-0.061610 -0.010014 -0.021400
-0.052230 -0.044432 0.005067
0.060569 0.017126 -0.002361
0.041337 -0.003074 -0.009336
-0.058726 -0.054485 0.003986
0.032101 -0.017731 -0.016607
0.043313 -0.004290 0.013143
-0.028472 0.010272 0.027400
0.005485 0.050485 0.015198
-0.020653 0.023755 0.018364
-0.033789 -0.025803 0.027400
0.016622 -0.043079 0.018198
-0.011817 0.035645 -0.000600
-0.047591 0.014376 0.017043
-0.000827 -0.009179 0.026900
0.004775 0.048233 0.014856
0.026797 0.025393 -0.008588
-0.035237 0.020654 0.018302
0.009882 0.054583 -0.002099
-0.055532 -0.056030 0.002239
0.026748 -0.024680 -0.018624
0.049289 0.005829 0.016842
0.053664 0.029430 0.014543
-0.000187 -0.038985 0.026931
-0.037376 0.021213 -0.021599
0.038115 -0.011525 -0.002797
-0.007261 -0.061097 0.016790
-0.025349 -0.032852 0.019704
-0.000076 0.020910 0.017505
-0.045059 -0.053017 0.007036
0.035949 -0.012269 0.013984
0.011693 0.054876 0.012081
-0.006510 0.023664 0.016694
0.010039 0.054389 0.013995
0.031383 0.019631 -0.011618
-0.000767 0.007342 0.019401
0.045894 0.002760 0.017100
-0.053911 -0.055452 0.001650
0.030956 0.017584 -0.012705
0.022456 0.016178 -0.013364
0.026534 -0.019759 0.014908
0.062030 0.019449 0.012351
-0.059796 -0.002998 -0.027201
-0.010012 0.036349 0.010910
0.004756 0.049805 0.014262
0.024350 0.027845 -0.008531
0.018748 0.060850 0.015014
0.007216 0.053508 -0.003344
-0.018815 0.007972 0.018817
0.041475 -0.004246 -0.009286
0.011597 0.055688 0.010817
-0.051655 -0.048576 0.001973
0.034576 -0.014228 -0.001200
-0.030227 0.023601 0.017313
-0.055502 -0.042695 -0.021200
-0.050811 -0.045852 0.008402
-0.056461 -0.055475 0.004053
-0.054042 -0.056437 0.009943
-0.025981 -0.050311 0.018400
-0.006210 0.039483 -0.012843
-0.059796 -0.002998 -0.027201
0.010473 0.055630 0.000194
-0.005036 -0.010931 0.019568
0.022518 -0.005027 0.017907
0.025294 -0.015817 -0.027201
-0.049435 -0.050022 0.016761
-0.007819 0.039037 -0.010487
0.025817 -0.030909 0.008302
0.002186 -0.055575 0.018366
0.056057 0.011908 0.002761
-0.005783 0.022786 0.017875
0.035834 0.037071 -0.006106
0.056200 0.011985 0.007251
0.022718 0.003201 0.014988
-0.012829 -0.002897 0.027400
0.054084 0.010984 -0.002488
-0.010444 0.036899 -0.006751
-0.051526 -0.057826 0.008360
0.014290 0.055659 -0.005640
0.012477 -0.023672 0.026401
0.057582 0.013132 -0.001258
0.010308 0.053319 0.013749
0.023648 -0.026941 0.018081
-0.055299 -0.055607 0.002178
-0.023813 0.029587 0.013635
0.027090 -0.012893 0.014871
-0.056235 -0.056877 0.008388
0.024618 -0.025445 0.017311
-0.045049 -0.033932 0.027400
0.033105 0.042996 -0.005196
-0.035275 -0.026536 0.027400
0.024043 -0.011142 0.017900
-0.002971 0.022158 0.017481
0.045385 -0.000178 -0.008703
0.051397 0.007706 -0.007438
0.014221 -0.047942 -0.021195
-0.020252 0.008910 0.019397
-0.023509 0.025113 -0.018833
0.010688 0.013879 0.017328
0.053405 0.009938 -0.006619
-0.027939 0.026235 -0.017349
0.057753 0.023995 -0.002009
-0.045628 0.014767 0.018175
0.056371 0.010268 0.004493
0.024432 -0.030130 -0.016115
0.008083 0.017358 -0.018834
0.034957 0.050707 0.012022
-0.032247 0.024108 0.005171
0.002452 0.019335 0.017823
0.041568 -0.006346 -0.005499
-0.019165 0.031356 -0.017004
0.021636 0.029918 -0.008542
-0.032207 -0.025878 0.019412
-0.006626 0.038876 0.014803
0.011695 0.054794 -0.000921
0.048900 0.037256 0.011375
-0.060503 -0.010514 0.018301
-0.018465 0.026921 0.014949
-0.004405 -0.024393 0.019410
-0.008186 0.037683 -0.007928
-0.053615 -0.058499 0.008496
-0.057267 -0.052937 0.003769
-0.009807 0.038272 0.012885
0.011802 -0.010438 0.019400
-0.060503 -0.010514 0.018301
-0.029041 0.027009 -0.000600
-0.022783 0.030027 -0.016363
-0.052841 -0.047357 0.009550
0.023982 0.028484 -0.010420
-0.003405 -0.022506 0.019712
-0.047749 -0.018625 0.026900
-0.056976 -0.052415 0.003897
0.055229 0.012136 0.010652
0.018200 0.006987 -0.018813
0.030758 -0.019301 -0.017499
-0.014052 -0.033717 0.026408
0.047442 0.000721 -0.006177
-0.060578 -0.031079 0.017406
0.034976 -0.011258 0.016913
0.013493 0.011467 -0.027201
0.030580 0.004227 0.017274
0.025185 0.057429 0.014132
-0.054976 -0.055580 0.002937
-0.046436 -0.043789 0.009954
0.039387 -0.007390 0.014875
-0.002531 0.043269 0.015620
-0.000264 0.045341 -0.008730
0.000671 -0.003211 0.017900
-0.005121 0.040870 0.016101
0.028865 -0.018031 0.016202
-0.013722 0.034908 -0.000600
0.011512 0.054569 -0.006228
-0.053125 -0.057777 0.003763
0.024821 -0.011609 -0.021200
0.017349 0.032410 -0.010860
0.001727 -0.042687 0.026401
0.058801 0.016942 -0.004097
0.026534 -0.019759 0.014908
-0.004330 0.021273 0.018368
0.038157 0.034558 -0.006123
-0.056066 -0.054385 0.002729
0.010355 0.054549 -0.005625
-0.009628 -0.061661 0.016860
-0.033058 -0.000948 0.027400
0.055905 0.012189 0.005400
-0.044329 -0.052333 0.005767
0.018221 0.032517 -0.010661
0.014488 0.055561 0.017311
-0.031355 0.025993 -0.001200
0.024386 -0.005674 -0.018756
0.006964 0.017121 0.016788
0.014488 0.055561 0.017311
-0.000043 0.044040 0.014328
0.036309 0.050458 0.006989
-0.036258 0.021664 0.016790
0.053504 0.009740 -0.006437
-0.008997 0.037073 0.012896
-0.053883 -0.058195 0.007883
0.041707 0.043534 -0.000788
0.014258 -0.047561 -0.027400
-0.021634 0.006118 0.019394
0.026928 0.024898 -0.011291
0.054826 0.010779 0.013096
-0.051369 -0.053329 0.011093
0.011775 0.054302 -0.003301
-0.056805 -0.055048 0.002721
0.018543 0.032236 -0.010451
0.027417 0.014155 -0.014219
-0.046463 0.014598 0.017900
0.011462 0.054504 -0.001677
-0.033127 -0.012519 0.019712
-0.033995 -0.020698 0.019453
0.054826 0.010957 -0.005762
-0.012128 0.037446 0.003493
-0.002542 -0.038619 0.017900
-0.007265 0.040919 -0.008294
0.028614 -0.014840 -0.017846
0.034901 0.050552 0.000068
0.061485 0.020086 -0.001140
-0.019715 -0.002874 0.026399
-0.018517 0.032264 0.014969
-0.057753 -0.051600 0.008621
-0.005369 -0.027116 0.026402
0.025897 -0.031437 -0.000600
-0.031450 0.024997 -0.013540
-0.010948 0.035733 0.006345
0.028121 0.012864 -0.012518
-0.047084 -0.005034 0.019400
-0.018129 0.003365 0.027364
-0.003008 -0.003501 0.027399
-0.021040 -0.003416 0.019411
-0.047690 -0.012830 0.027400
0.011529 0.054644 0.012602
0.060229 0.017653 -0.003025
0.031618 -0.018594 0.015669
-0.024452 -0.002897 0.027400
-0.002939 0.044197 -0.007738
-0.011937 0.035961 0.005739
-0.057871 -0.052600 0.007652
-0.023171 0.011593 0.027400
-0.004709 0.042670 -0.005698
-0.053148 -0.057091 0.004461
-0.058726 -0.054485 0.003986
-0.043465 -0.046766 0.003131
-0.036861 -0.028643 0.026900
0.016922 0.004363 0.018385
-0.003639 0.041824 0.007978
0.054716 0.011539 0.012470
-0.014798 0.023541 0.018386
-0.055488 -0.054714 0.002402
0.012079 0.026830 -0.011709
0.046283 0.002588 -0.007090
0.010875 0.053858 -0.002143
0.008490 0.053756 0.013851
-0.012550 0.032848 -0.016256
0.013335 0.056210 0.007595
-0.007513 -0.029214 0.019406
-0.016931 0.033284 0.014871
0.023756 -0.029723 -0.021400
0.027189 -0.027664 0.012465
0.031729 -0.004417 -0.015155
-0.053261 -0.058841 0.007198
-0.057808 -0.054128 0.005947
0.012741 0.025431 -0.013175
-0.053590 -0.058522 0.004357
0.012135 0.012522 0.017313
-0.003089 0.000900 0.017900
-0.060996 -0.025522 0.018185
0.054024 0.011114 0.012774
-0.050092 -0.010341 0.018400
-0.033663 -0.013991 0.019712
-0.044564 -0.054207 -0.021599
0.012477 -0.013579 0.026401
-0.039188 -0.006920 0.017900
0.036070 -0.011553 0.007857
-0.028698 0.027604 -0.000599
-0.050045 -0.046617 0.009618
0.014121 -0.047975 0.016734
0.054571 0.011658 0.012850
-0.047231 -0.053006 0.003662
-0.003008 0.001605 0.027399
-0.053568 -0.059228 0.005717
0.044176 -0.001029 -0.010201
0.027107 0.024695 -0.008499
-0.055016 0.006171 -0.027201
-0.008909 0.038498 0.015190
-0.022483 -0.060792 0.018386
0.021699 0.018440 -0.013936
0.023736 0.058872 -0.001094
-0.015007 -0.061800 0.017907
-0.047737 -0.017609 0.017900
0.055105 0.011896 0.000016
0.051144 0.008082 0.014977
-0.056704 -0.056237 0.003474
-0.055059 -0.055798 0.009674
0.015830 -0.045949 0.016734
0.019112 0.062078 0.005400
-0.018849 0.026705 0.014915
-0.008113 0.038823 0.014705
-0.053413 -0.056793 0.009634
0.044186 -0.003131 0.013788
-0.040056 -0.057049 0.016716
0.012903 0.055799 0.000185
0.011157 0.054306 -0.002114
0.048958 0.005593 -0.005901
0.025046 -0.028942 0.012107
0.013634 0.058361 -0.002579
-0.030635 0.026556 -0.001201
0.030575 -0.020771 0.015196
0.035829 -0.012217 0.000749
0.033007 0.001961 0.017373
0.043071 0.029119 -0.006070
-0.003403 -0.016524 0.019415
0.010461 0.054822 0.013607
-0.047084 -0.005034 0.019400
0.046103 0.001079 0.014813
-0.047624 -0.052604 0.009832
-0.041011 -0.031224 0.027400
-0.013359 -0.033287 0.019498
-0.058089 -0.052711 0.008211
-0.009916 0.036272 -0.006868
-0.034310 -0.059409 0.017481
-0.004164 0.042500 -0.008505
-0.023342 0.029099 -0.017499
-0.021690 -0.003182 0.019758
0.055735 0.011430 0.011673
0.023559 -0.032090 0.005944
0.013915 0.058437 0.015244
0.010080 -0.051991 -0.021200
0.021725 0.015905 -0.011517
-0.050136 -0.017515 0.019400
0.002233 0.047513 -0.007723
-0.041185 0.019131 0.016839
-0.057186 -0.056025 0.002693
0.026450 -0.024912 0.014561
0.024609 -0.018680 0.017980
0.025773 0.026444 -0.008262
0.028419 -0.023496 -0.018061
-0.047562 -0.015219 0.026900
0.024142 -0.026361 0.017759
-0.033814 -0.002237 0.026935
0.053112 0.033311 0.004798
-0.002218 0.044716 -0.005634
-0.004222 -0.000948 0.027400
0.008490 0.053756 0.013851
-0.009760 0.039386 0.005819
-0.048302 -0.025828 0.027400
-0.010012 0.036349 0.010910
0.054700 0.008640 0.008392
-0.008853 0.036996 -0.008082
0.013164 0.028704 -0.012538
0.040055 -0.008086 -0.008194
0.033185 -0.002015 0.017135
-0.018226 0.031146 -0.017376
-0.049868 -0.023009 0.026406
-0.034272 -0.038856 0.027399
-0.001801 -0.010040 0.027400
0.037894 -0.009241 0.014044
0.010535 0.015912 -0.016019
0.024256 -0.005039 -0.018654
-0.002579 -0.059400 -0.027400
-0.051596 -0.057762 0.004245
0.010283 0.012160 0.018388
0.025779 -0.025822 0.014152
0.036350 -0.011769 0.003958
0.035861 -0.012171 0.003575
0.010349 -0.006239 0.019401
-0.055341 -0.057870 0.003004
0.011664 -0.050579 -0.027195
-0.052955 -0.057250 0.009033
-0.055488 -0.054714 0.002402
0.024021 -0.031952 -0.000600
-0.009740 0.035968 0.017022
-0.005683 -0.010059 0.019478
-0.054562 -0.048920 0.005519
0.010735 0.055196 0.015811
0.034576 -0.014228 -0.001200
-0.032227 0.023679 0.005038
0.044304 -0.001496 0.014241
0.011589 0.055878 0.010848
-0.046503 -0.053695 0.003710
0.002061 -0.006850 0.026897
0.004177 0.020279 -0.016440
0.055863 0.011604 0.010847
-0.028732 -0.006561 0.019704
-0.061464 -0.028884 -0.021607
-0.057837 -0.053937 0.004195
-0.001452 -0.010579 0.017900
0.001083 -0.003501 0.027399
-0.052504 -0.058372 0.007183
-0.052943 -0.057268 0.003795
0.024369 -0.029999 0.010978
0.055217 0.011109 0.012421
0.057266 0.013086 -0.004250
-0.053254 -0.058452 0.008183
-0.030983 -0.059739 0.018177
-0.028057 -0.061631 -0.021201
-0.045025 -0.051637 0.003144
0.044417 0.042555 0.002648
-0.058423 -0.053162 0.008313
0.042958 -0.001888 0.016562
-0.053103 -0.044974 0.007047
0.060415 0.024026 0.007428
0.005435 0.018232 -0.027201
0.044417 0.042555 0.002648
-0.005155 -0.060277 0.017328
-0.010780 0.035801 -0.005208
-0.052422 -0.057780 0.007743
-0.051993 -0.057443 0.005122
-0.029217 0.026818 0.010434
-0.059412 -0.002021 -0.021599
-0.012371 0.026114 -0.018085
0.048655 0.005386 -0.006104
0.034054 0.046426 -0.003691
-0.052296 -0.057128 0.004188
0.061822 0.020758 0.012226
-0.042672 0.016218 0.018382
-0.018388 0.032123 0.015341
0.040941 -0.004728 -0.001397
0.055576 0.014417 0.017311
0.010894 0.013753 -0.021400
-0.000507 -0.029305 0.027400
-0.031690 0.025165 -0.012181
-0.048357 -0.051842 0.011617
0.007753 0.051916 -0.006910
0.040107 0.038586 -0.004510
-0.052892 -0.056536 0.009544
-0.031154 -0.060483 0.017482
-0.055329 -0.056353 0.003058
0.048655 0.005386 -0.006104
-0.056387 -0.056832 0.004121
-0.056414 -0.056569 0.003466
0.008978 0.052704 -0.006844
-0.054769 -0.055470 0.003033
-0.054203 -0.041614 0.018385
-0.032605 0.021780 0.018256
-0.052508 -0.057687 0.004726
0.014881 -0.046736 0.017406
-0.052101 -0.057244 0.003157
-0.014991 0.028061 -0.018018
0.036128 -0.011721 0.007988
0.007078 0.015387 0.018302
-0.035658 -0.012877 0.026897
-0.014572 0.033358 -0.016123
-0.045049 -0.003319 0.027400
0.048622 0.005221 -0.008797
0.015987 0.010484 -0.016004
0.024846 -0.006729 -0.017440
-0.020655 0.028235 -0.018588
-0.014864 0.025198 0.016734
-0.007513 -0.029214 0.019406
-0.053110 0.008698 0.016734
0.040361 -0.004232 0.014979
0.018938 0.005893 -0.018812
-0.047018 -0.012166 0.026900
0.009679 0.053888 0.014211
0.039988 -0.008590 -0.007845
0.037105 -0.011412 0.008807
0.011264 0.055756 -0.003093
-0.004222 -0.036303 0.027400
-0.006350 0.038902 0.014878
0.049960 0.006595 0.014823
-0.056125 -0.054114 0.003301
0.012215 0.027178 -0.013088
0.045388 0.000427 0.016122
0.028705 -0.021488 0.015609
-0.056387 -0.056832 0.004121
0.002637 0.046457 0.016818
-0.036251 -0.043557 0.027400
-0.018640 0.006375 0.018157
-0.009235 -0.006019 0.019703
0.031785 0.018816 -0.011706
0.037681 0.038196 -0.005381
0.037263 -0.010676 -0.005996
-0.041011 -0.031224 0.027400
0.019820 0.062622 0.005400
-0.002402 0.042731 0.005835
-0.042337 0.002164 0.026401
-0.034620 0.021373 0.018096
0.010434 -0.024277 0.027400
-0.027851 0.027377 0.011959
0.031420 -0.014460 0.016921
0.009667 -0.027253 0.027400
-0.025911 0.025630 0.014112
-0.057676 0.001727 -0.027201
0.023588 0.028552 -0.008248
-0.009637 0.036455 0.011874
0.003862 0.048230 -0.008614
0.024458 -0.031915 -0.012372
-0.003618 -0.023260 0.019712
0.041519 -0.003399 -0.011925
0.026942 -0.025024 0.014472
0.026466 0.044936 0.017382
0.059589 0.017689 0.016128
-0.004164 0.042500 -0.008505
-0.022783 0.030027 -0.016363
0.010971 0.056183 0.005463
-0.037604 -0.058223 0.017033
-0.055067 -0.056597 0.009621
-0.046184 -0.050479 0.011172
0.008845 -0.052587 0.017481
-0.044046 0.015930 0.018197
-0.007819 0.039037 -0.010487
-0.030760 0.024665 -0.015310
-0.022056 0.027670 0.015538
0.014910 0.022162 -0.011503
-0.008660 0.038378 -0.007989
-0.047974 -0.052279 0.002547
0.023989 -0.024786 0.018095
-0.057989 -0.053477 0.005517
0.052000 0.008799 -0.004541
-0.057132 -0.054540 0.003521
0.035854 -0.012182 -0.001965
-0.030890 -0.009136 0.019453
0.013114 0.057472 0.005400
0.032025 0.016646 -0.009170
0.027657 -0.026387 0.013391
0.025540 0.057786 0.013291
0.024304 -0.032325 -0.001200
-0.057865 -0.052598 0.005289
0.053112 0.033311 0.004798
-0.048606 -0.050876 -0.021599
0.055264 0.009043 0.012374
0.036816 -0.009012 0.012649
-0.000202 0.001764 0.017900
0.012468 0.054914 0.017187
0.036882 -0.010439 0.012037
-0.051492 -0.046233 0.018198
0.009318 0.055526 0.012075
-0.036818 -0.003715 0.026937
-0.008962 0.038897 0.013672
-0.030296 0.025670 0.010144
0.039582 -0.006778 0.014800
0.037419 -0.012146 -0.001201
0.029041 -0.023488 -0.017440
0.011141 0.026555 -0.011244
0.041549 -0.005984 -0.004731
0.026724 -0.027137 -0.017480
-0.051297 -0.050981 0.011291
-0.004937 0.041165 -0.009485
0.035242 -0.011502 0.003293
0.020614 0.062649 0.005400
0.031315 0.020129 -0.008921
-0.017547 0.011883 0.027400
-0.012071 -0.062156 -0.027201
0.012154 0.012771 0.016761
0.037196 -0.010000 0.012858
-0.045663 -0.052414 0.003150
-0.041698 -0.041564 0.018400
0.014592 0.009944 -0.027400
0.011345 0.054522 -0.000613
-0.036818 -0.039070 0.026937
-0.047727 -0.054559 0.007163
0.026364 -0.017428 -0.018677
0.030422 0.022134 -0.008361
-0.005164 0.036181 0.017382
-0.010324 0.036188 0.009965
0.036288 -0.011034 0.016292
-0.006096 -0.027538 0.019414
0.055379 0.009313 0.012343
-0.008283 -0.030507 0.026399
0.026985 0.025237 -0.010231
0.025867 -0.029814 0.010755
0.025222 -0.008168 -0.017593
-0.045129 -0.052947 0.005171
-0.035407 0.008070 0.019400
0.012022 0.012965 0.014900
-0.011733 0.035034 -0.015224
0.038115 -0.011525 -0.002797
0.025114 -0.029304 -0.016859
-0.010787 0.036681 -0.006230
-0.053386 -0.057314 0.003321
0.031811 -0.018384 -0.000600
-0.006554 0.038889 -0.009164
-0.051526 -0.057826 0.008360
-0.002436 0.022093 -0.027400
-0.039636 0.003531 0.027400
-0.056275 -0.055663 0.008419
0.023840 -0.030181 -0.021600
0.014086 0.026692 -0.014412
0.036901 0.044117 0.016222
-0.051835 -0.046502 0.017907
-0.053253 -0.057993 0.003793
0.009369 0.013671 0.018256
-0.030824 0.025049 -0.014967
-0.018845 -0.062649 -0.021599
-0.047264 0.014774 0.016665
-0.026279 0.026432 -0.018226
0.036967 -0.010585 -0.009328
0.024065 -0.004096 -0.017105
0.012216 0.026259 -0.013306
-0.010314 0.036553 -0.014284
-0.056531 -0.053919 0.009725
0.029057 -0.001416 0.016215
0.016436 0.031672 -0.011044
-0.012376 0.035860 0.013431
-0.052549 -0.050948 0.002468
-0.034620 0.021373 0.018096
0.019353 0.031933 -0.010330
-0.006948 0.011725 0.018400
0.013796 0.025924 -0.014268
0.011949 0.056273 0.008394
0.062498 0.020338 0.002320
-0.006387 0.039130 0.014297
-0.055892 -0.055003 0.002222
-0.036251 -0.043557 0.027400
-0.047141 -0.024554 0.026900
-0.009126 0.036854 -0.007163
0.012111 0.024519 -0.011641
0.049342 0.005491 -0.008330
-0.057759 -0.053724 0.008050
0.002297 -0.036303 0.027400
0.027627 -0.028566 -0.009650
-0.000875 -0.027994 0.026900
-0.002914 -0.019845 0.026403
-0.010221 0.036073 -0.006390
0.022878 -0.003984 -0.021599
-0.001722 0.042387 -0.011634
-0.041791 -0.006553 0.026900
-0.058057 -0.051297 0.007412
-0.036386 -0.016005 0.026900
-0.003627 0.042047 -0.011220
0.014301 0.057655 -0.004702
-0.055454 -0.049231 0.008560
-0.056684 -0.053890 0.009240
-0.049059 -0.047604 0.002508
-0.008549 0.025214 -0.018686
0.017063 -0.044382 -0.021600
-0.033763 -0.035150 0.017900
0.051059 0.033056 0.014099
-0.054409 -0.056223 0.010285
0.023866 -0.008534 0.017482
-0.052920 -0.049369 0.002195
0.028419 -0.023496 -0.018061
0.024183 -0.028737 0.012226
-0.003413 -0.014508 0.026406
-0.053717 -0.056728 0.009493
0.015281 0.059839 0.014552
0.006104 0.026405 -0.014516
0.042376 0.037366 0.016586
0.056274 0.010096 0.003455
-0.017366 0.032849 -0.000600
0.042741 -0.004489 -0.005669
0.062341 0.021246 0.003109
-0.056454 -0.056460 0.009044
0.012436 0.056288 0.016421
0.002861 0.046440 -0.007080
-0.044502 -0.053967 0.017301
0.009686 -0.007253 0.027400
0.055879 0.011792 0.009694
-0.007432 0.039225 -0.009262
-0.056119 -0.041293 -0.021400
-0.043804 -0.046421 0.009954
-0.061347 -0.007940 -0.027201
-0.057496 -0.054362 0.009577
-0.012318 0.035816 0.011400
-0.000992 0.043094 0.014407
0.004039 0.048894 0.015751
-0.022411 -0.049938 0.019400
0.038568 -0.010836 0.009918
-0.036316 0.021442 0.017301
-0.057254 -0.052136 0.008266
0.028312 -0.019968 0.016002
0.046792 0.001064 -0.006603
-0.006510 0.023664 0.016694
0.032771 0.017424 -0.008241
0.010473 0.055630 0.000194
0.013165 0.026052 -0.013833
-0.013108 0.025038 -0.018850
0.022098 -0.033435 0.017907
-0.062667 -0.018316 -0.027197
-0.003442 -0.059943 -0.021599
-0.054515 -0.056460 0.010415
-0.049548 -0.050715 0.011239
-0.008702 0.011291 0.019400
-0.027492 0.011630 0.026401
-0.046738 -0.053492 0.005220
0.055950 0.012144 0.004800
-0.060503 -0.010514 0.018301
-0.011198 0.035634 -0.000546
-0.023596 -0.062092 0.017406
0.054979 0.010213 -0.001382
-0.023295 0.026914 0.015175
-0.024452 -0.034354 0.027400
0.036154 -0.009958 0.010633
0.038802 -0.007496 0.016363
0.040941 -0.004728 -0.001397
0.022824 0.029190 -0.008586
-0.032340 0.024283 -0.001200
0.024631 -0.030170 0.010772
0.045439 0.001542 0.014813
-0.037824 0.001396 0.026933
0.004453 0.050835 0.013809
-0.004122 0.039965 -0.012785
0.035187 0.049194 0.014099
-0.004446 -0.025479 0.026399
0.026167 -0.016401 -0.018817
0.013443 0.057575 0.015982
0.035444 -0.011428 0.005232
0.036128 -0.011721 0.007988
-0.057952 -0.052248 0.006142
0.011190 0.055549 0.013314
-0.058146 -0.052429 0.005868
-0.051869 -0.057573 0.006879
-0.057577 -0.053577 0.009596
-0.010798 0.036917 0.014082
0.026949 -0.029953 -0.001200
-0.010989 0.035625 -0.004611
0.011899 0.056225 0.009235
0.027241 -0.028938 -0.013073
-0.002314 0.043805 -0.004687
0.013244 0.027823 -0.013437
-0.007383 0.038243 0.014650
0.001594 -0.057668 0.016838
0.020802 0.062599 0.007068
0.012160 0.056544 -0.001294
-0.032003 0.025214 0.001526
0.029542 0.020961 -0.012380
-0.013747 0.035027 -0.011399
0.025694 -0.031520 0.005829
-0.053583 -0.046618 0.007260
0.054700 0.008640 0.008392
-0.008418 0.037867 -0.013631
0.037518 0.047192 -0.001182
-0.019742 0.009169 0.019398
0.011149 0.014881 -0.018831
0.011931 0.056409 0.015679
-0.026174 0.028284 -0.015829
0.024649 -0.031896 -0.001200
-0.053148 -0.057091 0.004461
0.012128 0.055279 0.004843
0.030109 -0.022965 -0.009947
-0.024267 0.028793 0.014262
-0.045511 -0.028731 0.017900
0.026442 -0.030733 -0.005743
-0.047940 -0.050772 0.017737
-0.001592 -0.013031 0.026900
0.007929 0.029311 0.017374
-0.057282 -0.052929 0.009004
-0.002308 0.044800 0.012197
-0.057808 -0.054128 0.005947
-0.036262 -0.021838 0.017900
0.026186 0.058860 0.004798
0.016656 0.021638 0.017311
0.006251 0.050936 0.015757
0.015532 0.056941 0.017111
-0.058103 -0.053055 0.004067
0.010358 -0.021307 0.017900
-0.054345 -0.057348 0.003720
-0.058446 -0.036196 -0.022400
-0.055614 -0.055559 0.010666
0.040814 -0.007552 0.012414
-0.002787 0.042940 -0.008365
0.020466 0.010366 0.015491
0.055860 0.011809 0.001740
-0.056831 -0.054528 0.010324
0.002674 0.047638 0.014840
-0.032881 -0.025381 0.026400
-0.002054 -0.016246 0.027400
0.035533 -0.011219 0.007186
-0.056845 -0.054006 0.009027
0.011012 0.012010 0.018303
0.006956 -0.029856 0.017900
-0.004389 0.041764 -0.003704
0.032150 -0.018719 -0.015851
-0.005583 0.039448 0.014394
-0.057358 -0.053888 0.002917
0.041525 -0.002813 0.015014
-0.052089 -0.057348 0.004773
0.016971 -0.043339 0.017907
0.025867 -0.029814 0.010755
0.025090 0.027013 -0.008749
-0.058101 -0.053211 0.008908
-0.029413 0.025305 -0.016714
0.014086 0.026692 -0.014412
0.024868 -0.031969 -0.010460
0.012436 0.056288 0.016421
0.032056 0.017113 -0.010792
0.010217 0.053467 0.014158
-0.013531 0.025914 -0.018829
0.012702 0.055205 0.012720
-0.052162 0.009485 0.017406
-0.007383 0.038243 0.014650
0.029567 -0.015758 0.016262
-0.013464 0.031865 0.017022
-0.025401 0.026561 0.014349
-0.054584 -0.057158 0.009328
0.031758 0.019656 -0.008462
-0.058885 -0.053220 0.007072
0.021216 0.062492 0.005400
-0.039094 -0.001160 0.026927
0.046283 0.002588 -0.007090
-0.056888 -0.056038 0.002900
0.037441 -0.012155 0.000848
-0.007836 0.039089 0.014173
0.022860 0.015697 -0.013367
0.051894 0.008867 -0.004701
0.022248 -0.034943 -0.027201
-0.052273 -0.051213 0.010413
-0.002578 0.041806 0.016923
0.018814 -0.041665 0.016844
-0.062401 -0.015960 -0.021402
-0.005803 -0.047417 0.026401
0.055054 0.011014 -0.001419
0.023336 -0.031815 -0.000600
-0.033431 0.022627 -0.027400
-0.052789 -0.056560 0.002319
-0.042903 -0.055121 -0.027400
-0.056500 0.002452 0.017907
0.039180 0.047654 0.002685
-0.056805 -0.055048 0.002721
-0.004389 0.041764 -0.003704
0.035262 -0.011300 -0.003677
-0.003942 -0.002312 0.027399
0.055611 0.012694 0.006122
-0.057742 -0.055461 0.005525
0.013244 0.027823 -0.013437
-0.007670 0.034481 0.017267
0.016285 0.060353 0.014816
0.001709 -0.035455 0.017900
-0.001462 -0.039070 0.026937
-0.050347 0.009558 0.018364
-0.028217 0.027449 -0.014480
-0.008951 0.038108 -0.008531
-0.001380 0.042785 0.014923
0.024435 0.016288 -0.014347
0.049303 0.007107 0.017259
-0.013685 0.024841 0.017406
-0.039939 -0.056901 0.017287
0.044082 0.000223 0.016938
-0.009932 0.039045 -0.006995
-0.048064 -0.048598 0.002404
-0.034620 0.021373 0.018096
0.045385 -0.000178 -0.008703
-0.004122 0.039965 -0.012785
-0.003467 -0.037592 0.026935
0.036411 -0.011198 -0.005439
-0.005074 -0.011410 0.019409
-0.035785 -0.033537 0.026939
0.055452 0.012293 0.009312
-0.050045 -0.046617 0.009618
-0.054687 -0.056163 0.003273
-0.002013 0.023146 -0.018726
-0.002939 0.044197 -0.007738
-0.053757 -0.056872 0.003770
0.029757 0.042951 -0.005971
0.048900 0.037256 0.011375
0.013940 0.029300 -0.012135
0.035499 -0.010919 -0.002568
-0.044545 -0.045653 0.002448
0.036181 -0.011919 -0.013762
0.006657 0.050008 -0.004902
0.025754 -0.011385 -0.018696
0.001674 0.045547 0.014321
-0.016236 -0.033832 0.019410
-0.012267 0.025724 -0.018838
0.018777 0.031117 -0.012452
-0.001019 -0.021838 0.017900
-0.054703 -0.054688 0.010458
0.041134 -0.004556 -0.011795
0.055126 0.030350 0.004800
0.025568 -0.031705 0.003282
-0.057482 -0.051908 0.005329
-0.016877 0.032751 -0.016154
0.011244 0.055778 0.002304
0.062656 0.020399 0.005403
-0.046423 -0.043169 0.009112
0.043549 -0.001930 -0.002120
-0.032003 0.025214 0.001526
-0.012040 0.035839 0.000716
0.003600 -0.042357 0.018400
0.027880 0.024232 -0.008309
0.060415 0.024026 0.007428
-0.002787 0.042940 -0.008365
0.025649 0.012421 -0.013414
0.004453 0.050835 0.013809
0.022495 0.007632 0.015544
0.037574 -0.010173 -0.012501
-0.012640 0.024786 -0.021400
0.038185 -0.011431 0.005860
0.021854 0.001226 -0.016644
0.014476 0.058973 0.010289
0.055475 0.011368 -0.000332
-0.005009 0.040831 -0.000693
0.022571 0.016185 -0.013158
0.034893 -0.013707 -0.000600
0.020323 0.062381 0.001362
0.036877 0.048942 0.012136
0.007687 0.053854 0.013642
0.014290 0.055659 -0.005640
0.056684 0.028630 0.002347
-0.053242 -0.056184 0.002897
-0.019426 0.031249 0.015492
-0.011879 0.037693 0.006616
-0.006128 0.040210 -0.009478
-0.000426 0.043660 -0.008320
-0.057011 -0.036774 0.018359
-0.048643 -0.051556 0.009893
0.038784 -0.010210 0.012376
-0.034100 -0.015741 0.019719
-0.053930 -0.048356 0.009311
-0.008337 0.037187 -0.014136
-0.004253 -0.024544 0.019498
-0.003943 0.041490 -0.002037
0.019758 0.061095 -0.001800
-0.022274 0.024549 0.017907
-0.016497 0.004059 0.027399
0.061771 0.017525 0.002719
-0.008059 0.037811 -0.008551
-0.022221 0.026086 0.014908
0.023120 -0.032387 0.016860
-0.047974 -0.052279 0.002547
-0.010996 0.038544 0.008286
0.020001 0.061955 0.012596
0.028960 -0.010520 0.015296
0.022412 0.014746 -0.011530
0.040712 -0.001572 0.017395
0.007913 0.051014 0.014978
-0.054547 -0.056481 0.002377
0.009603 0.055749 -0.000156
0.003043 0.049521 0.012197
-0.055144 -0.056966 0.010237
0.010067 0.056131 0.001550
0.008177 0.054259 0.001779
0.024458 -0.032262 0.003004
-0.025041 0.024876 0.016860
0.061733 0.017830 0.000659
-0.057548 -0.054299 0.003201
0.031583 -0.016255 0.016539
-0.007865 0.025246 -0.017489
-0.035668 -0.012938 0.017900
0.023298 -0.006172 0.017406
0.010847 0.054068 -0.002569
0.033647 -0.013809 -0.015966
0.052801 0.009682 -0.004032
-0.058129 -0.053947 0.008106
-0.055614 -0.055559 0.010666
-0.023843 0.029713 0.012867
-0.052705 -0.057510 0.004270
0.040465 -0.007671 0.013873
0.053859 0.009685 0.014220
0.036901 0.044117 0.016222
0.038724 -0.006393 -0.008667
0.037741 -0.011675 0.008209
0.047322 0.000509 0.012808
0.023210 -0.032209 -0.000599
-0.057282 -0.052929 0.009004
-0.055676 -0.057436 0.007980
-0.053757 -0.056872 0.003770
0.023440 -0.010252 0.018189
-0.010030 0.023037 0.018332
0.019634 -0.039800 0.017420
0.008405 0.052221 0.016576
0.005331 0.019627 -0.016291
0.037709 -0.006116 0.017348
0.008698 0.017349 -0.016089
0.002946 0.017885 0.018366
-0.045426 -0.044168 0.009842
-0.055554 -0.056382 0.004151
0.038923 -0.006388 0.014831
0.023850 -0.027927 0.017737
0.016622 -0.043079 0.018198
-0.058310 -0.054897 0.006505
0.025166 -0.014254 -0.021599
-0.012262 0.035833 0.002516
0.020597 0.015675 -0.010958
0.034135 0.009627 -0.011949
-0.001029 0.006306 0.027400
0.029334 0.015096 -0.013158
-0.012083 0.035857 -0.000599
0.052181 0.009043 0.014735
0.054452 0.010403 0.013620
-0.048664 -0.049554 0.018076
-0.054543 -0.056108 0.009618
0.026369 -0.030366 0.008318
0.038312 -0.011348 0.002181
0.048435 0.004004 -0.008419
0.017120 0.021757 -0.013185
-0.009840 0.037261 -0.007449
0.013787 -0.021469 0.018400
-0.058026 -0.054052 0.004462
0.001483 -0.030744 0.027400
-0.053805 0.007400 0.017406
0.020438 0.062511 0.009362
-0.030133 0.025246 -0.015898
-0.009840 0.037261 -0.007449
-0.044930 -0.044658 0.009952
-0.012215 0.035846 -0.000176
-0.030784 0.024293 0.009912
-0.051869 -0.057573 0.006879
-0.031497 -0.060036 0.017875
0.017142 -0.043927 -0.027400
0.025616 -0.031631 -0.006530
0.029184 0.022714 -0.008761
-0.011691 0.037763 0.008167
-0.036043 -0.028361 0.027400
0.011972 0.056217 0.005400
-0.002579 -0.059400 -0.027400
0.054678 0.011589 -0.001225
0.024539 -0.029159 -0.016988
-0.001927 0.042437 0.014341
0.016696 0.061450 0.005400
-0.021263 0.007839 0.019401
0.001727 -0.042687 0.026401
-0.056245 -0.054769 0.010526
0.030607 -0.016572 -0.017573
0.059249 0.016686 -0.003840
-0.032227 0.023679 0.005038
-0.036043 -0.008890 0.027400
0.011522 0.054135 0.014569
0.035534 0.049544 0.013256
0.052181 0.009043 0.014735
0.024846 -0.006729 -0.017440
0.049242 0.007381 -0.008467
-0.056387 -0.056832 0.004121
0.013135 0.025007 -0.013239
-0.054976 -0.055580 0.002937
0.011003 0.053944 -0.004083
-0.053242 -0.056184 0.002897
-0.055648 -0.057263 0.004023
-0.044675 -0.038120 0.018400
0.036012 -0.011932 0.006752
0.008111 0.054340 0.013381
0.011597 0.055688 0.010817
-0.009698 0.039093 0.013039
-0.061455 -0.009478 0.017328
0.018121 0.031499 -0.012360
0.018054 0.032294 -0.010552
0.035715 0.050231 0.000842
0.058921 0.016366 0.016427
-0.047068 -0.053162 0.004024
0.024790 -0.028396 0.012544
-0.053261 -0.058841 0.007198
0.053195 0.010260 0.014943
0.049502 0.036884 0.004800
-0.009991 0.011689 0.026401
0.017149 0.030894 -0.012692
0.037454 -0.012111 0.003729
0.021021 0.062172 0.001402
-0.011167 0.035381 0.003699
-0.000593 0.042722 -0.011479
0.040182 -0.008255 0.013734
-0.022678 0.029200 0.014992
0.046624 0.003719 -0.009712
-0.032740 -0.025445 0.019604
0.011383 0.012303 0.018076
0.011803 0.056123 0.001656
0.040807 -0.006884 0.008276
0.029650 -0.019786 -0.018110
-0.051111 0.011108 -0.021608
-0.004776 -0.045819 0.027400
0.035363 -0.011469 0.004255
0.017992 0.022716 -0.014264
0.020752 0.061755 -0.000128
0.010805 0.055131 0.013038
-0.056905 -0.055031 0.004151
0.019481 -0.038344 0.018198
0.033631 0.049646 0.014928
0.016192 0.022372 -0.013401
-0.001899 -0.039428 0.027400
-0.033683 -0.015450 0.019412
-0.001019 -0.015412 0.017900
0.008490 0.053756 0.013851
0.015518 0.060261 -0.000697
0.023297 -0.012437 0.018368
0.040985 -0.007140 0.010535
-0.023229 -0.003534 0.026408
-0.052422 -0.057780 0.007743
0.028614 -0.014840 -0.017846
-0.053165 -0.057654 0.007277
-0.027706 0.027992 0.008748
-0.004255 0.043333 0.012719
-0.031859 0.025343 -0.006425
0.013276 0.056158 0.008509
0.013796 0.025924 -0.014268
0.010681 0.055415 0.011501
-0.059412 -0.002021 -0.021599
0.038568 -0.010836 0.009918
0.037554 -0.008322 0.014171
0.025396 -0.029682 0.011247
-0.044675 -0.038120 0.018400
0.036408 -0.009982 -0.006717
-0.002493 0.032111 0.016874
-0.005637 0.039476 0.014856
-0.052958 -0.057581 0.007653
0.002252 0.021353 -0.016546
-0.006630 0.025953 0.014910
0.027376 0.013702 -0.014156
0.056256 0.011934 -0.000590
0.012256 0.055220 0.010784
-0.043804 -0.046421 0.009954
-0.049930 -0.048146 0.012037
0.043976 0.026289 0.017396
0.018574 0.013340 0.015638
-0.056066 -0.055802 0.010166
-0.022619 0.026762 0.015204
-0.006949 -0.008213 0.019592
-0.000778 0.043478 -0.011086
0.026029 -0.030738 0.008259
0.008634 0.054789 0.013108
0.031729 -0.004417 -0.015155
-0.053709 -0.045238 -0.027201
-0.028917 0.024501 -0.017151
0.055768 0.011039 0.015182
0.046158 0.035069 -0.003395
-0.028472 -0.047523 0.027400
0.062520 0.019407 0.004800
0.012696 0.055633 0.006303
0.031672 0.019886 -0.010384
-0.026020 0.023071 0.018383
-0.052549 -0.050948 0.002468
0.028123 -0.025698 0.013626
0.051775 0.007203 0.014838
0.003303 0.020793 -0.016456
-0.005487 0.023388 -0.021599
-0.050347 0.009558 0.018364
0.010080 -0.051991 -0.021200
-0.033538 -0.059840 -0.021400
-0.004946 -0.008941 0.027400
0.046283 0.002588 -0.007090
-0.052578 -0.045499 0.003641
-0.011525 0.035118 0.008356
0.021693 0.030155 -0.008619
-0.056531 -0.053919 0.009725
-0.015843 0.027536 0.015082
-0.045449 -0.052628 0.009029
-0.043822 -0.045770 0.009668
0.023984 -0.019022 0.018322
0.017384 0.058465 0.016655
-0.041791 -0.006553 0.026900
-0.021263 0.007839 0.019401
-0.007583 0.038171 0.016809
0.061812 0.017499 0.005402
0.043667 -0.000248 0.014976
-0.001334 0.021737 0.017007
0.010670 0.055413 -0.004216
0.037241 -0.010112 -0.007396
0.016436 0.031672 -0.011044
0.052521 0.010190 -0.007113
-0.014353 -0.049856 0.026401
-0.057358 -0.053484 0.008243
0.031147 -0.017966 -0.017379
-0.008909 0.038498 0.015190
-0.045449 -0.052628 0.009029
0.014016 0.012117 -0.018830
0.036238 0.050380 0.008773
-0.057884 -0.051468 0.008213
0.010894 0.013753 -0.021400
0.051094 0.033387 -0.000995
-0.052621 -0.047615 0.009830
0.039276 -0.007547 0.014255
0.010459 0.053433 0.014307
0.027529 -0.028797 -0.000600
0.061867 0.020143 0.012741
0.025252 -0.005265 0.014908
0.031254 0.020610 -0.010431
-0.052230 -0.044432 0.005067
-0.001739 0.001734 0.026931
0.039014 -0.008175 -0.011755
-0.013352 0.035137 0.002730
0.024631 -0.032017 -0.011288
0.012638 0.055601 0.006847
0.007221 0.018330 -0.016274
-0.058064 -0.054838 0.005467
0.029835 0.022121 -0.010300
-0.057335 -0.054139 0.003995
-0.057849 -0.037109 0.017907
-0.009452 0.036853 -0.007434
-0.055086 -0.056759 0.009818
-0.050394 0.011467 0.017406
-0.057653 -0.055552 0.004038
-0.016284 0.008251 0.019399
-0.052512 -0.056916 0.009015
0.017184 0.060322 0.015447
0.055735 0.011430 0.011673
0.006024 0.018975 -0.018718
-0.052671 -0.057944 0.008066
-0.032221 0.023226 -0.000600
0.046807 0.040328 0.004800
-0.056775 -0.055067 0.002992
0.043835 -0.003560 -0.006469
-0.028472 0.010272 0.027400
0.062366 0.019338 0.001964
-0.047200 -0.031970 0.026401
0.025691 -0.029589 0.011231
0.018737 0.021704 -0.014121
-0.053101 -0.058349 0.008395
0.026768 0.024788 -0.011940
0.026535 0.005821 0.016589
0.044309 -0.003062 -0.007469
-0.019673 0.025387 -0.021201
-0.032334 -0.008941 0.027400
0.028066 0.023592 -0.011609
-0.044490 -0.007579 0.017900
0.018279 0.060830 0.015028
0.022571 0.016185 -0.013158
-0.009932 0.039045 -0.006995
0.031075 -0.014251 0.016854
0.023150 -0.002275 -0.018810
0.017030 0.060952 -0.001424
0.049303 0.007107 0.017259
0.018761 0.060518 -0.002671
-0.000827 -0.009179 0.026900
-0.052902 -0.057626 0.005291
0.005755 0.001340 0.019401
0.015172 0.058246 0.016524
-0.023508 -0.062368 -0.021201
-0.012038 0.037625 0.003603
-0.044510 0.014957 0.018368
0.038584 0.047235 0.000130
0.009369 0.013671 0.018256
0.019027 0.061622 0.013639
0.017913 0.021037 -0.013159
0.025649 0.012421 -0.013414
-0.009617 0.036524 -0.006547
0.037574 -0.010173 -0.012501
-0.046125 0.015337 0.017481
0.000620 0.044226 0.017035
0.018054 0.032294 -0.010552
0.047868 0.004420 0.014864
-0.046235 -0.050806 0.018367
-0.050092 -0.010341 0.018400
0.012644 0.055583 0.007806
-0.017513 0.030729 -0.017615
0.040773 -0.005196 -0.009375
-0.053561 -0.046670 0.005591
-0.053326 -0.056027 0.001913
0.032495 0.047132 0.016529
0.024174 -0.027772 0.017328
0.009862 0.055944 0.010815
0.000126 0.045405 -0.009333
0.009933 0.052938 -0.004010
-0.031859 0.024144 -0.012734
-0.019734 0.028614 0.016097
0.028541 0.023854 -0.007881
0.051144 0.008082 0.014977
0.040582 -0.003143 -0.012479
0.062130 0.020419 0.011669
-0.010829 0.035724 -0.003784
0.011694 0.054661 -0.001337
0.012548 0.055501 0.008799
-0.058295 -0.054621 0.005976
0.024350 0.027845 -0.008531
-0.053027 -0.056330 0.002124
-0.037254 -0.039428 0.027400
-0.007772 0.039070 0.015814
0.026172 -0.029884 0.010231
0.048510 0.032709 0.016005
0.010461 0.054822 0.013607
0.016134 0.060664 0.013690
0.020623 0.018316 -0.013256
0.025166 -0.014254 -0.021599
-0.007105 0.024970 -0.017449
0.031772 0.054318 0.007946
0.010299 -0.051520 -0.021400
0.054587 0.011791 0.017074
0.012505 0.055616 0.004501
-0.057700 -0.052869 0.008591
0.024739 0.027679 -0.007972
0.054401 0.009997 -0.005388
0.013381 0.055979 0.002018
0.023289 -0.002050 -0.016945
0.031075 -0.014251 0.016854
-0.009090 0.037066 -0.007184
-0.046423 -0.043169 0.009112
0.040773 -0.005196 -0.009375
0.025756 -0.030173 -0.015167
0.019353 0.021621 -0.014288
0.022521 -0.034240 -0.021200
0.046925 0.037793 -0.001196
-0.016168 0.026400 -0.018551
-0.050929 -0.049306 0.011192
0.055951 0.013077 0.004011
-0.058445 -0.053633 0.006630
0.019559 0.051740 -0.005756
0.009369 0.013671 0.018256
-0.022411 0.012687 0.019400
0.023665 0.027632 -0.012093
0.028078 0.009075 0.017337
-0.002033 0.042952 0.016489
-0.000191 0.020584 0.017900
-0.028918 0.024182 -0.027200
-0.003088 0.041352 -0.009336
-0.054909 -0.054444 0.011269
-0.009366 -0.031097 0.019473
0.050533 0.005911 -0.005555
-0.003041 -0.059744 0.016764
-0.009847 0.039018 -0.007157
0.000634 -0.006998 0.027400
-0.050811 -0.045852 0.004398
-0.006622 0.041485 -0.008244
0.041088 -0.004776 -0.009347
0.036110 -0.011831 0.011975
0.055317 0.010523 0.011869
-0.006399 0.040076 -0.011927
-0.027235 -0.031624 0.019498
0.011933 0.055074 0.011409
-0.001334 0.021737 0.017007
-0.023508 -0.062368 -0.021201
-0.032236 0.024408 -0.006440
-0.007046 0.039345 -0.009176
0.049640 0.005363 -0.007924
-0.003442 -0.059943 -0.021599
0.007661 -0.053794 0.017007
-0.008337 0.037187 -0.014136
-0.016033 0.033684 -0.012173
-0.049192 -0.049581 0.017740
-0.008113 0.038823 0.014705
0.035989 -0.011757 -0.003409
-0.002579 -0.059400 -0.027400
0.036327 -0.010093 0.011767
-0.007265 -0.029505 0.019777
0.016280 0.061028 0.011744
0.025616 -0.031631 -0.006530
0.031811 -0.018384 -0.000600
-0.057482 -0.051908 0.005329
0.029542 0.020961 -0.012380
-0.003224 0.000708 0.026938
0.037241 -0.010112 -0.007396
-0.053073 -0.057418 0.004593
0.001840 -0.001275 0.017900
-0.018995 -0.034370 0.019765
-0.032331 0.023791 0.001498
0.036680 -0.011203 0.015638
-0.047398 -0.050679 0.011628
0.052977 0.010033 -0.003151
-0.021093 -0.034207 0.026399
0.026919 -0.029321 -0.001200
-0.020336 0.027772 0.015723
0.034007 -0.008849 0.017234
-0.011176 0.036404 0.010002
0.000422 0.044458 -0.007930
0.036967 -0.010585 -0.009328
0.020093 0.004542 -0.016347
0.025166 -0.014254 -0.021599
-0.052678 -0.056751 0.009268
-0.056772 -0.055080 0.010090
0.054115 0.009315 0.013616
0.015518 0.016201 0.015514
-0.051704 -0.048494 0.011730
-0.026146 0.026872 -0.018016
0.006376 0.052718 0.013684
0.030641 -0.017516 -0.017646
-0.031912 -0.010134 0.026402
0.009603 0.055749 -0.000156
0.060499 0.015782 -0.000227
-0.061390 -0.028438 -0.027400
0.010133 0.015965 -0.018659
0.037038 -0.008077 -0.014211
0.026131 -0.019389 -0.018847
0.031772 0.054318 0.007946
0.026779 0.012055 -0.011617
0.037949 -0.007789 -0.013703
0.002899 0.047933 0.015642
-0.009305 0.036905 0.012460
-0.051277 -0.058071 0.007191
-0.030233 0.024389 -0.016003
0.024242 -0.032194 0.005491
-0.034367 -0.017406 0.026403
0.008288 0.051650 0.014287
-0.031540 0.024444 0.008334
-0.008159 0.040318 -0.008008
-0.050284 -0.053196 0.009892
-0.035785 -0.033537 0.026939
-0.004828 0.039943 -0.010073
0.013120 0.056023 0.008199
0.036882 -0.009795 0.016545
-0.034008 0.000620 0.017900
-0.045419 0.016277 0.016645
0.057072 0.012752 0.009426
-0.007693 0.036423 0.017323
0.030373 0.014790 -0.011847
-0.011741 0.036312 0.004018
-0.016814 0.033143 -0.001201
0.018390 0.020583 -0.013211
-0.036316 0.021442 0.017301
0.006024 0.018975 -0.018718
0.035836 -0.012239 -0.007482
0.011880 0.054811 0.012360
-0.016931 0.033284 0.014871
-0.056112 -0.055689 0.010370
-0.033601 -0.022120 0.019408
0.021308 0.062417 0.006643
0.049896 0.005244 0.014824
-0.008457 0.023920 0.017406
-0.002308 0.044800 0.012197
-0.052621 -0.047615 0.009830
-0.007170 0.038403 -0.008976
0.054926 0.008841 0.012960
-0.007530 -0.029482 0.019480
0.019828 0.062448 0.009921
-0.043316 0.017833 -0.027200
0.037565 0.044980 0.015603
0.017030 0.060952 -0.001424
-0.031514 0.025671 -0.010373
0.037513 -0.012083 -0.002039
-0.049329 -0.050869 0.002502
0.029099 -0.018115 0.016326
0.025572 -0.009502 -0.017723
0.008777 0.055004 0.012031
-0.057204 -0.053437 0.004252
-0.006627 0.038804 -0.013301
-0.024236 -0.048632 0.027400
-0.002835 0.040846 0.017209
-0.025547 -0.032807 0.026407
0.022397 -0.028609 0.018389
0.030336 0.055141 0.004800
-0.023877 0.025829 0.014917
-0.029020 0.025457 0.012007
-0.054597 -0.056752 0.010365
-0.061889 -0.018571 0.017980
-0.020836 -0.034200 0.019704
0.044306 -0.003013 -0.007583
-0.003257 0.042516 -0.003739
-0.011733 0.035034 -0.015224
-0.008817 0.036998 -0.007590
0.051189 0.034992 0.010391
-0.012229 0.024891 0.016734
0.023651 -0.009054 0.017875
0.028449 -0.026183 -0.015007
0.061589 0.018522 0.013512
0.025337 -0.031895 -0.003534
-0.001618 0.021605 0.017491
-0.032144 0.024919 -0.003687
0.030192 0.016460 -0.012993
-0.030530 -0.006808 0.027400
-0.054285 -0.049192 0.008346
0.007078 0.015387 0.018302
0.008895 0.015427 0.017311
0.011004 0.025074 -0.011060
-0.008491 -0.061464 -0.021201
-0.055614 -0.055559 0.010666
0.040513 -0.004078 0.015032
0.012696 0.055633 0.006303
-0.012232 0.035844 0.000749
-0.036251 -0.043557 0.027400
0.020303 0.062085 0.000199
-0.006530 0.039910 -0.009466
-0.048935 -0.055763 0.005663
-0.057940 -0.052259 0.006829
0.024067 -0.029309 -0.021200
0.011016 0.027354 -0.010729
-0.055617 -0.056496 0.002365
-0.021880 0.028949 0.015424
-0.010424 0.035000 -0.015239
0.006240 -0.007011 0.017900
0.046925 0.037793 -0.001196
0.042987 -0.002722 0.014840
-0.011135 0.035398 -0.002334
-0.061390 -0.028438 -0.027400
-0.056636 -0.053881 0.009887
-0.043556 -0.046037 0.003315
-0.029672 0.027079 -0.010230
0.018054 0.032294 -0.010552
0.060595 0.015874 0.013182
0.001613 0.045539 0.014811
0.052376 0.009409 -0.004983
-0.012202 0.035868 -0.002096
-0.028766 -0.030220 0.019410
0.002452 0.019335 0.017823
-0.049936 -0.053550 0.009537
0.024246 0.028038 -0.010355
0.018520 0.021458 -0.013781
-0.004535 0.022947 0.017043
0.023546 0.028550 -0.008566
-0.053805 -0.058272 0.005169
-0.057894 -0.052876 0.004168
0.012080 0.055237 0.010735
-0.053022 -0.056402 0.003101
-0.057496 -0.054362 0.009577
0.043463 -0.002263 0.015624
0.011347 -0.031220 0.018400
0.004810 0.048234 -0.006246
-0.053649 -0.058428 0.006721
-0.001462 -0.039070 0.026937
0.028571 -0.026337 -0.012372
0.007763 0.053857 0.009986
-0.055625 -0.053728 0.011093
0.024951 0.012097 -0.011656
-0.010824 0.035609 0.007731
0.032129 0.017559 -0.009383
0.039512 -0.009425 0.012483
0.020169 -0.000314 0.018198
0.036090 -0.010428 -0.005963
0.037574 -0.010173 -0.012501
-0.011152 -0.032457 0.019704
-0.033273 -0.024417 0.019740
-0.046846 -0.049817 0.002939
-0.058107 -0.051245 0.006974
-0.051300 -0.058053 0.005465
0.011791 0.054772 0.000341
-0.000905 0.043241 0.014869
-0.061577 -0.027799 0.017045
-0.055789 -0.057136 0.004886
-0.003627 0.042047 -0.011220
-0.006153 0.039114 -0.008764
0.055264 0.009043 0.012374
0.025912 0.012391 -0.011404
-0.011329 0.032191 0.016940
0.031969 -0.004576 0.016648
-0.017963 -0.061951 0.017907
0.047322 0.000509 0.012808
0.015838 0.020293 -0.010883
0.024284 0.054958 0.016194
0.026985 0.025237 -0.010231
0.016134 0.060664 0.013690
0.001358 -0.057845 -0.021599
-0.039969 -0.030583 0.017900
0.055452 0.012293 0.009312
-0.028574 0.025635 -0.017266
0.055951 0.013077 0.004011
0.046624 0.003719 -0.009712
-0.055086 -0.056759 0.009818
-0.052342 -0.044320 0.006940
-0.033611 -0.000264 0.017900
-0.001815 0.042539 0.014839
