-0.099941 0.037397 -0.041166
-0.011306 0.057160 0.012241
0.005561 -0.033123 0.100763
0.022662 -0.033319 0.094315
-0.036661 -0.007042 0.097782
-0.050500 0.085187 0.043312
-0.062293 0.019336 0.053516
-0.053001 -0.011947 0.064425
-0.035105 0.025787 0.091456
0.006174 -0.049545 0.063105
-0.076030 0.017913 -0.023622
0.037257 0.033614 0.063027
-0.107551 0.104549 -0.048459
-0.034648 0.053614 -0.007646
-0.079019 0.020393 0.029788
-0.036582 0.044233 -0.007645
-0.054977 0.035118 -0.034021
-0.041375 0.090558 0.035594
-0.067673 0.022983 0.043236
-0.055474 0.032769 0.054962
0.052260 0.016513 0.012951
-0.057796 0.009031 0.066373
-0.007040 0.028314 0.103487
-0.058577 -0.000397 0.047656
-0.051156 -0.020216 0.000500
-0.028704 -0.028993 0.093630
-0.091075 0.091526 -0.052982
-0.046852 0.035373 0.077903
-0.035084 -0.039145 0.064914
-0.012588 0.022501 0.105243
-0.084000 0.037642 -0.044784
-0.040240 0.041440 0.061166
-0.007547 -0.035484 0.098627
-0.004630 0.046938 0.076604
-0.135808 0.091398 0.006154
-0.105496 0.078880 -0.047053
0.039177 0.038610 0.000500
-0.109119 0.019699 -0.009179
-0.004194 0.052866 0.043753
-0.123605 0.051828 -0.025003
-0.058928 0.017633 -0.003784
0.018787 0.040329 0.086919
-0.092958 0.035465 -0.042642
-0.126302 0.088033 0.030468
-0.114088 0.058711 -0.037966
-0.013081 0.058111 0.011176
0.037603 0.005521 0.096966
-0.057087 0.024156 0.063712
-0.059225 0.090184 -0.048230
-0.015758 0.057247 0.070923
0.011425 0.050277 0.051197
-0.026279 0.011642 0.103742
-0.057371 0.063755 0.047666
-0.100833 0.018301 0.017490
-0.131720 0.110070 0.024063
-0.053159 -0.015629 0.027364
-0.028379 0.081023 -0.016173
-0.058260 0.050406 -0.041231
-0.050401 -0.021800 0.015227
-0.062815 0.013822 0.048347
-0.042514 0.020960 0.092416
0.009556 -0.051658 0.064837
-0.041073 0.096343 0.035047
-0.125245 0.034919 -0.008882
-0.021952 0.054265 0.072665
0.036217 -0.033433 0.065609
-0.026481 0.067684 0.027901
-0.022406 0.066745 0.016836
-0.045572 0.034355 0.063576
-0.058046 0.061929 -0.043552
0.051571 0.008909 0.045226
-0.018760 0.060561 0.029043
-0.093726 0.048014 -0.045993
0.027347 -0.038364 0.076849
-0.076976 0.018318 0.026323
-0.012538 0.057144 -0.003619
0.022655 0.035348 0.091868
-0.013538 0.035938 0.096544
0.052694 0.015686 0.005542
-0.044116 -0.000748 0.090998
-0.040384 0.078409 0.036801
-0.113193 0.062780 -0.039580
-0.025164 0.053919 0.065931
-0.055859 0.013709 -0.006774
0.054482 -0.004670 0.016487
-0.049223 -0.014449 0.066871
0.032088 0.039646 0.063065
-0.082228 0.068630 0.051007
-0.063985 0.025730 0.070525
-0.131399 0.076762 -0.018024
-0.111832 0.033394 -0.031268
-0.105032 0.082534 0.047745
0.005863 0.039406 0.094901
-0.002719 -0.045649 0.083129
-0.133422 0.073406 -0.008789
0.033212 -0.016940 0.097699
-0.077929 0.032866 -0.042336
-0.059605 0.003233 0.018178
-0.127053 0.040092 0.009696
-0.057328 0.028920 0.070779
0.023830 -0.038481 0.084780
-0.056688 0.022497 0.062515
-0.027968 0.107388 -0.004090
-0.107028 0.033395 -0.035157
0.015511 -0.038708 0.092326
-0.012903 0.057577 0.024506
0.012423 0.045054 0.078603
-0.036419 -0.014246 0.095771
-0.130751 0.087976 0.022779
-0.064180 0.013214 0.037679
-0.066987 0.011804 -0.014976
-0.128747 0.046427 0.008427
-0.129771 0.124000 -0.028128
0.049383 0.008841 0.077960
-0.059013 0.022521 -0.023067
-0.107962 0.084175 -0.046457
-0.051369 0.047513 0.070575
0.001749 0.047051 0.076996
-0.072575 0.048487 0.047703
0.008173 -0.028579 0.103182
-0.041463 0.028007 0.080852
-0.073381 0.012159 -0.005335
-0.038885 -0.033678 0.052102
0.043110 0.018071 0.078568
-0.006714 0.048566 0.067047
-0.121804 0.028290 0.002411
-0.003648 -0.031574 0.101954
-0.102247 0.018976 -0.018029
0.054500 0.000988 0.005491
0.031768 -0.043084 0.033941
-0.044714 0.047556 0.050883
-0.125558 0.037396 0.012035
-0.083922 0.069742 -0.051145
-0.050294 -0.022264 0.000500
0.012354 0.046249 0.073127
-0.064414 0.017510 -0.015135
-0.048986 -0.011473 0.082454
0.009026 0.050199 0.055096
-0.066743 0.011015 -0.012489
-0.126048 0.069584 -0.026811
-0.049658 -0.000254 0.088045
0.039299 -0.038436 0.006193
-0.020031 -0.040353 0.085401
-0.027330 0.065964 0.032156
-0.060798 0.030036 0.051366
0.042328 0.030539 0.046381
-0.096529 0.020841 -0.026741
-0.029754 0.092386 0.015551
0.037666 0.026039 0.082885
0.052165 0.003912 0.045412
-0.073381 0.013933 -0.015424
-0.049587 0.043253 0.051790
-0.055859 0.013709 -0.006774
-0.062860 0.013354 0.054410
-0.034614 0.061570 0.065157
0.050610 0.018010 0.031721
-0.068158 0.013975 0.022700
-0.068387 0.051194 0.048397
0.049744 0.021055 0.027976
-0.016310 0.023164 0.103966
-0.059287 0.036226 0.070804
-0.063900 0.008716 -0.010460
0.005186 -0.042445 0.090561
-0.009418 0.040286 0.092826
-0.032642 0.069602 0.034446
-0.048267 -0.023204 0.039111
-0.064166 0.029934 -0.036296
-0.060928 0.005371 -0.008537
-0.046280 -0.000345 0.088205
-0.020253 0.049380 0.054115
-0.048826 0.030184 -0.023110
-0.103360 0.033530 0.037547
-0.037904 0.105390 -0.031484
-0.031383 0.019086 0.100939
-0.002888 -0.054936 0.000500
0.004189 0.054647 0.012952
-0.099916 0.052294 0.044945
-0.019368 0.060111 0.032224
-0.136817 0.100871 -0.001953
-0.028095 -0.022384 0.098948
-0.062117 0.050874 0.048647
0.043210 0.005644 0.088981
-0.051749 0.037526 -0.032524
-0.135450 0.084040 -0.001056
0.005128 -0.054766 0.000500
0.052706 -0.014068 0.019273
0.052796 -0.007196 0.036582
-0.058928 0.017633 -0.003784
-0.059268 0.053748 -0.042553
-0.123941 0.035465 0.014505
-0.135007 0.095372 -0.012515
-0.072831 0.041921 0.046444
-0.030162 0.028445 0.093566
-0.045737 0.079581 0.040743
-0.015890 0.055029 0.072350
-0.054299 -0.009509 0.064483
-0.040023 0.054980 0.047891
-0.062720 0.080887 -0.048748
-0.035726 0.045410 0.065961
-0.031514 0.045375 0.056940
-0.069580 0.012702 0.014733
0.034074 -0.030554 0.082952
0.036252 -0.026937 0.093954
0.016774 0.052183 0.012844
-0.087755 0.020687 0.029469
-0.017536 0.054703 -0.018215
-0.060572 0.022638 -0.024775
0.034751 0.013212 0.097802
0.046495 0.029389 0.000500
-0.119208 0.088338 -0.038762
0.052034 0.008042 0.065098
0.008010 0.054076 0.016663
0.041717 -0.028455 0.058398
-0.027211 0.083836 -0.008687
-0.020927 0.028974 0.099092
-0.031425 0.086881 0.021523
-0.041206 0.019985 0.089472
-0.088803 0.095368 -0.053610
-0.010553 -0.049100 0.060166
-0.076591 0.023494 0.035432
0.044711 0.025088 0.072531
-0.062183 0.016894 0.070678
-0.056242 -0.004908 0.004827
-0.129647 0.087900 0.024957
-0.111753 0.020769 -0.006970
-0.071224 0.011421 0.000500
-0.045971 0.061155 -0.033876
0.026637 -0.040206 0.071299
-0.024346 -0.023272 0.100960
-0.118429 0.033395 -0.023383
-0.028089 0.108888 -0.006005
-0.065667 0.033890 0.047136
0.025887 0.048493 0.006207
0.050461 -0.015208 0.042058
-0.099191 0.124000 -0.052413
-0.027642 0.124000 0.004071
-0.118439 0.062478 -0.034819
0.049513 -0.016899 0.045325
-0.121398 0.028214 0.005660
-0.055906 0.073517 -0.044332
-0.048169 0.062698 -0.036448
0.002426 -0.053059 0.038202
0.026766 -0.022171 0.099892
-0.046280 -0.000345 0.088205
0.025043 -0.023894 0.100003
-0.080502 0.062473 0.049994
-0.049645 -0.023693 0.000501
0.050554 0.017144 0.035444
-0.074805 0.035824 0.044591
-0.002689 -0.050732 0.074871
-0.134086 0.072989 -0.001949
-0.067038 0.024273 -0.031720
-0.017122 0.028130 0.101215
-0.054331 0.058303 0.047888
-0.039321 -0.029883 0.065056
-0.027529 0.119001 0.000999
0.043737 -0.013505 0.082919
-0.017176 -0.047173 0.063057
-0.072982 0.124000 0.054177
0.016129 -0.042444 0.093468
0.043255 0.022987 0.083296
-0.112306 0.095366 0.045003
0.008171 -0.001883 0.110472
-0.058337 0.041635 0.049391
0.011114 0.024330 0.104769
0.013854 -0.053231 0.000500
-0.036150 -0.001501 0.098835
-0.127190 0.039432 -0.007959
0.026348 -0.034713 0.088984
-0.132957 0.069752 0.008490
-0.046178 0.010712 0.087836
0.022546 0.030519 0.097026
0.005480 -0.050564 0.074627
-0.052905 0.094846 -0.045106
-0.090113 0.029215 -0.039405
-0.118912 0.046306 0.029690
-0.053222 0.078328 -0.043348
-0.022322 -0.045778 0.074247
0.043737 -0.013505 0.082919
-0.035616 0.101417 0.027764
-0.121853 0.029957 0.010324
-0.070249 0.011122 0.000500
-0.054465 -0.002518 0.069392
-0.102251 0.057037 -0.044941
-0.090672 0.020208 -0.027911
-0.114151 0.051970 -0.036273
0.014708 -0.046956 0.066089
-0.047162 -0.024220 0.042956
-0.051369 -0.002012 0.078514
-0.057936 0.003705 -0.010763
-0.048614 0.087166 -0.041112
0.042407 -0.011899 0.087980
-0.059774 0.003403 0.023991
-0.057273 0.018245 -0.000600
0.007918 0.039728 0.096778
0.008010 0.054076 0.016663
-0.108934 0.046009 0.038773
-0.078891 0.012673 0.003402
0.020292 0.046781 0.073854
-0.055517 0.081401 -0.045231
-0.089896 0.028295 0.038681
-0.125064 0.041383 -0.017185
-0.022913 -0.039627 0.082954
-0.061083 0.028220 0.051761
-0.064092 0.041454 0.047795
-0.029880 0.076770 0.000500
0.025210 -0.046185 0.042828
-0.030353 0.029589 0.092274
-0.056032 0.015231 0.069479
-0.037870 -0.039895 0.000500
0.010886 -0.049602 0.056556
0.001818 0.015101 0.109114
-0.002075 0.043342 0.089363
-0.048028 0.017936 0.081972
-0.105076 0.027076 0.030916
0.020108 0.032189 0.097030
0.026668 0.042936 0.058109
-0.102863 0.016638 -0.006710
-0.000767 0.009779 0.110252
-0.068236 0.025135 0.043677
0.051203 -0.001701 0.072777
-0.062376 0.034221 0.065266
0.024241 -0.027499 0.100933
-0.121087 0.088360 -0.036901
-0.041280 0.009643 0.093536
-0.067034 0.017287 0.037533
-0.022560 0.035801 0.096603
-0.028819 -0.032103 0.089865
-0.014293 -0.016422 0.106980
-0.047819 -0.020388 0.064193
-0.136936 0.118120 0.007749
0.049571 0.017712 0.065113
-0.087177 0.013009 0.004128
-0.103859 0.029227 -0.033983
0.040057 -0.008802 0.093344
0.026730 -0.042599 0.077288
-0.030367 0.090649 -0.016912
-0.066980 0.011945 0.064949
-0.013241 0.040315 0.091131
0.031873 -0.036712 0.069293
-0.017545 -0.044258 0.074503
0.043727 -0.021271 0.084750
-0.069760 0.016569 0.028706
0.035826 0.010131 0.097742
0.043966 -0.024124 0.063040
-0.030767 0.076312 0.025832
-0.117259 0.035466 0.026824
0.017815 -0.046845 0.063034
-0.035616 0.101417 0.027764
-0.083198 0.021065 -0.030571
-0.042031 0.088488 0.036442
0.019398 -0.047631 0.071712
-0.070081 0.029860 0.044005
-0.081450 0.012702 -0.001022
-0.052153 0.024160 -0.018324
-0.033390 -0.010071 0.099804
-0.049624 0.030580 0.078336
0.040398 -0.037054 0.012916
-0.022266 -0.050302 0.000500
-0.020032 0.053818 0.000500
0.048187 -0.019500 0.048091
-0.042514 0.020960 0.092416
-0.062480 0.016907 0.051996
-0.027620 0.046528 0.056893
0.005208 -0.028737 0.103475
-0.043753 0.079905 -0.035429
0.019007 -0.041175 0.093565
0.004911 -0.051220 0.051984
-0.064773 0.032636 -0.038560
-0.103478 0.073612 -0.047262
0.031286 0.015137 0.099892
-0.015310 -0.046250 0.084418
-0.056751 0.020622 0.064093
-0.044443 0.068128 0.043212
-0.017304 0.061855 -0.003909
-0.032433 -0.036656 0.083459
0.025233 0.046192 0.065077
0.042906 0.031184 0.038913
0.044477 0.025019 0.054912
-0.020927 0.028974 0.099092
-0.044035 -0.007738 0.088925
-0.056988 -0.005192 0.059855
-0.033708 0.106940 0.024652
-0.025493 0.072087 0.016847
0.004786 0.046471 0.078698
-0.051205 0.063627 0.046486
-0.091919 0.046675 -0.046112
-0.116511 0.023485 0.004261
-0.028769 0.021621 0.099131
-0.019585 0.063465 0.014892
0.039785 -0.021583 0.084780
0.006024 -0.054164 0.020344
-0.066267 0.015454 -0.007840
0.042685 -0.019918 0.076881
-0.016538 0.057059 0.038161
0.044450 -0.000983 0.087014
-0.076157 0.039193 0.045529
-0.006634 0.039709 0.094360
-0.130509 0.073320 0.019092
-0.053329 0.101176 0.045878
-0.084265 0.037481 0.044710
0.037832 0.021628 0.088981
-0.047985 0.036618 0.058046
-0.065650 0.015994 0.039190
0.020644 -0.037222 0.090923
-0.070022 0.015388 -0.012718
-0.029972 0.090839 -0.016080
-0.025956 -0.048435 0.008243
-0.081144 0.076533 0.052072
-0.032007 0.093480 -0.018662
0.006876 -0.053296 0.031457
0.034602 0.039628 0.064872
0.004911 -0.051220 0.051984
0.030094 0.044986 0.026337
-0.109782 0.019968 0.008782
0.008287 -0.044774 0.093184
-0.081085 0.020277 0.029241
-0.066044 0.015899 0.037321
-0.026981 0.072448 0.021374
-0.133241 0.113746 0.020957
0.021913 0.046009 0.055404
-0.019722 0.053956 -0.018215
-0.032684 0.069514 -0.011546
-0.047489 0.071841 0.043387
-0.018143 0.020323 0.104527
-0.038672 0.033948 0.073952
-0.098854 0.039433 0.042346
0.010541 -0.047395 0.069622
-0.072646 0.021639 0.035598
0.010493 -0.007172 0.109711
-0.033816 0.007140 0.100105
-0.073984 0.114572 -0.054254
0.043427 -0.016550 0.091067
-0.061083 0.028220 0.051761
-0.072690 0.026867 -0.036814
0.043211 -0.030023 0.065006
-0.098932 0.117188 0.052453
-0.065020 0.014645 0.038106
-0.073503 0.013781 -0.008539
-0.014293 -0.016422 0.106980
-0.046668 0.097896 0.040618
-0.010534 -0.037438 0.096015
-0.055494 0.036415 0.070814
-0.011186 0.042944 0.087217
-0.035726 0.045410 0.065961
-0.021711 -0.027627 0.099588
0.016409 0.022480 0.104229
0.036217 -0.033433 0.065609
0.035312 -0.032528 0.086844
-0.025234 0.065704 0.029116
0.038441 0.028465 0.073308
-0.031024 0.012632 0.100906
-0.046537 -0.024041 0.048326
-0.073440 0.069117 -0.050263
-0.007038 -0.008295 0.110063
-0.000663 -0.033780 0.100624
-0.050161 0.037104 0.055824
-0.111481 0.100875 0.045975
-0.059287 0.036226 0.070804
0.043748 -0.003974 0.088237
0.017238 0.028111 0.101187
0.009643 0.054126 0.005845
0.036029 0.007034 0.100932
-0.062949 0.022542 0.050814
-0.070359 0.024884 0.041336
-0.030767 0.076312 0.025832
-0.063411 0.011186 0.032636
-0.057490 0.003288 -0.004506
0.048158 -0.023144 0.034962
-0.034266 0.025086 0.092861
-0.065488 0.012786 0.026430
0.048761 0.015314 0.054427
-0.078004 0.013026 -0.004668
-0.019392 -0.015658 0.105649
0.016930 -0.046247 0.065847
-0.016738 0.056318 -0.018375
-0.058499 0.029163 0.070826
-0.031860 0.116311 0.021345
-0.007038 -0.008295 0.110063
-0.078341 0.119192 -0.054835
-0.064680 0.009933 0.014348
0.005207 0.005683 0.110564
-0.033762 0.051738 0.071368
0.039328 0.031199 0.060251
-0.115787 0.028215 -0.020906
-0.065079 0.012070 -0.018384
0.048460 -0.008637 0.065984
-0.037046 0.124000 -0.002906
0.048378 -0.013163 0.063018
-0.017104 0.061188 0.000500
-0.050293 -0.019143 0.043614
-0.028425 0.080533 0.016818
-0.007349 0.032197 0.101148
0.037045 0.040660 0.000500
0.008175 -0.025218 0.104897
-0.086752 0.058726 -0.049209
-0.041005 0.076173 0.038078
0.008872 0.052985 0.031624
-0.044660 0.094467 0.038691
-0.029855 0.063268 0.065330
0.007171 -0.037710 0.096584
0.035167 -0.035436 0.061925
0.019007 -0.041175 0.093565
-0.058530 0.099663 0.048698
-0.122380 0.046255 -0.024824
-0.087454 0.023693 -0.034201
-0.056596 0.117145 0.048481
-0.060928 0.005371 -0.008537
-0.113736 0.124000 0.045278
-0.041258 0.041654 0.056893
-0.046534 -0.018743 0.066898
-0.016190 0.047707 0.061809
0.053385 -0.001201 0.035267
-0.059579 0.015292 0.071071
0.047560 -0.014923 0.062406
-0.104482 0.037620 0.039040
0.040419 0.033631 0.064859
-0.127394 0.081249 -0.027508
-0.016035 0.042793 0.083236
-0.028412 0.087625 -0.011776
-0.029193 0.080369 0.019192
0.014775 0.050970 0.064892
-0.116235 0.029964 -0.022735
-0.030779 0.021617 0.097855
0.032673 0.008454 0.100648
-0.058640 0.022175 0.059076
-0.012483 0.056738 0.000500
-0.068062 0.011440 0.011694
-0.103653 0.019227 0.017183
-0.045098 0.017255 0.086476
-0.072384 0.107047 -0.053727
-0.053464 -0.014301 0.037848
-0.115067 0.052100 0.035480
0.005186 0.044160 0.086977
0.026637 -0.040206 0.071299
0.013025 0.049385 0.054600
-0.036746 -0.032483 0.066956
-0.046967 0.032873 0.064190
-0.123990 0.066281 -0.029060
-0.022124 -0.037297 0.089408
0.016894 0.040115 0.089109
0.009646 0.021665 0.106176
-0.047481 0.034527 -0.025742
0.003431 -0.047021 0.076668
-0.066258 0.030605 -0.037801
-0.107484 0.037398 0.037076
0.037528 -0.036692 0.043924
0.011714 0.048176 0.063937
-0.052314 0.010975 0.084397
-0.060928 0.005371 -0.008537
-0.096719 0.022169 -0.029079
-0.068012 0.016068 0.065016
-0.048671 -0.013922 0.070325
-0.046446 0.035755 0.063938
-0.014401 0.048935 0.058372
-0.027805 -0.027192 0.096015
-0.026168 0.076538 -0.012879
-0.119559 0.091525 0.038826
-0.070554 0.015804 0.024956
-0.129240 0.084499 -0.025004
-0.050947 -0.011244 0.067401
-0.110468 0.106056 0.046923
-0.006327 0.051490 0.051119
-0.008136 0.055679 0.070702
-0.093614 0.014355 -0.008581
-0.051156 -0.020216 0.000500
-0.039400 0.044225 0.057877
-0.029607 0.087762 -0.016055
-0.037956 0.070900 -0.025518
0.008772 -0.032746 0.100545
0.041978 0.035490 0.006187
0.046059 -0.010303 0.076436
-0.042968 0.116389 -0.038175
0.040333 0.013574 0.090919
-0.057271 0.015940 0.066300
0.051235 0.005568 0.051395
0.015773 0.051363 0.031613
-0.047452 0.116283 0.042328
-0.049005 -0.024820 0.008995
0.030387 -0.022624 0.097092
-0.016623 0.060634 0.012840
0.054500 -0.000988 0.005491
-0.022124 -0.037297 0.089408
0.041078 0.023290 0.076324
-0.066746 0.024262 0.065536
0.004960 -0.046583 0.090147
-0.020108 -0.013159 0.106039
-0.037790 0.004666 0.097368
-0.069052 0.020134 0.038127
-0.115712 0.022772 -0.002285
-0.033116 0.124000 0.024229
-0.011711 0.051188 0.051595
0.049850 0.002659 0.061975
-0.014809 0.056902 -0.014281
-0.058411 0.032951 -0.035172
0.037380 -0.024023 0.087051
0.036519 -0.032617 0.083481
-0.073292 0.012480 -0.008388
0.027458 0.045798 0.035267
0.002912 0.044759 0.085953
0.051235 0.005568 0.051395
-0.049511 0.038197 -0.030612
-0.044412 -0.013705 0.083532
-0.027736 0.048164 0.054045
-0.057511 0.003977 -0.009411
-0.038104 0.054083 0.048231
-0.073730 0.101085 0.053650
0.019779 0.039224 0.088237
-0.025569 -0.040160 0.074452
-0.134351 0.117173 -0.018242
-0.042996 0.038045 -0.021466
-0.019169 0.064047 -0.003803
0.042467 -0.002756 0.090919
-0.053464 -0.014301 0.037848
0.040257 0.027078 0.069822
-0.129235 0.058970 -0.016126
0.015324 0.032861 0.098656
-0.082228 0.068630 0.051007
-0.107777 0.021101 -0.017313
-0.108393 0.041156 0.037841
-0.003794 0.003420 0.110843
-0.060910 0.017529 0.064240
0.000825 0.036455 0.098458
-0.058070 0.004266 0.071572
-0.032097 0.065763 -0.004047
-0.028626 0.027372 0.095675
-0.118616 0.025005 0.001748
-0.012352 0.054692 0.042362
-0.044116 -0.000748 0.090998
0.023412 -0.014169 0.104463
-0.056653 0.023512 0.071761
-0.071387 0.011676 0.005655
-0.066267 0.015454 -0.007840
0.049513 -0.016899 0.045325
0.049198 0.009809 0.063022
-0.083976 0.017230 0.022859
-0.031886 0.124000 0.021541
0.042371 -0.034554 0.016484
-0.102247 0.018976 -0.018029
-0.042188 0.096347 -0.036012
-0.003994 0.051827 0.049605
-0.038288 0.050265 -0.018165
-0.097113 0.016721 -0.015965
-0.030680 -0.045582 0.008102
-0.120508 0.033395 -0.019824
-0.036344 0.042598 0.058625
0.035932 -0.005650 0.098548
-0.044499 0.015652 0.088095
-0.019959 0.050842 0.051354
-0.080801 0.021357 0.031113
0.046785 -0.004684 0.089696
-0.135708 0.106388 -0.012427
0.042685 -0.019918 0.076881
-0.066804 0.031867 0.046386
-0.090831 0.054442 -0.047899
-0.028462 0.090055 0.011353
0.029178 0.041828 0.063067
-0.075077 0.020214 0.031203
-0.024632 0.074306 0.003562
-0.052758 0.105198 -0.045776
-0.042766 0.072038 0.040864
-0.010550 0.041281 0.090830
-0.009828 0.002632 0.110192
-0.106062 0.124000 0.049705
-0.002972 -0.052207 0.045610
0.032789 0.037466 0.062776
-0.021676 0.040440 0.082949
-0.069905 0.028954 -0.037879
0.044627 0.028706 0.038737
0.049379 -0.024134 0.006710
-0.027499 0.055870 0.070854
-0.042112 0.076407 -0.032871
-0.111364 0.039433 0.035035
0.040624 0.019845 0.084917
-0.050124 -0.014343 0.063122
-0.065444 0.090307 -0.050777
0.041126 -0.018776 0.084918
-0.054063 0.062294 0.047222
-0.097360 0.015287 -0.009251
-0.086137 0.039434 -0.045248
-0.085460 0.047428 0.047130
-0.045167 0.111605 0.040166
0.022109 0.044731 0.062091
-0.041375 0.090558 0.035594
-0.063421 0.011782 0.036852
-0.006714 0.048566 0.067047
-0.059132 0.030037 0.053046
0.028363 -0.045431 0.033536
0.025806 -0.029790 0.095400
-0.030026 0.091027 -0.015807
-0.114508 0.024634 0.015881
-0.058936 0.124000 0.049704
-0.099499 0.097202 -0.051369
-0.049982 0.055685 -0.036451
0.030033 0.046082 0.000500
-0.050490 -0.020805 0.029343
-0.056792 0.035608 -0.035681
-0.038216 0.042862 -0.000267
-0.024523 -0.043821 0.063108
-0.036738 0.117751 -0.030461
-0.050293 -0.019143 0.043614
0.048169 0.026582 0.000501
-0.069046 0.043108 0.047061
-0.059442 0.003904 -0.011135
0.002014 -0.027749 0.104217
0.036029 0.007034 0.100932
0.035826 0.010131 0.097742
-0.022795 0.062667 0.031272
-0.060650 0.024750 0.053905
-0.080616 0.034724 0.043575
-0.002199 0.054588 0.019909
-0.068592 0.106232 0.052834
-0.014871 0.059237 -0.008387
-0.026081 0.079242 0.006210
-0.036841 0.097477 0.029658
-0.108626 0.018671 0.000290
0.044335 0.030347 0.031574
-0.124018 0.031442 0.004011
-0.038752 0.117238 -0.033287
-0.111478 0.025010 -0.021618
-0.076931 0.012447 0.000500
-0.043119 0.013445 0.090592
-0.120679 0.029956 0.014054
-0.009830 -0.005632 0.109981
0.015118 -0.049253 0.051491
-0.025953 0.064674 0.032260
-0.062448 0.050879 -0.043526
-0.068543 0.039037 -0.043069
0.049507 -0.002676 0.063937
-0.030188 0.102780 -0.015149
-0.038043 -0.014410 0.093837
-0.038994 0.030544 0.080394
0.033289 0.027644 0.089612
-0.054914 -0.006474 0.070368
-0.017122 0.028130 0.101215
-0.110879 0.052167 0.038930
-0.127757 0.073460 0.024970
-0.046413 0.017755 0.084426
0.050537 0.021652 0.005754
0.011855 0.049809 0.062494
0.020712 -0.050175 0.024071
-0.093142 0.037396 0.043423
-0.004077 0.037271 0.097495
-0.069073 0.031898 0.045134
-0.125144 0.035465 -0.010451
0.017177 0.049409 0.045387
-0.048133 0.038239 0.072689
-0.125461 0.058423 -0.024267
-0.058844 0.072206 -0.045762
-0.017939 0.061263 0.021064
-0.087134 0.073402 0.051470
-0.042229 0.038884 -0.020582
-0.058654 0.076998 0.047505
0.006513 0.032723 0.100916
-0.128403 0.062476 -0.019924
0.030627 -0.020153 0.100937
-0.000848 0.054982 0.005651
0.005952 0.035806 0.098614
-0.036892 0.027567 0.093775
-0.048408 -0.025850 0.011393
0.043461 -0.029409 0.064758
0.044347 0.022172 0.063941
-0.130509 0.073320 0.019092
-0.049793 0.070619 0.044647
0.031318 -0.009409 0.101375
-0.064070 0.039166 0.047797
-0.013974 0.058709 0.000500
-0.007890 -0.025183 0.104960
-0.064454 0.017374 0.045966
-0.080745 0.038135 -0.044948
-0.033363 0.045494 0.055884
0.045688 0.014100 0.073412
-0.099618 0.117950 -0.052249
-0.056615 0.049976 0.048950
-0.083116 0.114129 0.054903
0.022579 -0.038338 0.086903
-0.035427 0.044567 0.000500
-0.023459 0.010955 0.105187
-0.035147 0.041815 0.060899
-0.026460 0.022961 0.099797
-0.029617 0.060920 0.070519
-0.042406 -0.003286 0.092628
-0.062376 0.034221 0.065266
-0.020086 -0.037392 0.091107
-0.033318 0.083715 0.026253
-0.104648 0.057043 -0.043806
-0.037648 0.124000 0.031845
0.030735 0.011869 0.101207
-0.115645 0.039456 -0.031027
-0.036793 0.124000 0.003175
0.007439 0.052135 0.042395
0.040313 0.016548 0.088981
-0.073157 0.032636 -0.041399
-0.004699 -0.047377 0.074450
-0.029883 0.064558 0.036954
-0.103485 0.052010 -0.043335
-0.027252 0.049356 0.052491
-0.116713 0.031441 -0.023859
-0.057128 0.034681 0.053483
-0.093274 0.095547 -0.052908
-0.092713 0.033394 -0.041639
-0.061524 0.067262 0.048408
-0.004972 -0.042101 0.091187
-0.024109 0.062496 0.064914
-0.075577 0.037584 0.045096
0.021149 -0.016499 0.104731
-0.031107 0.093299 -0.015985
-0.093682 0.069753 0.049932
-0.066614 0.077944 0.049964
-0.024751 0.055370 0.045587
-0.040408 -0.012943 0.091489
-0.034746 0.051438 0.049747
0.014508 0.050122 0.046526
-0.028484 0.089596 0.000500
-0.042251 0.062682 0.044749
-0.115065 0.041683 0.032461
-0.099449 0.026040 -0.033197
-0.058369 0.040764 -0.038876
-0.055360 0.054299 0.048567
-0.061141 0.107119 -0.050330
-0.134049 0.088032 0.013777
-0.125438 0.059166 0.024568
-0.054905 0.024960 -0.023269
-0.080304 0.099469 -0.054216
-0.015269 0.029340 0.101113
-0.062922 0.063554 -0.046235
0.039299 -0.038436 0.006193
-0.085108 0.033400 0.042802
0.018028 0.045418 0.083244
-0.120185 0.033395 0.020443
-0.060884 0.015420 0.070656
0.045307 -0.030606 0.016486
0.015563 -0.045651 0.071305
-0.096673 0.028214 -0.036663
-0.029732 -0.037371 0.087685
-0.029824 0.085695 0.017981
0.031328 -0.034692 0.078568
-0.019265 0.063897 -0.008844
-0.039400 0.044225 0.057877
0.043509 0.033306 0.013477
-0.048028 0.017936 0.081972
-0.064019 0.011531 0.028721
-0.072317 0.026838 0.041106
-0.022917 -0.034401 0.092859
-0.039121 0.045896 -0.018397
-0.054850 0.044004 0.049908
-0.052594 0.035179 0.065936
-0.072384 0.107047 -0.053727
-0.073730 0.101085 0.053650
-0.074073 0.034060 0.044053
-0.123088 0.037396 -0.018747
-0.065242 0.020033 0.045848
0.024517 -0.009936 0.104927
-0.009203 0.049319 0.060805
-0.049379 0.046680 -0.033435
-0.104005 0.051835 0.043035
-0.083187 0.088376 -0.053386
-0.070339 0.011242 -0.003518
-0.057148 0.027343 -0.029013
-0.128033 0.091864 0.028478
-0.064070 0.039166 0.047797
-0.059438 0.004889 0.063628
-0.041503 0.047468 0.051533
-0.025234 0.065704 0.029116
-0.044358 -0.031093 0.025693
-0.060766 0.020138 -0.019155
-0.042676 -0.034725 0.000500
-0.065298 0.010671 -0.014460
0.015773 0.051363 0.031613
-0.034209 0.088490 0.026452
0.036030 0.017611 0.094552
-0.047927 0.041001 0.056644
0.005863 0.039406 0.094901
-0.132759 0.065931 -0.005813
-0.012886 0.056976 -0.006536
-0.049211 0.116188 0.043720
-0.017248 0.059981 -0.013836
-0.025234 0.065704 0.029116
-0.028498 0.101658 -0.006575
-0.034740 0.045524 0.055258
-0.121200 0.028215 -0.006886
-0.030076 0.045794 0.060860
-0.122947 0.058858 -0.028392
-0.030014 0.001147 0.103001
-0.088499 0.031446 -0.041271
-0.125280 0.045138 0.018806
0.033436 0.004340 0.100960
-0.034490 0.124000 0.026847
-0.030117 0.100447 0.015679
-0.052240 0.110027 -0.045675
-0.008136 0.055679 0.070702
-0.077078 0.022631 0.034070
-0.073733 0.028843 -0.038855
0.031485 0.035565 0.074973
-0.103653 0.016860 0.006044
-0.005746 -0.039696 0.094558
-0.038117 -0.036235 0.065082
-0.010142 -0.048879 0.063205
-0.108699 0.124000 0.048367
-0.086738 0.060638 0.049551
-0.039490 0.049410 0.070919
-0.025941 -0.045737 0.064889
-0.134413 0.109853 0.017494
-0.057415 0.056257 0.048361
-0.039122 -0.026901 0.075064
-0.118351 0.024909 -0.003642
-0.130509 0.073320 0.019092
-0.034490 0.124000 -0.026847
0.000844 -0.047851 0.073200
-0.030995 0.112424 -0.018896
-0.059556 0.002768 -0.003410
-0.029929 0.079473 0.021705
-0.051337 0.002977 0.080658
0.044522 0.023066 0.063027
-0.112879 0.027008 0.023214
-0.053055 0.030605 -0.028735
-0.117095 0.073405 0.038389
-0.135916 0.124000 -0.013133
0.007904 0.043798 0.086884
-0.058734 0.018169 -0.007930
0.003945 -0.013562 0.109371
-0.061152 0.076014 -0.047439
-0.071058 0.059426 -0.048176
-0.053664 0.020371 -0.005667
0.038237 0.018681 0.090919
-0.117758 0.057023 -0.034161
0.027946 -0.002353 0.104110
-0.006824 0.025969 0.104719
-0.061169 0.008581 0.048735
0.014757 -0.045425 0.087627
-0.047779 0.102878 0.041969
-0.090015 0.033394 0.042209
0.032406 0.012041 0.100048
0.029079 0.035358 0.082898
-0.044390 0.071019 0.042129
-0.073173 0.063427 -0.049324
0.047560 -0.014923 0.062406
-0.029824 0.085695 0.017981
0.009290 0.049480 0.062154
-0.015881 0.056156 -0.016804
0.024755 -0.016977 0.103020
0.003889 0.054364 0.020213
-0.041325 0.102153 0.035582
-0.026620 0.009386 0.104017
-0.063716 0.017493 0.064856
-0.059792 0.003026 0.070800
-0.022653 -0.033090 0.094556
-0.049064 0.057963 0.047480
-0.094700 0.033395 -0.041095
-0.098777 0.022526 -0.028617
-0.038885 -0.033678 0.052102
-0.036362 0.069509 0.037927
-0.017122 0.055109 -0.018382
-0.027660 0.086147 0.009340
-0.001176 0.048885 0.067747
0.046902 0.003917 0.077087
-0.101487 0.076925 0.048555
-0.091800 0.041124 0.044886
-0.034993 0.076441 0.032070
-0.068149 0.029813 0.045212
-0.029960 -0.045782 0.015566
-0.060734 0.027368 0.053490
0.028393 0.022720 0.098545
-0.105426 0.057037 0.043407
-0.073416 0.017932 0.027644
-0.029526 -0.014355 0.101286
0.033168 -0.022560 0.094554
-0.084438 0.020667 0.029845
-0.048614 0.087166 -0.041112
-0.058333 0.005983 -0.018293
-0.135080 0.111909 0.015589
-0.126218 0.039434 0.012219
-0.060394 0.004014 -0.003137
-0.100029 0.015702 0.006828
0.007659 0.008666 0.109948
0.021043 0.049078 0.035268
-0.009637 -0.053476 0.023085
-0.033314 0.090978 0.024400
-0.038216 0.042862 -0.000267
0.013645 -0.034000 0.100932
-0.081125 0.022965 0.033605
-0.099618 0.117950 -0.052249
-0.061400 0.028933 -0.033854
-0.030013 0.029290 0.097121
-0.027799 0.053084 0.072328
-0.019313 -0.038908 0.089288
-0.052240 0.110027 -0.045675
-0.019050 0.039410 0.088575
0.013504 0.041922 0.087989
-0.096557 0.066408 0.048675
-0.026240 0.031998 0.093159
0.051428 0.003267 0.051401
-0.035470 0.096206 0.027600
0.036400 -0.031074 0.073216
-0.073416 0.017932 0.027644
-0.029883 0.064558 0.036954
0.037434 -0.036849 0.064814
0.008533 -0.039939 0.093575
-0.057511 0.003977 -0.009411
-0.096107 0.039433 0.043306
-0.076490 0.027342 -0.038061
0.044627 0.028706 0.038737
-0.016190 0.047707 0.061809
-0.047775 0.053353 0.065916
-0.046005 -0.028925 0.023404
-0.028426 0.103871 0.008357
-0.058933 0.004714 -0.014852
-0.021203 -0.038927 0.087334
-0.039293 0.067872 0.040900
-0.050089 0.045911 0.066785
-0.113004 0.023348 -0.015240
-0.070989 0.111408 -0.053605
-0.000768 -0.009779 0.110252
0.008317 -0.054193 0.012431
0.011603 0.041490 0.089958
-0.056177 0.096347 -0.047215
0.012550 0.053526 0.005845
-0.102994 0.037243 -0.039677
-0.106216 0.047278 0.040799
-0.036209 0.047244 0.052866
-0.040444 0.083507 0.035583
0.021681 -0.045922 0.056555
0.049532 0.023945 0.000501
0.040516 0.035738 0.027813
-0.060394 0.004014 -0.003137
-0.122667 0.031445 -0.011218
-0.017784 0.060419 0.064993
-0.106587 0.062795 -0.043917
-0.027736 0.048164 0.054045
-0.057328 0.028920 0.070779
-0.023603 0.068746 0.016267
-0.070974 0.013286 0.000500
-0.094700 0.033395 -0.041095
0.043447 -0.026754 0.054950
-0.072823 0.013483 -0.000871
-0.024249 -0.022079 0.101304
0.048824 -0.006816 0.065574
-0.028095 -0.022384 0.098948
-0.111912 0.095423 -0.045271
-0.031322 0.055264 0.046937
-0.110616 0.019726 -0.002018
0.049515 0.006276 0.062032
-0.032821 0.124000 0.003474
-0.057577 0.006416 0.072303
-0.040305 0.051895 0.070619
0.040852 0.020683 0.082852
-0.033608 -0.043544 0.000500
-0.040639 0.111407 -0.035411
-0.116907 0.095788 -0.041637
-0.046991 0.047591 0.067017
-0.086498 0.069925 -0.051034
0.037257 0.033614 0.063027
-0.048601 0.039371 0.054877
-0.116235 0.029964 -0.022735
-0.049227 0.093931 0.042465
-0.060139 0.027634 0.053162
-0.068138 0.015263 -0.009797
0.015902 0.037835 0.093312
0.010370 -0.051671 0.042073
-0.070830 0.102584 0.053181
-0.060975 0.006319 0.032232
-0.040333 0.046911 0.053480
-0.028119 -0.037061 0.090912
-0.056824 0.040991 0.070476
-0.060956 0.035950 -0.038500
-0.037324 0.088233 0.031132
-0.111784 0.057036 -0.039399
-0.101736 0.019548 0.020167
-0.039995 -0.010659 0.093185
0.018230 0.047488 0.063535
-0.046467 0.087291 -0.039255
-0.049487 0.081226 0.042954
-0.079613 0.047401 -0.047124
-0.090113 0.029215 -0.039405
-0.045883 -0.017039 0.073638
-0.092146 0.015661 0.015964
-0.056561 0.010720 -0.009762
-0.049186 0.033630 0.063951
-0.120640 0.031443 0.016890
-0.019585 0.063465 0.014892
-0.076976 0.018318 0.026323
-0.077143 0.099430 0.053997
-0.025096 0.076314 -0.005561
-0.135832 0.116806 0.013269
0.025860 0.032320 0.092780
-0.073076 0.052313 0.048408
-0.075489 0.012277 0.000500
0.041133 0.016885 0.086977
0.014508 0.050122 0.046526
-0.116133 0.023626 -0.007517
-0.034071 0.058464 -0.009491
-0.102272 0.084369 0.049165
-0.041463 0.028007 0.080852
-0.119666 0.077253 0.036624
-0.110574 0.081069 -0.044519
0.007439 0.052135 0.042395
-0.055004 0.016679 -0.007303
-0.106984 0.023332 -0.023690
0.008973 -0.049108 0.061963
-0.037802 0.077388 0.034732
-0.069248 0.045995 0.047476
0.032769 -0.031075 0.093912
0.009192 0.035545 0.098242
0.040296 0.037172 0.012622
0.050810 0.013588 0.064856
-0.090113 0.029215 -0.039405
-0.013830 0.056666 0.035812
-0.099463 0.070721 0.048427
0.018961 -0.041679 0.082852
-0.079346 0.031281 0.041728
-0.038773 0.042358 -0.018230
-0.119772 0.080707 -0.037101
-0.067998 0.101084 0.052392
-0.073459 0.015379 -0.016028
-0.115450 0.077057 0.040422
0.009898 0.044110 0.084916
-0.015588 0.043379 0.081495
-0.108875 0.029956 -0.030977
-0.068012 0.016068 0.065016
-0.129940 0.058853 0.013836
0.037822 -0.025750 0.083045
-0.071724 0.019386 0.032736
-0.135169 0.117545 0.015738
-0.062390 0.102609 0.050601
0.024483 0.028679 0.097280
-0.003518 0.034269 0.100125
0.034843 -0.036944 0.056555
-0.032371 0.119269 -0.022601
-0.065136 0.093301 0.050938
0.033623 -0.037192 0.063028
-0.113378 0.024674 -0.018076
0.040624 0.019845 0.084917
-0.097974 0.016143 -0.012771
-0.018883 0.040250 0.087002
0.030664 0.020055 0.100934
-0.038164 0.007192 0.096772
0.029116 -0.038449 0.071299
-0.045702 0.046534 0.070813
0.022688 -0.042108 0.073335
-0.053538 -0.012195 0.049775
-0.114644 0.046466 0.034307
-0.023582 0.060942 0.070469
0.008383 -0.034620 0.099204
0.016181 -0.036699 0.094550
-0.070144 0.117220 -0.053563
-0.087056 0.029964 -0.040425
-0.093614 0.020630 -0.027686
-0.040322 -0.033310 0.045432
-0.098771 0.031446 -0.038400
-0.062573 0.030308 -0.035767
-0.090831 0.054442 -0.047899
-0.030714 -0.015250 0.100250
0.049670 0.016028 0.046391
-0.010827 -0.053947 0.000500
0.027156 -0.047800 0.005867
-0.132040 0.119264 -0.023863
-0.034648 0.053614 -0.007646
-0.029050 0.085862 -0.015167
-0.032500 -0.033473 0.090533
-0.037961 0.094459 0.031326
-0.063144 0.112826 -0.051347
-0.103295 0.077186 0.047844
0.030424 0.000000 0.102773
-0.018401 0.046196 0.065511
0.031992 -0.007154 0.101312
-0.078820 0.033367 0.042997
-0.033059 0.036488 0.090804
-0.049943 0.016945 0.079701
-0.039482 0.025978 0.086290
-0.009776 0.028398 0.103013
0.022662 -0.033319 0.094315
0.024795 -0.003119 0.105620
0.013506 -0.001064 0.109516
-0.051208 -0.008074 0.072486
-0.027397 0.089099 0.004595
-0.058714 0.044628 0.048894
-0.066044 0.015899 0.037321
-0.059303 0.119263 -0.049856
-0.081442 0.019428 -0.027617
-0.028794 0.094675 -0.004916
-0.107958 0.029195 0.031000
-0.063746 0.009349 0.070662
-0.017867 0.061762 0.013172
-0.074008 0.015257 0.019675
-0.090487 0.073101 0.051017
-0.041280 0.009643 0.093536
-0.067817 0.094674 -0.051895
0.022808 0.049238 0.024265
-0.024003 0.016493 0.103526
-0.003927 0.036500 0.100929
0.008609 0.052047 0.069941
-0.020011 0.056813 0.041408
-0.055174 0.023277 -0.020213
-0.034754 0.055177 0.070772
0.041717 -0.028455 0.058398
-0.061470 0.063777 0.048380
0.048409 -0.020481 0.064824
-0.089193 0.013074 0.001134
-0.114682 0.031447 0.026526
-0.126515 0.037396 -0.007839
-0.051205 0.063627 0.046486
-0.025941 -0.045737 0.064889
-0.030801 0.085785 -0.012308
-0.041941 0.078651 0.038067
0.009192 0.035545 0.098242
-0.046432 -0.016136 0.084247
-0.069052 0.020134 0.038127
0.036699 -0.016194 0.094554
-0.107967 0.025253 -0.026046
-0.022142 0.064008 -0.018360
-0.036799 0.124000 -0.003172
-0.044000 0.044979 0.052567
0.001114 -0.050931 0.074166
-0.058482 0.003281 0.059308
-0.053646 0.079221 0.045345
0.022808 0.049238 0.024265
0.042394 -0.020996 0.089010
-0.127310 0.088204 -0.029000
-0.118578 0.040098 0.027882
0.039246 0.022435 0.084916
0.013941 -0.050673 0.064826
-0.105992 0.029227 -0.032545
-0.047053 -0.007498 0.083779
-0.009102 -0.053946 0.015565
-0.039379 0.024649 0.087806
-0.034209 0.088490 0.026452
0.016129 -0.042444 0.093468
-0.127169 0.102899 -0.031170
-0.090855 0.026827 -0.037131
-0.035105 0.025787 0.091456
-0.086224 0.015231 0.016876
-0.112030 0.022448 -0.014280
-0.025968 0.007232 0.104666
-0.019348 -0.050220 0.030552
-0.077323 0.015326 0.018325
-0.038216 0.042862 -0.000267
-0.020587 0.047517 0.087379
-0.046446 0.035755 0.063938
0.037666 0.026039 0.082885
-0.032866 0.022084 0.096093
-0.104114 0.023773 -0.027078
-0.094346 0.015071 -0.011868
-0.072155 0.056849 0.048972
-0.029212 0.116920 0.013448
0.049893 -0.009190 0.075279
0.019747 0.015961 0.105424
-0.028484 0.089596 0.000500
-0.105812 0.031446 -0.034581
-0.044580 0.053924 -0.030259
-0.055942 0.036596 0.052209
-0.106827 0.062138 0.043657
-0.125830 0.087860 -0.031111
-0.123936 0.041077 0.019594
-0.059967 0.087692 0.048348
0.041820 0.017166 0.084916
-0.037686 0.059672 0.065114
-0.118970 0.052456 0.031563
-0.013496 0.054737 0.072812
0.031245 -0.037145 0.085116
-0.106689 0.023394 0.024113
-0.054512 0.034893 0.054260
0.024646 -0.026085 0.098977
0.045364 -0.000074 0.084435
-0.100475 0.033394 0.038922
-0.127169 0.102899 -0.031170
-0.105577 0.069751 0.045672
-0.047011 0.094913 0.040751
-0.110271 0.051980 -0.039325
-0.042289 0.094224 0.036386
0.005186 0.044160 0.086977
-0.027799 0.053084 0.072328
-0.115058 0.025236 -0.016303
0.004311 0.050314 0.058399
-0.049920 0.041094 -0.032236
-0.105039 0.017077 -0.000358
-0.033785 0.056558 0.046350
-0.026061 0.061448 0.037662
0.042082 0.022471 0.087847
-0.055865 0.028759 -0.029514
0.054067 -0.009962 0.005686
0.022999 0.047054 0.044868
-0.049645 -0.023693 0.000501
0.008173 -0.028579 0.103182
-0.073076 0.052313 0.048408
-0.058260 0.013522 0.064813
-0.077780 0.046795 -0.046852
-0.007038 0.008295 0.110063
-0.030867 0.089955 0.019315
0.034843 -0.036944 0.056555
-0.031337 0.069744 -0.000147
0.013854 -0.053231 0.000500
-0.136707 0.099038 0.001957
0.053443 0.011608 0.016187
0.013501 -0.019393 0.106219
-0.062300 0.006377 0.000500
0.021850 -0.047863 0.064912
0.051264 -0.018253 0.021686
-0.050682 0.078136 -0.041488
-0.052281 0.084340 0.044404
-0.131914 0.073400 -0.015122
0.002870 0.003478 0.110903
-0.121097 0.037397 0.022564
-0.076925 0.070308 0.050941
-0.109986 0.025776 -0.024756
-0.046569 0.015502 0.085512
-0.063321 0.016927 0.054026
0.005952 0.035806 0.098614
-0.070974 0.013286 0.000500
-0.032050 0.031830 0.087702
0.012575 -0.010742 0.108736
-0.028000 0.121972 0.000000
-0.073049 0.087094 -0.052424
-0.049160 0.039243 0.071340
-0.010630 0.046179 0.075521
-0.029129 0.057575 0.065721
-0.036799 0.124000 -0.003172
0.027738 -0.009409 0.103438
-0.040228 0.040956 -0.018182
0.037932 -0.000991 0.097026
0.033937 -0.042017 0.027978
0.008899 -0.052970 0.031744
-0.016423 0.033275 0.097861
-0.040017 -0.037743 0.000500
-0.036738 0.117751 -0.030461
-0.067471 0.047132 -0.044704
0.021913 0.046009 0.055404
-0.011711 0.051188 0.051595
-0.049602 0.004677 0.083852
-0.083423 0.095407 -0.053982
0.002244 0.049846 0.062090
-0.023532 0.071280 0.000500
-0.032901 0.027780 0.091729
-0.012810 0.025536 0.103824
-0.107256 0.109349 0.048852
0.031071 0.039073 0.063183
0.035798 -0.026438 0.086896
-0.061316 0.017028 0.055429
-0.115313 0.106262 0.043686
0.050118 -0.002172 0.063026
-0.037180 -0.033623 0.063098
-0.086752 0.058726 -0.049209
-0.054957 0.027880 0.071838
-0.124621 0.051832 0.023244
-0.030775 0.016076 0.100099
-0.130834 0.065946 -0.014939
-0.056367 -0.004973 0.054454
-0.127590 0.077054 -0.026208
0.022007 -0.040107 0.083070
-0.051854 0.023478 0.000500
0.018645 -0.031557 0.100941
-0.119912 0.110009 -0.040024
-0.071572 0.028288 0.042435
0.031318 -0.009409 0.101375
-0.075248 0.022429 -0.031977
-0.014291 -0.019934 0.105819
0.035486 0.021408 0.092716
-0.002334 -0.044790 0.085970
-0.028064 0.094794 0.007252
0.034960 0.038759 0.046375
-0.034126 -0.018647 0.096010
-0.022944 -0.012909 0.104977
-0.022375 0.053058 -0.018361
-0.055630 0.027405 0.059465
-0.035171 0.052659 0.066884
-0.061566 0.021377 0.070805
-0.063728 0.020250 0.065078
-0.028221 0.092530 0.009142
-0.041480 -0.018441 0.084760
0.049509 -0.023646 0.011289
-0.036571 0.060224 -0.018872
-0.062503 0.018553 0.056143
-0.065936 0.071479 0.049442
-0.090674 0.013988 -0.009397
-0.135848 0.102536 0.010871
-0.058337 0.041635 0.049391
-0.046668 0.097896 0.040618
0.011144 -0.039572 0.093200
0.012685 0.043222 0.085440
0.002275 -0.047744 0.087457
-0.083226 0.022607 -0.033024
0.049198 0.009809 0.063022
-0.050879 0.031560 0.061137
-0.028747 0.014199 0.101834
-0.012782 -0.038307 0.094207
-0.071141 0.026835 0.041921
0.005005 -0.044765 0.085438
-0.019348 -0.050220 0.030552
-0.076709 0.012465 -0.000939
-0.070554 0.015804 0.024956
0.040916 -0.032953 0.064792
-0.048010 0.079610 -0.039538
-0.058215 0.000631 0.055757
0.015816 -0.009561 0.108147
-0.110008 0.046349 -0.038102
-0.057021 0.028828 0.056304
-0.062420 0.007060 0.009083
-0.008327 -0.002639 0.110421
-0.087579 0.066292 0.050389
-0.007580 0.055630 0.017868
-0.088181 0.082534 0.052488
-0.001636 -0.037717 0.097230
-0.005602 -0.045414 0.082991
-0.023366 0.064485 0.027883
-0.007318 0.053629 0.042445
-0.054164 0.040837 -0.035956
-0.035090 0.056937 -0.012666
-0.051149 0.072704 0.044850
-0.071911 0.013805 -0.016043
-0.062645 0.006774 0.003577
-0.050416 -0.021599 0.020109
0.015816 -0.009561 0.108147
0.042409 0.031111 0.064866
-0.056703 0.068967 0.047165
-0.057283 0.113045 -0.048744
-0.129940 0.058853 0.013836
-0.133945 0.073400 -0.004872
-0.042463 0.018421 0.089023
-0.082181 0.080898 -0.052610
-0.097106 0.110067 0.052804
-0.080134 0.063507 -0.050145
-0.089194 0.017190 -0.021818
0.045149 0.017663 0.085337
-0.073722 0.026964 0.040339
-0.112495 0.106525 0.045676
-0.012669 0.056627 -0.003447
-0.106187 0.017910 0.006287
-0.127190 0.039432 -0.007959
-0.040160 0.014993 0.096209
-0.022625 0.054175 0.046713
-0.055356 0.011506 0.072434
-0.031224 0.119266 -0.019863
-0.129240 0.084499 -0.025004
-0.100862 0.022761 0.027749
-0.076593 0.033636 0.043398
-0.048169 0.062698 -0.036448
-0.125306 0.033293 -0.001238
0.022469 -0.047239 0.045398
-0.026812 -0.030676 0.093703
0.034538 0.024119 0.091637
0.049892 -0.000900 0.062097
0.054042 -0.010249 0.000500
-0.051683 -0.018949 0.021572
-0.002888 -0.054936 0.000500
-0.051259 0.039267 -0.032869
-0.086545 0.028114 0.039017
-0.093614 0.020630 -0.027686
-0.002372 -0.051345 0.052343
0.038939 -0.003045 0.095822
-0.126743 0.037396 0.006431
-0.098777 0.022526 -0.028617
-0.056824 0.040991 0.070476
-0.133653 0.088210 -0.015242
-0.044669 0.030255 0.071999
-0.000768 0.026934 0.104671
0.052630 -0.015988 0.000500
0.011209 0.044386 0.082898
-0.077629 0.087117 0.053044
-0.064852 0.013568 0.034534
-0.096931 0.035019 0.041255
-0.031138 0.099466 -0.017509
-0.049430 0.018953 0.079045
-0.064876 0.025296 0.047715
-0.040017 -0.037743 0.000500
0.039195 0.013486 0.092694
-0.031880 -0.035359 0.074421
-0.070347 0.058797 0.049114
-0.053665 -0.014222 0.018876
0.008174 -0.021749 0.106380
-0.017343 0.052663 0.048388
0.028393 0.022720 0.098545
-0.071050 0.014455 -0.018344
-0.024410 0.031360 0.095141
0.053554 0.004107 0.031750
-0.067830 0.020012 0.065548
-0.021149 -0.044265 0.066977
-0.059239 0.006231 0.059052
-0.055131 -0.010953 0.033846
-0.063416 0.024522 -0.030031
-0.068467 0.020398 0.039551
-0.070974 0.013286 0.000500
-0.064431 0.010369 0.018051
-0.122380 0.046255 -0.024824
-0.057718 0.028477 0.065334
0.027069 0.036924 0.082876
-0.076961 0.094705 -0.053648
-0.054488 0.030578 -0.030109
-0.061416 0.012008 0.054504
-0.052864 0.015383 0.075711
0.008948 -0.041244 0.091527
-0.075085 0.017422 0.025151
-0.075574 0.077937 0.051797
-0.132549 0.100875 -0.021189
-0.025076 0.062158 0.035525
-0.107097 0.087722 0.047320
-0.020683 -0.034645 0.094250
-0.065421 0.048926 0.048233
-0.056720 0.009014 -0.018201
-0.031883 0.061191 0.041934
-0.082083 0.026435 -0.037674
-0.074237 0.102454 -0.053811
0.048084 0.024857 0.026341
0.027488 0.030100 0.093674
-0.042748 0.069060 0.042073
0.030735 0.011869 0.101207
-0.060546 0.031734 0.050965
-0.124764 0.117003 0.035138
-0.070021 0.019378 -0.024559
-0.032426 0.077883 0.027603
-0.010534 -0.037438 0.096015
-0.076038 0.030606 -0.040636
-0.068283 0.033662 0.045848
0.042295 -0.031435 0.042069
0.050070 -0.014510 0.046908
-0.133241 0.113746 0.020957
-0.124481 0.032990 -0.007475
0.023384 0.047648 0.038563
-0.111106 0.019971 0.002016
-0.031024 0.012632 0.100906
-0.064407 0.124000 -0.051946
-0.001920 -0.054292 0.023352
0.050653 0.003655 0.056561
0.010039 -0.044542 0.083398
-0.112958 0.021170 -0.004239
-0.054026 0.007082 0.075801
-0.060394 0.004014 -0.003137
-0.021283 0.048070 0.056769
-0.021478 0.016422 0.104624
-0.036790 0.046697 0.056137
-0.024309 0.062792 0.033327
-0.019915 0.023237 0.102678
-0.072865 0.035127 -0.042687
0.036999 -0.040702 0.000500
-0.069080 0.014576 -0.006513
-0.052401 0.050586 0.049179
0.036699 -0.016194 0.094554
-0.019548 0.046815 0.061883
-0.046480 0.055604 0.047989
0.053046 0.008423 0.031747
-0.034397 0.087127 -0.022884
0.024120 0.043763 0.063083
-0.085592 0.065946 0.050496
-0.062645 0.006774 0.003577
0.034751 0.013212 0.097802
-0.092050 0.024040 0.033677
-0.042275 0.056555 0.047375
-0.035964 0.081071 -0.024586
-0.037623 -0.008636 0.096518
-0.119516 0.033394 -0.021630
-0.000003 0.001101 0.111058
0.029822 -0.043372 0.065078
-0.037768 0.111408 -0.031707
-0.070595 0.053868 -0.047018
-0.103973 0.095499 -0.049536
0.032131 -0.027841 0.090991
-0.044379 0.039685 0.057260
-0.019050 0.039410 0.088575
-0.053911 0.047110 0.065538
-0.040235 0.084025 -0.031900
-0.054349 0.031240 0.071254
-0.049982 0.055685 -0.036451
-0.033624 0.043775 0.058435
-0.054004 0.017691 0.072018
-0.058978 0.019222 -0.013709
-0.044960 -0.015205 0.080074
-0.030088 -0.043174 0.065061
0.033590 -0.019206 0.096226
-0.136302 0.095367 0.004378
-0.028127 0.044375 0.061254
0.012876 0.038935 0.093341
0.030671 0.030271 0.089964
-0.069201 0.013615 0.019116
-0.058260 0.050406 -0.041231
-0.042058 0.043564 0.054428
0.012876 0.038935 0.093341
0.025639 0.019038 0.101860
-0.069380 0.063069 -0.048387
0.002870 0.003478 0.110903
-0.105067 0.020959 0.020366
-0.109503 0.066117 -0.042814
-0.084648 0.041129 0.045795
-0.122462 0.037395 0.020045
0.032932 0.033702 0.076799
-0.031349 -0.021054 0.097223
-0.108633 0.020844 -0.015165
-0.016653 0.049079 0.056399
-0.070053 0.014078 -0.003128
-0.037768 0.111408 -0.031707
-0.065412 0.028364 0.065579
0.041752 0.008239 0.090919
-0.045374 0.043485 0.053170
-0.109406 0.041144 -0.037125
-0.033872 0.064699 0.039904
-0.037865 0.055226 -0.019616
-0.084047 0.013092 -0.006833
0.046511 -0.028747 0.016485
-0.048776 0.031067 0.064547
-0.064454 0.017374 0.045966
-0.061831 0.009494 -0.018281
-0.065553 0.043003 0.047576
-0.059605 0.003233 0.018178
-0.089340 0.106509 0.054213
0.027018 -0.042250 0.063032
-0.126533 0.050948 0.018946
0.002239 0.007201 0.110585
0.043095 0.034182 0.000500
-0.067630 0.016698 0.034207
0.030469 0.021293 0.097800
-0.066183 0.024806 0.065074
-0.040395 0.041433 0.065220
-0.081799 0.109577 0.054763
0.022007 -0.040107 0.083070
0.022758 0.048699 0.031235
-0.087755 0.020687 0.029469
0.041343 -0.031499 0.048063
-0.046537 -0.024041 0.048326
-0.006714 0.048566 0.067047
-0.132523 0.062480 0.001131
0.018556 -0.049693 0.038928
-0.030367 0.090649 -0.016912
-0.133116 0.066116 -0.000452
0.001369 -0.049230 0.065864
-0.135662 0.088350 -0.004917
0.050524 -0.010046 0.051541
-0.026240 0.031998 0.093159
0.045754 -0.013007 0.088165
-0.006934 0.053098 0.044982
-0.009362 -0.044201 0.085003
-0.083123 0.017054 -0.022459
-0.046572 0.053561 -0.032506
-0.089792 0.013173 -0.002352
-0.028735 0.073777 0.024095
-0.048841 0.040825 -0.031025
0.017263 0.047139 0.060251
0.044357 0.008751 0.084917
0.039375 0.026618 0.088364
-0.037270 0.041591 0.082463
0.032088 0.039646 0.063065
-0.027518 0.035456 0.087030
-0.060842 0.029508 0.054220
-0.057235 0.090400 -0.047249
-0.046852 0.035373 0.077903
-0.052270 -0.015751 0.043499
-0.109960 0.020562 0.011386
-0.023832 0.071819 0.005090
-0.047819 -0.020388 0.064193
-0.098993 0.028214 -0.035680
-0.023253 -0.044472 0.063087
-0.069270 0.016831 0.030475
-0.128135 0.041426 0.005098
-0.060438 0.005145 0.042011
-0.031482 0.074095 -0.008805
-0.041167 -0.021399 0.080715
-0.106587 0.062795 -0.043917
-0.021533 -0.009554 0.106243
-0.092764 0.088031 -0.052361
-0.075907 0.124000 0.054610
0.036194 0.025282 0.087738
-0.056876 0.077840 -0.045535
0.014838 0.044303 0.078646
-0.052380 -0.014963 0.064941
-0.074570 0.019064 0.029271
-0.037067 0.124000 0.002874
-0.007311 0.030585 0.102168
-0.027816 0.019156 0.100960
-0.028179 0.086423 0.011875
0.002408 -0.037046 0.097853
-0.110631 0.022557 -0.017183
0.020129 -0.024721 0.101891
-0.044499 0.015652 0.088095
-0.128267 0.045703 -0.010049
0.004635 0.052535 0.064388
-0.089101 0.046581 -0.046575
0.042328 0.030539 0.046381
-0.054507 0.029218 0.059196
-0.054538 0.069206 0.046492
0.009782 0.046208 0.076273
-0.098990 0.102534 -0.051887
-0.039770 0.006233 0.095498
-0.029754 -0.045467 0.023085
-0.137395 0.124000 -0.003637
-0.037046 0.124000 -0.002906
-0.030353 0.070897 0.030239
0.027811 -0.034742 0.086896
0.014818 -0.047662 0.063198
0.000266 0.041152 0.093143
-0.123605 0.051828 -0.025003
0.016269 -0.041165 0.087487
-0.077929 0.032866 -0.042336
-0.012067 0.048839 0.060768
0.011372 0.030624 0.101394
-0.021149 -0.044265 0.066977
-0.043753 0.079905 -0.035429
-0.015760 0.004043 0.108813
-0.065437 0.068597 -0.048061
0.031018 -0.033651 0.082954
-0.008272 0.056011 0.011028
-0.009344 -0.039001 0.094555
-0.014958 -0.025886 0.103097
0.023360 0.033406 0.093674
-0.033475 0.062272 0.041771
0.005131 -0.043739 0.087987
