0.025955 0.066323 -0.003165
0.001613 -0.001078 0.047395
0.063635 0.056523 0.018572
-0.065345 -0.027413 0.041590
0.043679 -0.044152 -0.046076
0.008852 0.048077 -0.025809
0.087872 0.013040 0.002940
-0.003571 -0.045946 -0.023286
-0.009919 0.021873 -0.020503
0.082890 0.019703 0.014802
0.030099 0.060858 0.024781
0.055778 0.060179 0.006591
0.008749 -0.014796 0.044476
-0.066087 -0.019852 0.044399
0.040610 0.063235 0.008417
0.069806 0.052364 0.017734
0.082040 0.042539 0.006588
0.029962 0.065330 0.002264
0.079519 0.049087 -0.006700
0.056424 -0.066432 0.033684
0.014078 0.062732 0.011386
0.062754 -0.049373 -0.042934
-0.008685 0.020773 0.031409
0.065275 0.053399 -0.034059
-0.005596 -0.053444 0.010668
0.013953 -0.066430 0.024081
-0.054751 0.003203 0.045584
0.041126 -0.066430 0.037618
0.087551 0.017338 -0.015077
0.004709 -0.055996 -0.021172
0.063378 0.059629 -0.017017
0.011652 -0.024366 -0.030603
0.007970 0.056488 0.012742
0.055391 0.058031 0.022822
-0.084633 0.006772 -0.020932
0.075821 -0.044143 -0.032738
0.009135 -0.045900 -0.025753
0.008350 -0.014679 -0.025873
0.021650 0.058950 0.023611
0.057892 0.060657 0.011519
0.060391 -0.064611 -0.047671
0.031716 0.062451 0.020937
0.086825 -0.031824 0.002036
-0.001649 -0.054725 -0.020932
-0.086946 -0.029142 0.022453
0.020294 -0.038029 0.033710
0.041144 0.062492 -0.005264
0.020392 0.062131 -0.029608
0.007333 -0.024390 -0.022563
0.031952 -0.010764 0.036142
0.017526 -0.049248 -0.034923
-0.078685 -0.003082 0.030143
0.010467 0.008598 0.038512
-0.066326 -0.018876 0.044356
0.022714 -0.052825 -0.040100
-0.034499 0.027829 0.027514
0.010086 0.017732 0.031902
0.065437 0.056437 0.016448
-0.052071 -0.053674 0.029274
-0.085259 -0.031640 0.023388
0.014800 -0.063995 -0.033040
-0.026548 0.020620 0.034298
0.069877 0.053373 -0.029173
0.063664 -0.025209 0.033721
0.012017 -0.018126 -0.031995
0.064443 0.059212 -0.004650
-0.055115 0.016809 0.038697
0.018384 0.063135 0.014892
0.061182 0.059853 -0.004233
-0.044800 -0.006238 0.046699
0.061182 0.059853 -0.004233
0.058344 0.060538 -0.024060
0.003547 -0.057093 -0.023781
-0.084412 -0.028024 0.022780
0.015843 0.065156 -0.009169
-0.027797 -0.056304 0.029935
0.002245 0.020383 0.031157
0.004572 -0.056474 -0.020962
0.013559 0.001768 0.039716
0.017073 0.066080 -0.006711
0.086764 -0.035129 -0.006732
0.006704 -0.020068 -0.022782
0.033632 -0.052837 -0.045394
0.019942 0.066275 -0.001711
-0.021903 0.040085 0.013714
0.015247 -0.066432 0.021293
0.078101 0.048120 0.010340
0.039079 0.063357 -0.020098
0.000527 0.051813 -0.018279
0.069843 0.055054 0.011963
0.005476 -0.059461 -0.024787
0.081719 0.013756 0.017901
0.011982 -0.055727 -0.027045
-0.000632 -0.053784 -0.001718
0.017012 -0.039504 -0.030241
0.077370 0.051124 -0.016732
-0.010433 -0.053766 0.019443
-0.041948 -0.039392 0.048861
-0.066244 -0.019746 0.044374
0.007793 -0.047333 0.034233
0.081198 -0.054735 -0.028330
0.076103 -0.012980 0.025955
0.033018 0.057501 0.028938
0.064227 0.059269 -0.007457
-0.012975 0.019439 0.034010
0.044743 0.062256 -0.022300
-0.045450 0.026280 0.027219
0.085781 -0.048338 -0.012300
0.083931 -0.038423 -0.019565
0.006979 -0.020338 -0.022772
0.087905 -0.028530 0.002077
0.053113 -0.025700 0.036778
-0.001543 -0.053938 -0.023582
0.016229 0.010133 0.034246
0.065799 0.057608 -0.024184
0.084201 0.040578 0.000610
0.081466 0.046055 -0.010349
-0.029885 0.032667 -0.019495
0.043286 0.062010 -0.006067
0.025270 -0.066432 -0.041740
0.023118 -0.048540 0.030030
-0.003390 -0.053433 -0.003723
0.047524 0.059411 0.024265
0.002166 0.006282 -0.022621
0.074607 0.052247 -0.020596
-0.081359 -0.026733 0.027266
0.041437 0.061283 -0.035763
-0.032503 0.028316 0.026051
0.015561 -0.044912 0.031760
0.027516 0.061380 -0.035559
0.026515 -0.032365 0.032979
0.065396 0.036636 0.028925
0.059879 0.053413 0.026902
0.024319 0.029861 -0.041630
0.079589 0.049077 -0.007258
0.062221 0.056858 -0.030914
0.075707 0.051556 -0.019422
0.045230 0.023678 -0.047928
-0.085701 -0.022888 0.022632
-0.001448 0.046761 -0.020613
0.010588 -0.014107 0.043291
-0.000231 0.010319 -0.006132
0.068518 0.055965 0.012724
-0.073625 -0.045152 0.024009
0.030937 0.064713 -0.002993
0.080571 -0.045360 -0.026240
0.089760 -0.063098 -0.004119
0.002950 0.017516 0.032734
0.002871 -0.002692 0.047237
0.064020 -0.059178 -0.045233
-0.020153 0.028948 -0.020368
0.004920 -0.043282 -0.023029
-0.085418 -0.006183 0.022665
-0.016334 0.045984 -0.006732
-0.000557 -0.033344 0.049034
0.038568 0.064081 -0.018887
-0.039113 0.034539 -0.016083
0.070858 -0.066432 -0.038692
-0.046639 -0.059208 0.027059
-0.042221 0.029672 0.023868
0.057085 0.055991 -0.037864
-0.055376 -0.058940 0.023119
0.080044 0.046922 -0.006132
0.047217 -0.066432 -0.047112
0.070931 0.054322 -0.024088
0.048079 0.062393 0.014014
0.041192 0.059079 -0.039749
-0.000917 0.011614 -0.021382
-0.001323 0.021913 0.030322
-0.066540 0.025520 0.013075
0.024008 0.062195 -0.032270
-0.042262 0.026315 0.027582
-0.033884 0.006801 0.047895
0.053744 -0.039829 0.033256
0.007075 0.046854 0.021240
-0.073838 -0.036463 0.030829
-0.066145 0.023521 0.024839
0.011051 -0.066432 0.015401
0.001551 -0.059589 -0.002709
-0.086876 0.000764 0.013036
0.037520 0.059057 0.028039
-0.067908 -0.053902 0.020919
0.034642 0.062192 -0.034004
0.077531 0.049738 0.008740
-0.001030 0.053705 -0.012628
0.064813 0.039630 -0.040875
0.019388 0.007120 0.034606
0.011951 -0.060907 0.021150
-0.082217 -0.033452 0.023030
0.022294 -0.026040 0.034819
0.033769 0.064601 -0.005456
0.058881 0.055652 -0.037106
0.011504 -0.004869 0.042149
0.004505 -0.062156 -0.020932
0.006782 -0.015312 0.045718
-0.087203 -0.025587 0.023646
0.018516 0.064345 0.010155
0.018381 0.062513 -0.027172
0.064813 0.039630 -0.040875
0.046479 0.058940 0.026243
-0.000961 -0.056219 -0.003826
0.011496 -0.021458 -0.033579
0.060903 -0.047141 0.031147
0.002630 -0.060580 0.002780
-0.024553 0.038120 -0.016456
-0.078958 0.010417 0.026011
0.042464 -0.066432 -0.050020
0.046014 0.062478 0.006664
-0.024211 0.030445 -0.002332
0.053585 0.061446 -0.018836
-0.070863 0.008886 0.035045
-0.004567 0.019776 0.031877
0.088305 0.012876 -0.013338
-0.006721 0.046620 0.012844
0.000880 0.015171 -0.022355
-0.079044 0.003062 0.030844
0.013667 0.063348 -0.018859
0.033228 -0.048612 -0.044436
0.020502 -0.057207 0.027845
0.064444 0.058601 -0.012745
0.055937 0.053517 0.028833
0.045403 0.059954 -0.036809
0.036838 0.063643 -0.005139
-0.027117 -0.060243 0.014126
0.065704 -0.042768 -0.040913
-0.074037 -0.040000 0.028177
0.079078 0.049389 -0.012582
0.039472 0.010036 -0.048659
-0.020084 0.028687 -0.020176
-0.007677 0.029003 0.027456
0.058707 -0.036883 0.032317
0.014102 0.017788 0.031788
0.054430 0.061244 -0.018658
-0.007940 0.019972 -0.020423
-0.032351 0.037951 0.007907
-0.085591 -0.032643 0.022624
0.045747 0.061979 0.002407
0.020622 0.005771 0.034677
0.073851 0.020217 -0.038259
0.086256 -0.035396 -0.012372
0.053805 -0.050035 -0.045923
0.083544 0.040636 0.003507
0.023021 -0.010348 0.034364
0.033911 0.064557 -0.005318
-0.029809 0.035331 -0.017783
0.086523 -0.052630 0.000344
0.019128 -0.039813 0.034475
0.060580 0.060168 -0.002705
-0.072496 -0.017620 0.037738
0.079530 -0.048336 -0.028426
-0.067662 -0.033445 0.037780
0.077888 0.050986 -0.014674
0.002263 -0.056733 0.009492
-0.044605 0.000922 0.046922
-0.010626 0.046733 -0.014741
0.045966 0.062669 0.003086
0.042917 0.062979 0.006032
0.052581 0.058483 0.023528
0.064227 0.059269 -0.007457
0.084855 0.038082 -0.013107
0.058671 0.060284 0.007322
0.018573 0.064717 0.006921
0.041046 0.063593 -0.025623
-0.058924 -0.040908 0.039068
0.017128 0.063643 -0.024133
0.016227 -0.053269 -0.030886
0.044818 -0.015231 -0.050104
0.075787 -0.036867 0.021271
-0.041232 -0.060232 0.024195
0.004059 -0.057737 -0.023889
0.009508 -0.055373 0.021266
0.023549 -0.014311 0.034303
0.012397 0.064462 -0.011479
0.029347 0.062995 -0.031590
0.024634 -0.034152 -0.041244
0.061969 0.057911 -0.028437
0.027007 0.065663 -0.006065
-0.075776 -0.048396 0.016510
0.030147 0.064192 -0.028757
0.022819 0.057449 0.025350
0.085460 -0.042599 -0.012368
0.007729 -0.063178 -0.027938
0.031742 0.064356 0.012912
0.005973 -0.065731 -0.006132
0.084483 -0.040708 -0.017133
-0.074417 -0.034743 0.034591
0.084604 -0.025307 -0.026281
0.059722 -0.031782 -0.045475
0.075067 -0.061271 -0.038533
-0.075985 0.001921 0.034262
0.059251 0.059694 0.002997
0.002415 -0.032605 0.045481
0.015819 -0.059748 -0.033415
-0.054422 0.005915 0.047067
-0.066145 0.023521 0.024839
0.005768 -0.066432 -0.021116
0.080177 -0.025518 -0.033052
0.016184 0.065229 0.000014
0.024333 -0.037283 -0.040326
0.022828 0.064162 -0.025897
0.026771 0.063927 -0.028064
0.019632 -0.045969 -0.036385
0.046107 0.062774 0.016028
0.065809 0.051001 -0.036441
0.069318 0.055633 0.012044
-0.036969 0.034542 -0.017396
0.048586 0.062035 0.012968
0.002869 -0.054101 -0.021087
0.047024 -0.048983 -0.046529
-0.016369 0.044698 -0.012711
-0.000218 -0.056905 -0.003869
0.047048 0.061848 -0.015596
0.048776 -0.035459 -0.046825
-0.034243 0.027662 0.028417
0.068685 0.056107 0.011691
0.081227 0.046971 -0.001747
-0.082855 -0.019762 0.027068
0.016204 0.010093 0.034517
0.079996 0.047879 -0.016900
0.022898 -0.030511 0.033486
-0.040522 -0.037328 0.047344
0.027784 0.062559 -0.032750
-0.041227 -0.059043 0.027667
0.067614 -0.052913 -0.041118
0.055449 -0.066432 0.036838
-0.002469 0.011776 -0.020932
-0.017121 0.005153 0.048444
-0.065345 -0.027413 0.041590
0.047096 0.062159 -0.018134
-0.061465 -0.058580 0.013626
0.085089 0.016018 -0.022922
0.045634 0.062596 -0.015258
0.010238 0.014499 0.033855
0.031026 0.046475 -0.042388
-0.011386 0.023319 -0.020665
-0.021136 0.017363 0.037438
0.022376 -0.024066 0.034927
0.048610 -0.004430 0.037554
0.061843 0.059151 -0.007798
0.012827 0.012689 0.034660
0.076793 0.047984 0.013095
-0.021710 0.025560 0.029186
0.025518 -0.036617 -0.041182
-0.007096 -0.049592 -0.023222
0.044439 0.062777 0.012998
-0.008734 0.046302 0.011679
0.031633 -0.031245 -0.045457
0.002134 -0.058847 0.003531
0.029375 0.063753 0.015973
0.048366 0.061485 -0.014259
0.004695 -0.058545 -0.024138
-0.002993 -0.053439 0.007837
-0.049585 0.028604 0.026667
0.043314 0.058662 0.027696
0.017112 -0.046068 -0.034043
0.073695 0.054822 -0.006903
0.070151 0.051016 -0.032136
0.043278 0.003727 0.037192
-0.003573 0.052129 0.002484
0.009627 -0.001051 0.045332
0.067858 -0.036356 -0.040335
0.077386 0.049495 0.009889
-0.020024 -0.056980 0.018161
0.087142 -0.019805 0.009326
0.013989 0.012221 0.033991
0.052038 -0.035385 -0.046473
0.050596 -0.024037 0.037418
0.049025 0.061484 0.002829
0.084228 -0.062789 -0.027453
0.021300 0.064343 -0.022937
0.086679 -0.000605 0.009315
0.023688 -0.007237 0.034048
0.008576 -0.052438 -0.022535
-0.026858 0.040668 -0.010084
-0.000276 0.010395 -0.021349
0.007580 -0.024462 -0.022529
0.007750 0.060912 -0.006132
-0.064069 -0.004448 0.044944
0.084037 -0.050370 -0.020256
0.020419 -0.025126 0.034723
0.053070 0.060788 -0.020714
-0.027281 -0.060800 -0.020932
-0.016410 0.010351 0.043838
-0.002283 -0.050849 -0.023500
-0.060915 0.025981 0.025383
-0.047798 0.008403 0.048150
0.011112 -0.014662 0.042957
-0.042712 0.029192 0.025010
0.082733 0.028094 0.012845
0.004059 -0.057737 -0.023889
0.011251 0.010469 0.036927
-0.017334 0.008291 0.045819
0.042815 0.063050 0.012863
0.009196 0.062203 -0.001035
0.083190 -0.003174 -0.029236
0.009016 -0.048600 -0.025844
0.006980 -0.059893 0.014960
0.018374 0.005790 0.035412
0.032197 0.064489 0.012214
-0.089114 -0.015710 0.022236
-0.014692 -0.055236 -0.002332
0.001686 0.001499 0.048762
0.079813 0.042084 -0.024518
0.017450 0.060716 0.018707
0.080147 0.011521 -0.032749
0.002079 -0.031742 0.048725
0.041840 0.063428 -0.020614
0.083579 -0.046941 -0.020178
0.033728 0.064471 -0.022944
0.075373 -0.034139 -0.034777
0.027137 0.065746 -0.006961
-0.089382 -0.012366 0.017720
-0.068961 -0.031601 0.037579
-0.030919 -0.027202 0.047552
-0.024198 0.030397 -0.006132
0.032540 0.062238 -0.033531
0.050437 0.059352 -0.035799
0.011765 -0.046223 0.033715
-0.003390 -0.053433 -0.003723
0.020577 -0.036210 0.034717
0.022585 -0.041871 -0.038635
0.083542 -0.044222 0.007550
-0.055604 -0.006171 0.044933
-0.061718 -0.004269 0.044160
0.079552 0.049102 -0.008299
0.012922 -0.037156 0.037717
0.077055 -0.049537 -0.032044
0.088810 -0.028134 -0.006732
0.058567 -0.065731 0.033060
-0.011249 -0.053391 -0.023594
0.071949 0.055991 -0.004535
-0.017750 0.031845 0.024926
0.000203 0.010215 -0.021864
-0.083928 -0.034643 0.022834
-0.039004 0.009175 0.049198
0.075795 -0.059800 -0.037404
0.037875 0.063459 0.007780
0.020666 -0.016757 0.036386
-0.004635 0.052113 -0.009178
0.079736 0.035714 -0.027985
0.020487 -0.022705 0.035857
-0.086114 0.003463 -0.002332
0.086606 0.023453 0.003932
0.063663 0.059370 -0.001345
-0.002923 -0.053447 -0.006132
0.058317 -0.015112 -0.048351
0.079887 -0.028509 0.019875
0.029784 -0.057927 -0.045654
0.032296 -0.066432 0.032531
-0.010346 0.049000 -0.007995
0.010718 0.034369 -0.029331
0.012017 0.063416 -0.016758
0.070233 0.055642 0.011247
-0.040664 -0.023220 0.046827
-0.012579 0.047316 -0.006732
0.056612 0.060122 -0.017591
0.023013 0.062337 0.019149
0.087523 -0.054499 -0.006132
0.003711 0.017041 0.033526
0.022033 -0.029281 0.034426
0.056407 0.057854 0.022587
0.061842 0.035477 -0.043115
0.029468 0.062941 0.019439
-0.077506 -0.035217 0.027754
0.020793 -0.016553 0.036083
0.000686 0.020329 0.031777
-0.053961 -0.045774 0.040426
0.071260 0.056425 -0.007258
0.066153 -0.047517 0.028636
0.010228 0.063308 -0.001212
0.088924 -0.023689 0.002512
-0.018326 0.028437 -0.020572
0.079481 0.049112 -0.004237
-0.083428 -0.035604 0.023596
0.089575 -0.012456 -0.011597
0.064943 0.020197 -0.043891
-0.000923 -0.056219 -0.009081
-0.018228 0.027765 -0.020327
0.016591 0.063714 -0.023276
0.009321 -0.053212 -0.023304
-0.089458 -0.014232 -0.015932
-0.003160 0.035864 0.024880
0.081732 0.045692 -0.006131
0.008095 -0.020295 -0.025337
0.022968 -0.014423 0.034630
0.047024 0.062334 -0.030003
0.057740 0.012396 0.035061
-0.089458 -0.008329 -0.011432
-0.034018 0.033117 -0.018082
0.076857 0.050867 -0.018327
0.078208 -0.054212 -0.032238
-0.031451 -0.061888 -0.002332
0.012633 -0.063410 -0.034716
-0.020054 0.044191 -0.006132
0.057270 -0.066432 -0.045536
0.013809 -0.045453 0.032510
0.010406 0.061176 0.008430
0.008457 0.056074 0.014012
0.019394 -0.044796 0.030672
-0.060328 -0.047863 0.035768
0.030370 -0.044769 -0.043009
0.038015 0.063917 0.010431
-0.027968 -0.057849 0.026294
-0.087338 -0.005297 0.023151
0.052968 0.055610 0.028682
0.022377 -0.026298 0.034529
-0.074665 -0.048002 0.023861
0.086201 0.034759 -0.008729
0.028155 0.000102 0.034746
-0.085388 0.000825 0.023807
0.088708 -0.028295 -0.003602
0.034006 0.044604 -0.043642
0.080924 0.027756 0.016404
0.066571 -0.027756 0.031588
0.089510 -0.021506 0.000027
0.084341 -0.045914 -0.017617
0.018193 -0.042764 0.032134
0.076972 0.051060 -0.017460
-0.049964 -0.059034 0.026647
-0.000269 0.039750 0.023134
-0.042645 -0.016578 0.046929
0.030185 0.064651 -0.006131
-0.045758 0.031522 0.018844
0.014619 -0.041541 0.034063
0.077652 -0.027901 -0.035072
0.023700 0.054656 0.027122
0.039863 -0.061564 0.036905
-0.011390 -0.054002 -0.023668
0.050399 0.040458 -0.045398
-0.057522 -0.035337 0.043343
0.007454 -0.019632 -0.027807
-0.020024 -0.056980 0.018161
0.002157 -0.036990 -0.022797
0.022058 -0.014030 0.035755
0.046159 -0.037131 -0.046602
0.015097 0.013679 0.034069
0.033739 -0.035400 -0.045057
0.050901 -0.028074 -0.048712
0.085324 -0.035420 -0.016784
-0.027590 0.008845 0.049985
0.036336 0.017915 -0.047462
0.076476 -0.037836 -0.032552
0.054648 0.051916 0.029905
-0.083924 -0.028118 0.027573
-0.024431 -0.059345 0.013599
0.005543 -0.025232 -0.020932
0.007967 -0.020386 -0.024449
0.044007 -0.025109 -0.049711
0.001750 -0.060581 -0.007625
-0.006685 0.049411 -0.014311
0.035858 0.064068 0.010439
0.004872 -0.030380 -0.023626
-0.000937 -0.056283 -0.006302
0.069595 0.046420 0.023187
-0.019224 -0.052256 0.030207
-0.040963 -0.019968 0.047098
-0.002789 0.023110 -0.021658
0.014240 -0.024311 -0.033913
0.010273 -0.020325 -0.029027
-0.012062 0.022144 -0.002432
0.074697 -0.060109 0.026257
0.044007 -0.025109 -0.049711
-0.010855 -0.054440 -0.023689
0.032231 -0.009129 -0.047801
0.040614 0.060857 0.024132
-0.076741 -0.041821 0.023653
-0.042612 0.024470 0.029992
0.028158 0.065633 -0.007232
0.082959 -0.066432 -0.029924
0.086338 -0.034624 -0.006732
0.006152 -0.006431 -0.006132
0.046898 0.062070 0.013698
-0.017915 -0.038006 0.050108
0.002222 0.045952 -0.022670
0.054245 0.060572 -0.020043
0.006489 -0.039648 0.042252
0.038961 0.058194 -0.041282
0.022378 0.003254 0.033617
-0.059178 -0.037382 0.041310
0.012651 -0.045830 0.033728
0.087052 -0.032135 0.000150
0.088975 -0.012863 0.002822
0.042917 0.062979 0.006032
-0.007703 0.020071 -0.020777
-0.086952 -0.032003 -0.020932
-0.044539 -0.060386 0.023800
0.039576 0.063138 0.008120
0.061559 0.059679 -0.019459
0.022033 -0.029281 0.034426
-0.003427 -0.054874 -0.006537
-0.044621 -0.061849 0.018311
-0.002408 -0.044365 -0.023131
0.003818 -0.060816 -0.019423
0.083565 0.043660 -0.004350
0.002816 0.004584 -0.022826
0.082599 0.035236 0.010181
0.043115 0.058385 -0.040662
0.085089 0.016018 -0.022922
0.055836 -0.039159 0.032839
0.073164 0.050982 -0.028033
-0.008252 0.020431 -0.020634
0.009508 -0.055373 0.021266
0.025037 -0.054778 -0.042187
0.034162 0.059554 0.027297
0.052587 -0.032992 -0.046972
0.054994 0.061296 0.012377
0.089029 -0.061271 -0.012583
0.081371 -0.028493 0.017826
0.011386 0.059408 -0.022129
0.004629 -0.050572 -0.023406
0.085333 0.038500 -0.008622
0.017175 -0.057472 0.025742
-0.010798 -0.054519 -0.023456
0.079360 0.049030 -0.006097
0.035959 -0.050091 -0.045452
0.049392 0.061429 -0.021980
0.035238 0.059092 -0.040181
0.038842 -0.027183 0.036391
-0.034319 0.033177 -0.002332
0.088669 -0.064599 0.004276
0.019100 -0.025859 0.038341
0.081649 0.039632 0.009923
0.079706 -0.057903 0.019983
0.038568 0.064081 -0.018887
0.022502 -0.066432 -0.039771
0.004026 -0.032661 -0.023051
0.043701 0.062841 0.013652
0.034641 0.064445 -0.022475
-0.024810 0.016965 0.038254
0.055343 0.058055 -0.035217
0.001901 0.036234 -0.023845
-0.046368 0.020883 0.037140
0.086352 -0.026025 0.009830
0.046397 0.059750 -0.036723
0.016622 0.035888 -0.035122
-0.029858 0.012355 0.046529
-0.013935 0.029127 0.026747
-0.036690 0.034285 -0.017632
-0.085210 -0.016720 0.024239
0.011095 -0.046546 0.033650
0.036019 0.064239 -0.022537
0.023596 -0.028616 0.033529
0.044488 0.061766 -0.006495
0.009227 -0.016295 0.043813
0.053289 0.060530 -0.007273
0.007232 0.019967 0.031050
0.037212 0.064054 -0.022191
0.038336 0.063700 0.002890
-0.020126 0.039947 0.015373
0.011744 -0.035254 -0.025930
-0.073582 0.006929 0.033946
-0.075993 -0.037503 0.027935
0.012818 -0.021836 -0.035044
0.084299 0.030844 0.007784
0.022177 0.000774 0.033918
0.019748 -0.039434 0.033395
0.014887 0.063984 0.007732
0.061306 0.048472 -0.040441
0.030142 0.046077 0.031048
0.073699 -0.023295 -0.040133
0.008352 -0.024496 -0.023436
0.023023 0.063777 0.015242
-0.007070 0.019099 -0.020427
0.018413 -0.000570 -0.039945
-0.039597 0.027622 0.028971
-0.011832 0.036567 -0.019957
0.015798 -0.049034 -0.029406
0.062596 0.056972 -0.030914
0.066308 -0.040194 -0.040715
0.083222 -0.037880 0.009393
-0.047427 0.006294 0.046598
0.054234 0.023385 0.034841
-0.036218 -0.057688 0.029257
-0.016451 -0.055633 0.010659
-0.026757 0.026481 0.028678
0.088052 0.017927 0.000209
0.076305 0.051332 -0.019150
0.016654 -0.043707 0.032358
0.065329 0.048077 0.025891
-0.009757 0.047175 0.008382
0.067139 -0.037839 -0.040499
0.038908 0.054969 -0.042678
0.003900 -0.025339 0.047086
0.061730 0.059254 -0.003082
-0.056025 -0.047866 0.037767
0.046599 0.062859 0.005809
0.021860 0.062189 -0.031604
-0.048630 -0.047810 0.036903
0.057884 0.008375 -0.047577
-0.009963 0.011085 0.042073
0.042546 0.060498 -0.036645
-0.059712 0.016698 0.036730
-0.036145 0.033861 0.018614
0.028657 0.065868 -0.017105
-0.027288 -0.039270 0.049998
0.043912 0.062001 -0.010664
0.022750 -0.062767 -0.043312
0.029103 0.063001 0.018504
0.071445 0.051982 -0.028152
-0.047746 0.010632 0.043292
-0.001891 -0.039701 0.044699
0.071943 0.053735 -0.023459
0.007227 0.038314 0.025961
0.032054 0.062284 0.020996
0.079628 -0.066432 -0.029503
-0.003178 -0.034310 0.049309
0.074781 -0.025698 0.026439
-0.019390 0.025501 0.028619
0.062729 0.058887 -0.017730
0.081617 0.045679 -0.003197
0.029848 0.065127 0.004649
0.029203 0.063903 -0.028325
0.063315 0.054738 -0.034735
0.007857 0.015387 0.034061
0.051255 -0.012613 0.037522
0.026469 0.065825 -0.004696
0.057550 0.059868 0.004960
0.087551 -0.028190 -0.016407
0.007741 -0.061645 -0.027684
0.028340 -0.061443 -0.046025
0.018632 0.064759 -0.019442
0.018993 0.064740 -0.020437
0.028822 0.018712 -0.044971
0.021490 0.061737 -0.031944
-0.087336 -0.002657 0.022422
0.046077 0.061472 -0.005707
0.057897 0.060263 -0.007124
-0.063545 -0.035668 0.042076
-0.029058 -0.060985 0.012485
-0.033760 -0.057305 0.029533
0.007764 0.040005 -0.026534
0.050468 0.057267 -0.039631
0.001952 -0.066432 -0.005001
0.000027 -0.044636 -0.023180
0.079515 0.048011 -0.019109
0.015097 0.013679 0.034069
0.030060 0.063870 -0.030460
0.048490 -0.066432 0.034789
0.063378 0.059629 -0.017017
0.061808 0.043811 0.029181
0.016591 0.063714 -0.023276
-0.008997 0.020957 -0.020351
0.079277 0.049212 -0.002088
0.054337 0.060660 -0.024094
-0.064079 -0.040302 0.036341
0.058121 -0.058045 0.034826
0.029624 0.062749 0.019424
-0.027407 0.040193 0.004734
0.080221 -0.052820 -0.028884
0.005322 0.012771 -0.025180
0.022712 0.061685 -0.031935
-0.028660 0.037892 -0.015102
0.004741 0.006664 -0.024504
-0.011036 -0.053697 -0.023975
-0.011627 0.046932 -0.013341
0.056652 -0.031829 0.034161
0.061807 -0.039830 0.030754
0.007235 -0.038554 -0.021176
0.003572 -0.030051 0.048464
0.088649 0.017397 -0.006732
0.054864 0.060946 -0.022393
0.076792 -0.021493 0.025232
0.031326 0.064540 -0.001319
0.029343 0.065069 0.006570
0.033163 0.060608 0.025405
0.005043 -0.050388 -0.020937
0.010654 -0.057819 -0.026165
-0.001882 0.052809 -0.013791
0.026990 0.057212 -0.038159
0.085518 -0.031991 -0.019072
0.070268 0.057004 -0.002758
-0.040522 -0.037328 0.047344
0.019796 -0.039774 -0.033232
0.030143 -0.066432 -0.043966
0.022306 0.056406 0.025661
-0.016904 0.036569 -0.019015
-0.078196 0.015754 0.011864
0.079567 0.034149 0.016610
0.069540 0.052530 -0.006132
-0.012264 0.021545 0.031314
0.014705 -0.059646 -0.032078
-0.052886 0.030888 0.014585
0.030591 0.060793 -0.037296
-0.018102 0.032260 -0.019889
-0.016426 -0.049022 0.038042
0.007470 -0.048197 0.033238
0.047014 -0.042487 -0.046133
-0.079457 0.013479 0.018411
0.086943 0.027681 -0.006732
0.089337 -0.021574 -0.006132
-0.074391 -0.045098 0.027454
0.065627 0.059101 0.000677
-0.077831 -0.021592 0.032473
-0.003307 0.003749 0.049294
0.061626 0.059565 0.008959
0.066625 -0.066432 -0.041532
0.078848 0.049163 0.005165
-0.008414 0.020818 -0.020783
-0.074546 0.004158 0.034541
0.002451 -0.055283 -0.006132
0.051255 -0.012613 0.037522
-0.076477 -0.046292 0.023623
0.003949 0.006259 -0.023843
-0.037093 0.019795 0.035790
0.007904 -0.020129 -0.025289
0.007470 0.060542 -0.002057
0.077888 0.050986 -0.014674
-0.057600 0.024060 0.025835
0.015609 -0.066432 0.021454
0.072087 0.021281 -0.039480
-0.032326 0.009015 0.049747
-0.014146 0.045474 0.007057
0.067390 0.049241 0.023793
0.062732 0.057703 0.016431
0.081706 0.045551 -0.006132
-0.048259 0.032170 0.014453
0.005543 0.046593 0.020594
-0.084420 -0.022160 0.028681
0.072682 -0.027079 -0.040025
-0.048303 0.021210 0.032852
0.011006 0.063875 -0.000248
0.000262 -0.033035 0.048917
-0.074546 0.004158 0.034541
0.076912 0.049824 -0.022740
0.008875 -0.058384 0.018409
0.019309 -0.027668 -0.039855
0.010761 -0.056860 0.021161
0.083194 -0.023563 0.017034
-0.002967 0.014670 -0.021059
-0.036396 -0.030588 0.047700
-0.019628 -0.038348 0.050101
0.000046 -0.054643 -0.023483
0.061269 0.049037 0.028017
-0.071136 0.022392 0.012913
0.061220 0.056811 0.019866
0.089120 -0.013658 -0.014429
0.076904 0.052139 -0.000443
0.021941 -0.028113 0.034885
0.005543 -0.025232 -0.020932
0.037176 0.064195 -0.005898
0.062264 0.059546 0.004860
0.057476 0.057654 0.022127
0.069792 0.036027 0.026308
0.011575 0.010755 0.038987
0.085980 0.027852 0.004076
-0.004399 0.016529 -0.020942
0.077481 0.051793 -0.005700
0.007125 -0.033664 -0.021549
0.034490 0.064778 -0.015289
0.022808 -0.018681 0.034848
0.009627 -0.001051 0.045332
-0.002404 0.019101 0.032492
0.068128 -0.052510 0.028429
0.067081 0.053857 0.019693
-0.017189 0.022593 0.030722
-0.088947 -0.010884 0.022239
0.036240 0.064296 0.005423
-0.073542 -0.000746 0.034448
0.000351 -0.030447 0.047540
-0.066239 0.019659 0.029719
0.088247 -0.006366 -0.017454
0.016171 0.065204 -0.012043
0.001613 -0.001078 0.047395
0.027773 0.065184 0.008148
0.032411 0.047720 0.031318
0.060452 0.059476 -0.013147
0.016840 -0.042990 0.033200
0.066709 -0.065731 0.029398
0.033198 0.064106 -0.023922
-0.028757 0.032308 -0.019642
0.079497 0.047250 0.008167
0.059639 0.060105 -0.018581
0.029843 0.065058 -0.017127
0.018152 0.038466 0.028977
-0.069539 0.020660 0.025179
0.052476 -0.062767 -0.049462
0.016333 0.065205 -0.013236
0.025343 0.057273 -0.037231
0.003417 -0.038306 -0.022879
0.008613 -0.047834 0.033277
0.015696 -0.007279 -0.037817
0.087448 -0.032290 -0.004233
0.069284 -0.013804 -0.043430
0.031407 0.065083 0.004734
0.068629 0.048909 -0.035143
0.000019 -0.051175 0.030553
0.026917 0.066168 -0.013079
0.037271 -0.000763 -0.048874
-0.019389 0.034696 -0.019208
0.056456 0.060653 0.010222
0.020206 -0.025703 0.035597
-0.040297 0.034189 0.015067
0.059698 -0.066432 -0.044755
-0.012076 0.024562 0.028932
-0.085747 -0.033180 0.019193
0.026254 0.064102 0.014980
0.038693 -0.035696 -0.046225
0.014146 0.011909 0.034587
0.002109 0.018940 0.033583
0.056052 0.060772 0.011182
0.002751 -0.036540 -0.022921
0.015651 -0.024381 -0.034084
0.018426 -0.031836 -0.006132
0.053453 0.060564 -0.002882
0.026528 0.061696 -0.034211
0.044447 0.054547 0.030841
0.084222 -0.028534 0.012934
0.001440 -0.057287 0.004987
0.086817 -0.033982 -0.001766
0.018744 0.052633 0.025302
0.075707 0.051556 -0.019422
0.050258 0.060884 -0.008632
0.037269 -0.064273 0.036804
0.054321 0.060433 0.007616
-0.004070 -0.052753 0.021318
0.031276 -0.027665 -0.046504
-0.082956 0.007369 0.022920
0.052528 -0.043104 0.033310
-0.010302 -0.054268 -0.023810
0.023432 -0.018948 0.034340
0.013048 -0.019263 0.041571
-0.048185 -0.052814 0.031382
0.084886 0.022267 -0.021769
0.086817 -0.033982 -0.001766
-0.017379 0.037433 0.020358
0.039937 -0.042958 0.033360
-0.014893 -0.054873 0.019598
0.085363 -0.054805 -0.019680
0.005750 -0.062231 0.011783
0.063203 0.059448 -0.016340
0.022636 -0.008834 0.034876
-0.038957 0.028482 0.026825
-0.008533 0.003152 0.048256
-0.007643 0.048544 0.007477
0.084125 -0.065832 -0.021535
0.001009 -0.058136 -0.011492
0.020482 0.006320 0.034644
0.015037 -0.053636 -0.029825
0.085075 -0.047128 -0.015277
-0.008339 -0.052281 0.031447
-0.010800 -0.053934 -0.024018
0.047216 0.062269 -0.025374
0.081040 -0.026528 0.019255
0.036428 0.064010 -0.022887
-0.080427 -0.019606 0.029965
-0.077961 0.014295 0.023409
-0.027187 -0.022120 0.048228
0.073182 0.021939 0.026305
0.074608 -0.054404 -0.036225
0.017570 -0.045936 0.030292
0.000149 -0.040184 -0.022583
-0.001217 -0.055187 -0.017902
0.039083 0.058386 0.027935
0.051169 0.011190 0.036459
0.026252 0.066060 -0.006008
0.007608 0.022574 -0.027344
0.016580 0.009310 0.035036
-0.065360 0.011182 0.034446
0.004785 -0.012156 0.046941
-0.006107 0.039650 -0.020883
-0.058394 -0.045980 0.038384
0.013788 -0.024381 -0.032008
0.071192 0.054307 0.011832
0.007710 -0.021757 -0.028363
-0.066132 -0.031537 0.039733
0.073816 -0.039828 0.022770
0.039230 -0.025364 -0.049177
0.079586 0.020792 -0.032247
0.054453 0.010961 0.035960
0.028683 0.063511 0.017663
0.063362 0.058667 -0.023883
0.019490 0.065344 -0.019291
0.074294 0.052577 -0.021078
-0.078435 -0.026720 0.033930
0.044404 0.060626 0.023847
-0.078559 0.012404 0.024557
-0.058834 0.029661 -0.002432
-0.005270 0.017495 -0.020865
0.035941 0.057156 -0.041438
0.019606 -0.038946 0.034527
-0.002641 0.049480 -0.018140
0.010586 0.063828 -0.008249
0.015020 0.057115 0.020164
0.088261 -0.060000 0.002959
-0.041451 0.034247 0.013496
-0.018227 0.027912 -0.020445
0.044208 0.063104 0.008486
-0.046730 -0.049641 0.035354
0.034500 -0.066431 0.036359
-0.088209 -0.010462 0.023051
0.055258 0.054619 -0.040753
0.013373 0.013995 0.034837
-0.003109 -0.053434 0.010668
0.004607 -0.055735 -0.021247
-0.037745 0.000546 0.047091
0.045084 0.062358 -0.016818
-0.010433 0.005821 0.049847
0.068741 0.053710 0.018048
0.037094 0.059919 -0.038893
0.084426 0.021245 0.011002
0.042885 -0.041649 0.033730
0.068262 0.053413 0.019416
0.013331 0.012640 0.034228
0.023991 -0.033519 0.032627
0.005750 -0.062231 0.011783
0.036948 0.064398 0.013732
0.017710 0.007758 0.034971
0.014366 0.064235 0.006155
0.013853 -0.065731 -0.006132
0.018967 -0.016186 -0.040843
0.003942 -0.055710 0.015065
0.032683 0.065130 -0.000813
-0.061634 -0.004151 0.044172
-0.007463 0.034123 0.025123
0.014073 0.065077 -0.009339
0.085122 0.024114 0.008197
-0.005213 0.046748 0.013849
0.028753 0.012478 0.034367
0.022906 -0.019657 0.034596
0.049764 -0.061271 -0.049532
-0.003833 0.039362 0.022438
0.030257 0.064807 -0.003893
0.086441 -0.054820 -0.016023
-0.059122 0.029207 0.011762
0.086012 -0.046351 -0.004277
0.063635 0.056523 0.018572
-0.032085 0.020950 0.034322
0.011537 0.063741 -0.001754
-0.052706 0.007071 0.044334
-0.047575 0.017398 0.037130
0.084690 0.027628 -0.020339
0.030247 0.063933 0.018067
0.083190 -0.003174 -0.029236
0.046417 0.012267 0.036698
0.022502 -0.066432 -0.039771
0.068464 -0.042836 -0.039197
0.085239 -0.050507 0.004241
0.053430 0.060709 0.007658
0.007075 0.046854 0.021240
0.086611 -0.065832 -0.012482
0.089142 -0.025782 -0.011212
0.014070 0.013522 0.034928
0.086606 -0.027850 0.007744
0.007975 0.060804 -0.009103
-0.033332 0.018375 0.037294
0.021404 -0.032743 0.034701
0.051406 0.000441 -0.049368
0.033228 -0.048612 -0.044436
0.085056 -0.041940 -0.014595
0.075811 -0.065731 0.022207
-0.006242 0.020114 0.032052
0.078321 0.049219 -0.019845
-0.047579 0.030001 0.021833
0.002394 0.019581 0.032646
0.071181 0.051964 -0.006132
0.006418 -0.038948 -0.023544
0.058848 0.044133 0.030359
0.003570 -0.057702 0.010568
0.055303 0.058039 -0.035099
-0.029984 0.008887 0.049858
0.018911 -0.040192 0.034422
0.002372 -0.054507 0.016113
0.002897 -0.058844 -0.018765
0.036439 0.062216 0.022258
0.085217 -0.004697 0.013213
0.001422 -0.055319 -0.023526
0.031174 0.064247 0.013650
0.034493 -0.065731 0.033417
0.080028 -0.021861 0.021669
-0.034138 -0.039575 0.049616
0.086523 -0.065167 0.010871
0.005936 -0.048085 0.033074
0.077843 -0.024427 -0.036059
-0.010695 0.022623 -0.020587
0.017316 0.054207 -0.031879
0.040417 0.061668 0.023177
0.020734 0.008484 0.033303
0.059560 -0.039829 0.031642
0.086774 -0.025652 -0.021186
0.037717 0.063939 -0.023400
0.010572 -0.030900 0.044446
0.007288 -0.025271 -0.021828
0.069169 -0.039830 0.026621
-0.074512 -0.025280 0.034925
-0.000392 -0.053857 0.003820
0.038607 0.063787 0.011552
0.046686 -0.023260 0.037754
0.012017 0.063416 -0.016758
0.022871 -0.028872 0.033752
0.044818 -0.015231 -0.050104
0.074587 -0.052744 -0.035638
0.036804 -0.054752 -0.046789
0.043389 0.062951 -0.025196
0.006039 -0.061102 -0.024940
-0.065345 -0.027413 0.041590
0.016229 0.010133 0.034246
0.066045 -0.015494 -0.045272
-0.045698 0.008762 0.045191
0.009411 0.019849 0.031136
-0.023886 0.030808 -0.020208
0.072595 -0.052787 -0.037465
0.086019 -0.022933 0.011835
0.081732 0.045692 -0.006131
0.014180 -0.057950 -0.034685
-0.050259 -0.019607 0.046040
0.014132 0.064357 0.005297
0.079078 0.049389 -0.012582
0.037012 -0.025429 -0.048749
-0.007940 0.019972 -0.020423
-0.002217 0.043854 0.019145
0.044926 0.062579 0.013216
0.010957 0.054644 0.018365
0.029626 0.063848 0.017408
-0.009510 0.021669 -0.020664
-0.077571 -0.004259 0.034832
0.072154 0.053838 0.011377
0.012765 0.015261 0.033783
0.049261 -0.021335 0.037742
0.008597 -0.024468 -0.024349
0.053933 -0.040188 -0.045457
0.066506 0.057516 0.009170
0.022261 0.066408 -0.006382
0.002832 0.049633 -0.021523
0.015344 0.013719 0.033547
0.018056 -0.030541 -0.034066
0.010194 0.060247 0.010083
0.079087 -0.023319 -0.034894
-0.084578 -0.034992 0.022670
0.016428 0.011572 0.034269
0.027584 0.065148 -0.020501
0.084450 0.012658 0.012907
0.052736 0.061394 -0.019939
0.046842 0.062347 0.013104
0.008457 0.056074 0.014012
0.065396 0.036636 0.028925
0.033849 0.040354 0.032536
-0.073732 0.015528 0.027261
0.001121 -0.054805 -0.023607
-0.002641 0.046941 0.015418
0.002464 0.021308 0.030525
0.025314 -0.058204 0.030681
0.078639 0.034184 -0.030268
0.076010 0.052317 0.005852
-0.013391 0.034660 -0.019973
-0.075677 -0.009374 0.034641
0.012563 0.058641 0.016143
0.057769 0.060473 -0.015999
0.066542 0.058875 -0.003412
-0.064433 -0.012793 0.043401
0.061351 0.055059 -0.035943
0.023528 -0.012246 0.034221
0.065068 -0.039830 0.029174
-0.067345 0.024809 0.015163
0.047381 0.061087 -0.034381
-0.039667 0.032219 0.020223
-0.007677 0.029003 0.027456
0.027191 0.065151 -0.020917
0.016270 -0.066432 -0.034691
-0.088971 -0.008458 0.017746
-0.087737 -0.003837 0.022294
-0.047219 0.000270 0.046621
0.079628 -0.066432 -0.029503
0.087624 -0.054968 -0.004149
0.062475 0.059527 -0.015992
0.017526 -0.049248 -0.034923
-0.071609 -0.011355 0.040590
-0.037814 -0.051353 0.033936
-0.069996 -0.053293 0.016686
0.085248 -0.036143 0.004244
-0.012076 0.024562 0.028932
-0.052494 0.026419 0.029005
0.001619 -0.058136 0.002988
0.084469 -0.010181 -0.027247
0.083963 -0.052472 0.009347
0.018889 0.004651 0.035177
0.061377 0.054800 0.024384
0.081410 0.046982 -0.004804
0.027134 0.065645 -0.003891
-0.028092 -0.037078 0.048191
-0.001066 -0.052907 0.018857
0.041314 -0.066432 0.034770
-0.008467 -0.054431 -0.002399
0.003684 -0.000337 0.048499
0.005572 -0.033474 -0.020956
0.025999 -0.066432 -0.045358
0.018448 0.064829 0.006945
0.007792 -0.048488 0.031495
0.077355 0.050228 0.005157
0.085873 0.016196 -0.020732
-0.086876 0.000764 0.013036
0.017958 0.007405 0.034793
0.068933 0.053389 -0.030214
-0.009194 0.021628 -0.020803
0.016743 -0.059810 -0.034407
0.074930 0.037843 -0.033623
0.013488 -0.020389 -0.033088
0.013484 -0.053855 -0.028196
-0.059248 0.022594 0.030967
-0.010663 -0.053941 0.014910
0.016171 0.065204 -0.012043
0.022582 -0.008484 0.034912
0.075269 0.051102 0.011445
-0.036396 -0.030588 0.047700
-0.024800 0.018174 0.039662
0.046686 0.062463 -0.029648
0.083654 0.028155 -0.022961
-0.056553 0.009151 0.043949
0.024077 -0.024573 0.033920
0.068670 0.052613 0.018907
0.046000 0.061915 0.009982
0.009321 -0.053212 -0.023304
-0.050000 -0.017844 0.046074
-0.087903 -0.004828 0.022364
0.011437 -0.063917 -0.033341
-0.055583 0.030039 0.015088
0.060803 0.059946 -0.009907
-0.057386 -0.009655 0.045109
0.045039 0.057151 -0.041824
0.006825 -0.015210 0.048053
-0.043498 -0.039521 0.048721
0.073622 -0.009042 -0.040326
-0.053094 -0.021004 0.045339
0.008571 0.056927 -0.020782
-0.044639 0.031081 0.020407
0.035213 0.061785 0.022465
0.018321 -0.041011 0.034388
-0.080345 -0.012655 0.033559
0.043904 0.036411 -0.046341
0.072379 0.053700 -0.023228
0.018146 0.063569 -0.025495
0.040695 0.058553 -0.040888
-0.073712 -0.042730 0.026222
0.002832 0.049633 -0.021523
-0.009390 -0.045014 0.037321
0.016897 0.008764 0.035171
0.014229 0.009376 0.038559
-0.002650 -0.044386 -0.022824
-0.076881 -0.031465 0.030447
0.001717 -0.041658 0.042076
0.037725 0.057324 0.029596
0.019461 0.013224 0.032658
0.084450 0.012658 0.012907
-0.022729 -0.057465 0.021937
-0.001751 -0.055629 -0.009134
0.026803 -0.061347 -0.045292
-0.002418 0.013878 -0.021111
0.015553 -0.043704 0.034154
-0.044042 -0.062518 0.014723
0.077173 0.025484 -0.034380
0.076010 0.052317 0.005852
0.067884 -0.049920 0.027975
0.065823 0.058195 0.008400
-0.002956 -0.054885 -0.012843
0.034493 -0.065731 0.033417
0.022585 -0.041871 -0.038635
-0.005981 -0.048547 -0.023346
-0.059647 -0.034433 0.042640
-0.085088 -0.033789 0.022679
-0.051682 0.028365 0.026420
0.056581 0.057707 -0.034499
0.035829 -0.059415 0.035389
0.004573 0.016821 0.033489
-0.024810 0.016965 0.038254
0.009700 0.016028 0.034415
0.085911 -0.044208 -0.004306
-0.008315 0.049215 0.003668
0.088562 0.000493 0.003099
0.086017 0.030575 -0.014693
0.060267 0.059394 0.001019
-0.022312 0.029801 -0.020119
0.043461 -0.013956 0.037794
0.011900 0.013353 0.034493
0.050258 -0.033984 0.034749
0.031174 0.064247 0.013650
0.018641 -0.035973 -0.036306
-0.085951 -0.000626 0.023309
-0.006447 -0.035281 0.049587
-0.042490 0.033063 0.016915
0.030760 0.050071 0.030633
0.009458 0.062465 -0.008217
0.022036 0.004796 0.033537
0.016171 0.065204 -0.012043
0.039827 -0.027598 -0.048701
0.001344 -0.056191 -0.020932
0.068854 0.054581 0.016101
0.082115 -0.055146 0.014778
0.087670 0.020543 -0.013115
-0.013313 0.046946 0.001751
0.007793 -0.047333 0.034233
-0.001743 -0.053548 0.010668
-0.024800 0.018174 0.039662
0.046900 0.061690 0.020459
0.048059 0.045497 -0.044804
0.038942 -0.048660 0.033510
0.019581 0.062228 -0.028777
0.020435 -0.034171 -0.038312
0.076036 0.051900 0.006224
0.060013 0.020046 0.033642
0.073784 -0.066432 0.023964
0.056325 0.046200 0.030786
0.005065 0.043778 0.022308
-0.009628 0.020917 0.031724
-0.087718 -0.028198 0.016157
-0.013515 0.030624 -0.020358
-0.073527 0.011991 0.026672
-0.040957 -0.019970 0.046799
0.077092 0.050570 0.005642
0.042023 -0.037113 -0.046419
0.076885 0.040697 0.017833
0.008268 0.015421 0.033727
0.041750 0.060642 0.024307
0.006957 -0.015159 -0.023424
0.072088 0.048008 0.019761
0.012633 -0.060281 -0.029841
-0.012264 0.021545 0.031314
0.013103 0.003447 0.039546
0.050975 0.061759 0.013363
-0.018004 0.014423 0.042921
0.080465 0.046168 0.006965
0.072808 -0.064607 -0.040947
-0.084141 -0.019268 0.029427
0.086746 0.008814 0.007644
0.019724 -0.052369 -0.037709
0.033198 0.064106 -0.023922
-0.016461 0.026873 -0.020511
0.005500 -0.026857 0.048230
0.010015 -0.007208 -0.031008
0.011268 0.063690 -0.006731
0.031640 0.062399 -0.033065
-0.066452 0.022543 0.025918
-0.041296 0.014294 0.041147
0.054707 0.058039 -0.035162
0.041002 0.063017 0.002937
-0.048940 0.018057 0.039469
0.007188 -0.060931 -0.021347
0.002157 -0.036990 -0.022797
0.041324 -0.052618 -0.046969
-0.028903 -0.039432 0.049913
-0.071784 -0.019554 0.040434
0.053113 -0.025700 0.036778
0.032336 0.064441 -0.014407
-0.057273 -0.033344 0.044448
0.078698 0.048918 0.007076
-0.030953 0.039285 -0.008141
0.087537 -0.054749 -0.008613
0.034343 0.064416 -0.005137
0.011753 0.059449 0.014047
-0.052717 -0.058628 0.026360
0.028474 0.065677 -0.018616
0.002805 -0.030946 0.046136
-0.019389 0.034696 -0.019208
0.034458 0.063940 0.017780
-0.047490 -0.020510 0.046388
-0.066752 -0.049807 0.029670
0.025433 0.053099 -0.038470
-0.040103 -0.046648 0.042592
-0.051452 0.029456 0.021758
0.087481 -0.025921 0.006677
0.037880 0.058817 -0.040686
0.051584 0.059392 -0.035491
-0.028653 0.030780 -0.020932
0.017630 0.063427 -0.025063
-0.006063 -0.048505 -0.023136
0.063386 0.059582 0.004286
0.080054 0.047654 0.005715
0.010217 -0.059576 0.019472
0.036115 -0.055197 0.034249
-0.032857 0.008987 0.046203
0.088723 -0.062293 0.003057
-0.040048 0.035016 -0.014676
0.078698 0.048918 0.007076
0.037824 0.022161 0.035301
0.054158 0.061244 0.015249
-0.066132 -0.031537 0.039733
0.057759 0.055084 -0.039000
0.077975 0.048757 -0.021976
0.000111 -0.040624 -0.022899
0.025840 -0.066432 0.029800
0.053738 0.058219 -0.035454
-0.035052 0.027806 0.028279
0.006566 -0.025232 -0.020932
0.066709 -0.065731 0.029398
0.015697 0.065172 -0.005975
0.056576 0.060316 -0.005134
-0.063752 -0.021399 0.043603
0.015489 0.061941 -0.025563
0.002422 0.039242 0.024192
0.073289 -0.031775 0.025370
0.013788 -0.024381 -0.032008
0.021766 0.064350 0.010845
0.061061 0.059979 -0.008054
-0.081384 0.004590 0.023125
0.006241 -0.051173 -0.023904
0.007974 -0.048090 0.033225
0.011072 0.016371 0.032996
0.013853 -0.065731 -0.006132
-0.059468 -0.042929 0.037194
-0.002220 -0.052833 0.018790
0.051899 0.061000 -0.021240
0.029707 0.062857 -0.031973
-0.019805 -0.049833 0.033524
0.073826 0.031916 0.024030
0.067303 -0.057994 0.030853
0.039207 -0.046055 0.033309
0.069974 0.035209 -0.038626
0.041903 -0.048338 -0.046243
0.022750 -0.062767 -0.043312
0.078888 -0.060043 0.021970
0.013940 -0.044116 0.033985
0.012730 0.039521 0.027077
0.076232 -0.066432 -0.034018
0.052870 -0.046946 0.033419
0.017826 0.062799 0.015311
0.043988 0.060085 -0.036541
0.055433 0.060794 0.010722
-0.036379 0.035732 -0.015208
0.075252 0.051185 -0.023655
0.028503 -0.054018 0.031420
0.061343 0.059318 -0.001489
0.058345 -0.061076 0.035594
0.016863 0.062214 -0.027006
0.075236 -0.062767 -0.038720
-0.088209 -0.010462 0.023051
0.062419 -0.027779 -0.045804
-0.017189 0.022593 0.030722
0.018130 -0.047112 -0.031528
0.010182 -0.048221 0.030221
0.060187 0.057016 0.020505
0.034779 0.037970 -0.044853
0.014278 -0.066432 -0.032179
0.042903 -0.058785 0.036669
0.077438 0.050397 0.005314
0.039885 0.064006 0.013620
-0.085542 0.002296 0.022627
0.010574 -0.036543 0.042493
0.082890 0.019703 0.014802
0.000762 -0.054289 0.010668
0.065190 0.056327 -0.029357
0.030591 0.060793 -0.037296
0.081663 -0.043292 -0.024133
0.013754 -0.065832 -0.006132
0.024567 -0.015249 -0.044529
-0.001370 -0.053613 0.007198
0.071708 0.042516 -0.035135
0.073565 0.034325 -0.035960
-0.086190 0.000862 0.022510
0.070888 0.056655 -0.005792
0.046565 0.053223 0.031112
0.017824 0.065587 -0.015221
-0.064111 -0.056849 0.017005
0.045789 0.062862 0.006263
-0.004586 -0.052129 0.031781
0.064186 0.059019 -0.012405
-0.039113 0.034539 -0.016083
-0.044739 0.019483 0.035526
0.081719 0.013756 0.017901
0.038276 0.056604 -0.042059
-0.043912 -0.055658 0.032346
0.081503 0.045839 -0.001738
0.050385 -0.036884 0.034137
0.081415 0.046932 -0.007892
-0.045043 0.022726 0.031806
-0.011282 -0.034337 0.048354
0.012947 -0.045632 0.033787
-0.078744 0.013376 0.023357
0.059226 0.057328 -0.033531
-0.058394 -0.045980 0.038384
-0.076077 -0.048496 0.012532
0.029448 0.063522 0.016778
-0.014242 0.033751 0.024252
0.058506 0.060208 0.010485
0.022682 -0.015281 -0.043418
0.081732 -0.039831 0.012071
-0.036951 0.033819 -0.017420
0.003743 -0.057065 -0.023928
-0.012580 0.023588 0.030793
-0.061459 -0.051711 0.027139
0.000699 0.005224 0.047041
0.066134 -0.066432 -0.042028
0.054363 -0.047511 0.033196
0.011235 -0.015305 0.042880
0.076184 0.050444 -0.022781
0.045346 0.062484 0.003110
0.046472 0.062127 -0.014812
0.018581 0.005955 0.034514
0.089441 -0.006071 -0.011745
-0.050416 0.011076 0.042223
0.038926 0.037261 -0.045779
0.078937 -0.050377 0.017562
0.006433 -0.062192 0.013217
0.003055 0.029630 -0.024358
-0.028941 0.026701 0.029078
0.011991 -0.066432 0.021866
0.045021 0.061680 -0.007734
0.020396 -0.037348 0.034111
0.013433 -0.047765 0.029611
0.023911 -0.026611 0.033724
0.057852 0.060914 -0.006324
0.017003 -0.042547 0.034213
0.018231 0.064876 0.006810
0.016389 0.065163 -0.013052
-0.020129 0.005701 0.048424
-0.032754 0.038233 0.004168
0.045873 0.062511 0.013141
-0.024533 -0.012596 0.048323
0.001114 0.002111 0.048804
0.043902 -0.025159 0.037433
-0.012130 0.009479 0.046901
0.076793 0.047984 0.013095
-0.000741 0.018364 -0.021917
0.064379 -0.047131 -0.041843
-0.077506 -0.035217 0.027754
0.071367 -0.054703 -0.039126
0.046450 0.062645 -0.026321
0.030894 0.064230 -0.026248
0.008511 0.058832 -0.017983
-0.051392 0.031074 0.015684
0.000642 -0.055096 -0.023344
0.034827 0.064277 -0.022649
0.015905 0.065275 -0.010892
-0.062710 0.022101 0.025252
0.070932 -0.042067 -0.037383
0.088247 -0.006366 -0.017454
0.057616 -0.045833 -0.044480
0.052036 -0.055106 0.035192
0.069623 0.055341 0.011994
-0.010626 0.046733 -0.014741
0.042400 0.024057 -0.047763
0.046178 0.062888 -0.018518
-0.047178 -0.060113 0.024159
-0.042921 0.006817 0.047105
-0.002861 0.014295 -0.020897
0.020028 0.064445 0.009652
0.047972 0.062141 -0.025326
0.062486 0.059529 0.003652
0.006566 -0.025232 -0.020932
0.052672 0.054837 -0.041612
-0.061957 0.001694 0.042259
0.070852 0.056678 -0.006125
0.080486 -0.027958 -0.031606
-0.021637 -0.058515 -0.002332
0.047024 -0.048983 -0.046529
0.015521 0.034200 0.029346
-0.066957 0.018501 0.026282
0.078939 -0.047467 0.016840
0.041470 0.058348 0.028624
0.074845 -0.007139 0.027015
0.048398 0.000881 -0.049617
0.013677 0.012070 0.034766
0.049928 0.062095 -0.020388
0.049004 0.057622 0.027503
0.015521 0.034200 0.029346
-0.009500 0.022081 -0.020844
0.028127 0.065498 -0.012619
0.038013 0.063964 -0.024380
0.075067 -0.061271 -0.038533
0.006639 -0.032747 0.043324
0.030970 0.057250 0.028634
0.041400 -0.046117 -0.045981
-0.071032 0.002976 0.037835
-0.076741 -0.041821 0.023653
-0.041932 0.034989 0.006194
0.055785 -0.049529 -0.045399
0.023850 -0.031530 -0.041583
0.074785 -0.050035 -0.034642
-0.089500 -0.019175 0.011665
-0.032726 -0.001789 0.047950
-0.000545 -0.041585 -0.022897
-0.042569 0.034848 -0.008736
-0.035727 0.036762 -0.012475
-0.056993 -0.008710 0.044683
0.087030 0.028572 -0.001204
0.077697 0.049599 -0.020825
0.009485 0.061806 -0.006732
0.028318 0.061383 -0.035351
0.008595 -0.017930 -0.029536
0.022257 0.066409 -0.005882
-0.000713 -0.055200 0.007475
0.010579 0.007321 0.039224
0.078903 0.048615 0.006932
-0.019590 0.039958 -0.016692
-0.023483 -0.058529 0.017290
-0.027288 -0.039270 0.049998
-0.035977 -0.037294 0.047733
-0.041513 0.033911 -0.012181
0.063351 -0.065731 0.031179
0.038139 -0.052830 -0.046531
0.075345 0.053616 -0.006423
0.006169 -0.024281 -0.025710
-0.011121 0.022890 -0.020475
0.030148 -0.061450 -0.046251
0.023803 0.003012 0.033623
-0.007703 0.020071 -0.020777
0.010444 -0.064801 -0.032117
-0.066073 -0.010814 0.044374
0.086228 -0.036888 -0.001833
0.038989 0.055901 0.030354
0.020747 0.010010 0.033050
0.059601 -0.021328 -0.047964
0.088060 0.004908 0.004257
-0.074469 0.017672 0.023892
0.078208 -0.054212 -0.032238
0.078801 0.049470 0.000872
-0.061488 -0.039442 0.038634
0.021449 0.003421 0.034082
0.023312 0.064583 0.010883
0.021940 -0.001537 0.034819
-0.009049 -0.051616 -0.023614
0.042153 -0.066432 0.034693
0.019694 -0.047146 0.029905
0.030233 -0.037838 -0.043334
-0.029822 0.009861 0.045485
0.042979 0.062107 -0.008606
-0.033715 -0.062058 0.012425
0.001308 -0.038509 -0.022801
0.020452 0.063871 -0.025882
-0.032326 0.009015 0.049747
-0.011606 -0.053920 0.027273
0.085530 0.004677 0.011611
0.087350 -0.053928 -0.006732
-0.066510 0.023400 0.024724
0.082776 0.001015 0.017416
0.015412 -0.044383 0.032642
-0.060104 0.019799 0.029690
0.004872 -0.030380 -0.023626
-0.066017 0.014153 0.034990
0.061173 0.057951 -0.031365
0.006636 -0.010518 0.048061
0.069089 -0.044221 0.026504
0.006160 -0.059125 0.013995
0.059764 0.059737 -0.024150
0.054706 0.058179 0.023135
0.085541 -0.040719 -0.012333
0.009157 -0.039000 -0.022429
0.078937 -0.050377 0.017562
-0.011873 0.044142 0.013265
0.057669 0.054105 -0.039946
0.071616 -0.063024 0.029420
0.007209 -0.051044 -0.024452
0.014386 -0.046116 0.031044
-0.039338 -0.031365 0.047453
-0.068015 0.010412 0.032999
0.012818 0.064632 0.000289
0.024333 -0.037283 -0.040326
0.078715 0.048715 -0.019520
0.045344 -0.024442 0.037600
0.059698 0.059845 0.013259
0.057270 -0.066432 -0.045536
0.005107 -0.058889 -0.024517
0.019555 0.063283 -0.027430
0.057529 0.042361 -0.043461
0.079510 0.048326 -0.017925
0.037542 0.061426 -0.035677
-0.075953 -0.011991 0.034661
0.003319 0.024864 -0.024276
0.047861 0.041536 0.033225
-0.042784 -0.005233 0.046915
-0.011269 0.023560 -0.020793
0.018969 0.004527 0.035420
0.080839 -0.066431 -0.032957
0.050876 0.058911 0.024092
-0.067151 0.015697 0.029098
-0.003833 0.039362 0.022438
-0.082650 -0.038291 0.022967
-0.089382 -0.012366 0.017720
0.003905 0.005961 0.045402
-0.067736 0.019310 0.024680
0.017450 0.060716 0.018707
0.058392 0.058426 -0.032946
0.007746 -0.050610 0.026950
0.018300 0.005528 0.037308
0.051618 0.061289 -0.020677
0.073654 0.052798 0.009350
0.058559 -0.025244 -0.047881
-0.006215 -0.053425 0.016083
-0.051708 0.028230 0.026501
0.002134 -0.058847 0.003531
0.084919 -0.026528 0.012768
0.045403 0.059954 -0.036809
0.018336 -0.066432 -0.040432
-0.078267 0.005259 0.026562
0.073455 0.046125 -0.031566
0.012465 0.015491 0.033670
0.021798 -0.023149 0.034880
-0.025801 -0.013420 0.048281
0.086090 -0.053069 0.003140
-0.008522 0.042640 0.017618
-0.084653 0.005974 0.013036
-0.061116 -0.027220 0.044301
-0.077041 -0.005684 0.032622
0.039053 0.063260 0.008449
-0.006425 0.018436 -0.006132
0.087724 -0.060352 0.005515
0.057529 0.042361 -0.043461
-0.021186 0.026345 0.027791
0.004741 0.006664 -0.024504
0.079729 -0.058036 -0.032283
0.028455 0.065578 0.002793
0.014073 0.065077 -0.009339
0.042755 0.054767 -0.043052
0.061016 -0.062789 -0.047276
0.071594 0.056226 -0.006220
