-0.005830 0.039883 -0.065849
0.043664 -0.071546 0.069821
0.092580 -0.034037 0.024821
0.014456 0.003573 0.054105
-0.005176 -0.050636 0.056215
0.032857 0.008616 0.060211
-0.076122 0.013495 0.003981
0.023317 0.026763 -0.006968
-0.057521 -0.011974 -0.056649
-0.041899 -0.019570 -0.011827
-0.008232 0.046726 0.014922
0.027768 -0.081660 0.038932
0.093401 -0.025062 0.011371
0.045567 0.015814 0.030367
-0.020480 -0.010653 0.027649
0.012552 -0.063494 0.065598
0.041253 -0.089500 -0.027532
-0.058773 -0.014927 -0.049779
-0.064890 0.060649 0.020480
0.078896 -0.002991 0.054819
-0.035831 -0.017133 -0.003959
0.025416 0.005829 0.061473
0.014385 0.016419 -0.042981
-0.044365 -0.018608 -0.008920
-0.008368 -0.003920 0.050304
0.043855 -0.084571 0.035004
0.077945 -0.000602 0.035112
-0.087906 0.011662 -0.033274
-0.090201 0.068033 -0.051854
-0.060903 -0.007752 0.004467
-0.038220 0.016113 0.019854
0.074636 0.009175 -0.021832
-0.015341 0.082645 0.020450
0.055286 -0.010427 0.076168
-0.075240 0.004452 0.001834
-0.012912 -0.022917 0.046872
-0.089368 0.049868 -0.050220
0.054762 -0.035564 0.081484
0.078485 -0.001173 0.035044
0.031496 0.016300 0.025258
-0.025495 -0.020371 -0.000460
0.025882 -0.086068 0.002516
-0.000095 -0.064553 0.035079
0.091148 -0.043691 0.047247
-0.082193 0.027983 0.000723
-0.024411 -0.000611 0.019104
-0.020328 0.012281 -0.070221
-0.000306 0.011120 0.024798
-0.015533 0.001904 0.026336
0.005505 -0.071451 0.024264
0.000281 0.008828 0.027110
-0.054421 0.034526 -0.077367
-0.073967 0.007228 -0.060340
0.092952 -0.043968 0.015339
0.013568 0.019920 0.043288
0.057028 0.016863 0.003581
0.084884 -0.025893 0.058947
0.045771 -0.083585 0.037575
0.032309 0.009595 0.057552
-0.065843 -0.016480 -0.030817
0.010481 -0.018424 0.072067
0.090021 -0.009243 -0.018807
0.000769 -0.061773 0.040318
0.075460 -0.057948 0.064645
0.074748 0.002826 0.035006
0.017901 0.007629 0.063416
0.041253 -0.089500 -0.027532
0.041253 -0.089500 -0.027532
0.089267 -0.031115 0.058425
0.028711 -0.030034 0.081546
-0.036769 0.069849 -0.082395
-0.010114 -0.036512 0.050482
-0.018055 -0.022738 0.043242
-0.084763 0.013205 -0.046517
-0.020175 -0.029099 -0.027530
0.063476 0.015817 -0.027532
0.080205 -0.063243 0.057579
-0.021541 -0.014794 0.023381
0.065902 -0.083634 -0.021750
-0.063970 0.012302 -0.069269
-0.049575 0.019942 -0.075931
0.089433 -0.046215 0.035908
0.087056 -0.033786 0.054792
-0.032013 -0.009013 0.011420
0.034744 0.012610 0.046678
-0.060466 -0.001106 -0.066354
-0.015968 -0.010548 -0.052062
0.056693 -0.068321 0.069771
-0.019701 0.001450 -0.066532
0.040488 -0.061435 0.076639
0.074006 -0.038458 0.073152
-0.010855 -0.037307 0.048090
-0.064737 0.064841 -0.076938
-0.064556 -0.003054 -0.062613
-0.063856 -0.012283 -0.051300
-0.029224 -0.022628 -0.037046
-0.015044 0.089500 0.020334
0.010261 0.077923 -0.046928
-0.027027 -0.000839 0.017816
0.068248 0.004121 0.048794
0.025874 -0.074214 0.062832
0.032674 0.017955 0.019859
-0.083444 0.004413 -0.044332
0.060940 -0.079289 0.039591
-0.024261 -0.011897 0.018356
-0.065850 0.075904 -0.076996
0.036759 -0.072539 0.068631
0.073648 -0.050051 0.070906
-0.047937 -0.019428 -0.012686
-0.010119 -0.021492 0.051477
0.029929 -0.047482 0.080503
0.090986 -0.043309 0.030369
-0.008346 -0.029823 0.055820
0.046829 -0.089020 -0.014899
0.018990 -0.084802 -0.027532
0.001669 0.005325 0.032681
-0.083611 0.064026 0.005789
0.072501 -0.071645 0.057084
-0.037713 -0.011257 0.006284
0.094587 -0.047886 -0.022377
0.053829 0.002854 0.067368
0.037254 0.010291 0.057608
-0.055850 0.075567 0.024773
-0.027926 0.045466 -0.078823
-0.013922 -0.027433 0.045180
0.007285 0.024419 0.016649
0.020279 0.003158 0.061927
0.004848 -0.069022 0.035090
0.085092 -0.001332 -0.021848
0.005476 -0.076279 -0.027532
0.001239 -0.072243 -0.027532
-0.027469 0.001771 0.018084
0.075018 -0.020175 0.072908
0.063237 0.010316 0.035113
-0.053371 0.075387 0.025386
0.065842 -0.067799 0.064745
-0.060307 -0.014054 -0.005480
0.083142 -0.069933 -0.016744
-0.058197 0.042379 0.021263
-0.010985 0.075527 -0.073707
0.068275 0.005432 0.043369
0.013595 0.051647 -0.018692
0.043270 -0.006750 0.076186
-0.045438 0.011746 -0.074814
-0.039973 0.083211 -0.082986
-0.006520 0.003026 -0.056274
-0.094360 0.057353 -0.035951
0.080874 -0.065343 0.035033
0.027163 0.016570 0.054343
-0.039437 -0.001691 0.014534
-0.029769 -0.002867 0.016099
0.043497 -0.064648 0.074858
0.042885 0.020163 -0.011792
-0.087985 0.049999 -0.053035
0.000848 -0.047443 0.063457
-0.017211 -0.035909 0.013904
-0.028051 0.002993 -0.070783
-0.087612 0.068031 -0.056575
-0.021078 -0.026270 -0.008499
0.038684 0.016207 0.028556
-0.041193 0.084694 0.026957
-0.017913 -0.004184 0.037842
-0.019710 -0.025285 0.024142
-0.001317 -0.066152 0.010839
-0.008337 -0.005592 -0.050554
-0.013915 -0.034709 0.041554
-0.084685 0.089500 -0.061789
-0.087020 0.011784 -0.017476
0.039695 -0.071148 0.070232
0.024584 -0.048188 0.079031
-0.005500 -0.038920 0.058128
-0.095216 0.083647 -0.038535
-0.014280 0.016904 0.020915
0.004493 0.048797 0.003447
0.084717 -0.063909 0.036726
-0.029217 -0.019441 -0.005507
0.043499 0.015346 0.034058
-0.021931 0.023106 0.020566
-0.087382 0.084741 -0.057948
0.017701 -0.015171 0.074724
-0.046918 0.011872 0.018624
-0.065701 -0.012405 -0.049069
0.016688 0.035520 -0.044516
0.019844 0.029143 -0.003111
0.060528 -0.003652 0.070516
-0.049095 0.082884 0.026374
0.016531 -0.000489 0.063981
0.075199 -0.041661 0.071918
-0.028374 -0.016754 0.004269
-0.013855 -0.030025 0.044779
-0.015198 -0.006334 0.042942
-0.087951 0.017651 -0.016222
-0.013748 -0.017821 -0.035335
0.078723 -0.054826 0.062776
0.011639 0.026420 0.042487
0.020842 0.031208 -0.030257
-0.058445 0.024412 0.018308
-0.090825 0.082853 -0.004307
0.021864 -0.041690 0.079360
-0.075553 -0.010957 -0.026374
0.021495 0.015373 0.036650
0.052303 -0.071469 0.068319
0.024134 -0.006371 0.073183
0.013452 0.052746 -0.036968
0.088468 -0.006768 -0.013342
0.018384 0.001244 0.063196
0.050932 -0.085120 0.023343
0.061262 -0.000542 0.067368
0.013256 0.084508 -0.029020
-0.078519 0.006625 -0.054721
0.023008 -0.071601 0.064833
-0.025968 0.089500 0.024811
-0.026424 -0.019693 0.036810
0.006941 -0.057547 0.064827
0.065337 0.010460 0.035030
0.041253 -0.089500 -0.027532
-0.038823 -0.019200 -0.045418
-0.032572 -0.017255 -0.049285
0.034343 0.016377 0.025813
-0.000469 0.050621 -0.062012
0.072377 -0.079686 -0.016743
0.051626 -0.086171 0.014041
0.013635 0.012028 0.028861
0.026963 -0.050922 0.078948
-0.011745 -0.046447 0.036394
-0.009037 -0.053643 0.015582
0.043074 -0.019399 0.081082
-0.009649 -0.018875 0.050938
0.090827 -0.016789 0.037081
0.085955 -0.049684 0.048338
-0.058193 -0.008460 -0.061228
-0.072290 0.005685 -0.061461
-0.022165 -0.022718 0.008821
0.051215 -0.072575 0.067441
0.021148 -0.047659 0.078007
0.003117 -0.045055 0.067348
0.046247 -0.034500 0.082818
-0.013875 -0.045453 0.005814
-0.012202 -0.048327 -0.027532
0.092684 -0.031233 0.023369
-0.004446 -0.001621 0.053945
-0.013230 -0.016401 0.050270
-0.040044 -0.018562 -0.008543
0.080900 -0.052597 0.060953
-0.003404 0.059967 0.010659
-0.094406 0.053850 -0.032949
0.077273 -0.072851 0.037060
-0.082635 0.011794 -0.050260
0.034861 -0.086409 0.017400
-0.010113 0.013013 0.042543
-0.077252 -0.003055 -0.049073
-0.077440 0.068546 -0.068745
0.089807 -0.033659 0.041554
0.087871 -0.027524 0.048721
0.012721 -0.017439 0.073056
0.010169 0.068743 -0.009533
0.022409 -0.002458 0.069764
0.086095 -0.056326 0.034224
0.039455 -0.084643 0.032406
-0.007514 0.051566 0.014115
0.071925 -0.037773 0.074504
0.043499 -0.012600 0.078845
0.074227 -0.067276 0.063021
-0.019776 0.065144 0.021814
0.086181 -0.021587 0.050537
-0.015651 0.018334 0.020739
-0.091263 0.051694 -0.046090
-0.064737 -0.005273 -0.060577
0.065325 -0.009032 0.071650
0.067263 -0.082147 -0.003963
-0.072561 -0.012176 -0.018888
-0.019885 0.072619 -0.078362
0.090763 -0.037176 0.035905
0.025501 -0.087214 -0.027532
-0.051993 0.005598 -0.072344
0.059537 -0.078707 0.059375
-0.060903 -0.007752 0.004467
-0.022319 -0.001730 0.037729
0.013147 -0.079617 0.009740
-0.006954 0.014995 0.038318
-0.027729 -0.023259 -0.019739
-0.047451 0.084751 -0.082668
0.024584 -0.048188 0.079031
-0.022880 0.010463 0.019910
0.057524 -0.075665 0.059455
0.017653 0.034246 -0.011765
0.009690 0.003529 0.046693
0.007233 0.019417 -0.029910
-0.003503 -0.030043 0.062451
-0.075770 0.029795 0.008588
0.014535 -0.077017 0.035081
0.061164 -0.082692 0.018767
0.039719 -0.028039 0.082668
-0.065843 -0.014795 -0.014275
0.002336 -0.047193 0.068387
0.079045 0.005209 -0.015078
0.007548 0.072439 -0.003380
-0.029706 -0.001561 -0.069060
-0.079379 0.005513 -0.052990
0.004210 0.089500 -0.030938
0.010261 -0.027369 0.073909
0.056468 0.014716 0.023509
0.015016 -0.002502 0.065127
0.066051 -0.037619 0.077588
-0.073827 -0.010137 -0.041830
-0.015532 0.008342 0.021595
-0.049416 -0.015642 -0.002821
-0.093104 0.046213 -0.019306
-0.025969 -0.005723 -0.064751
-0.036020 0.003735 -0.072743
-0.043802 -0.011330 0.005727
0.048427 -0.072210 0.068552
0.087023 -0.009958 0.020364
0.082023 -0.001132 0.014237
-0.040457 -0.002346 -0.070186
-0.078410 0.042753 0.008592
0.056030 0.016470 0.036860
-0.035337 -0.000864 0.015366
-0.025059 -0.023327 -0.013180
-0.083535 0.035092 0.000724
-0.015506 0.012722 -0.067574
-0.012209 -0.048802 0.009816
0.011782 0.083267 -0.042539
-0.006540 0.071153 -0.070197
0.007134 -0.077552 -0.019810
-0.094593 0.068036 -0.017161
0.075858 0.005128 0.036840
0.031426 -0.040132 0.081950
-0.024297 0.008503 0.019544
-0.000247 0.012968 0.023502
-0.073441 -0.012435 -0.026805
-0.046521 0.019142 0.020146
0.001164 -0.017193 0.064149
-0.040788 0.000916 -0.071920
-0.004469 0.010507 0.039250
0.091518 -0.020585 0.018679
0.049841 0.006308 0.064294
-0.019411 0.050920 -0.076444
0.086697 -0.055174 0.035099
-0.081668 -0.004538 -0.023473
-0.037562 -0.015323 -0.000497
-0.012022 -0.013135 -0.038642
-0.021395 -0.024717 0.003241
0.035697 -0.089148 -0.019882
-0.010025 -0.005651 -0.052756
-0.062201 -0.011922 -0.053512
0.004595 -0.041542 0.069750
-0.083232 0.060867 -0.061953
0.017173 0.037405 -0.019762
-0.052418 -0.011220 0.004087
0.004210 0.089500 -0.030938
0.076344 -0.060414 0.060873
-0.004888 0.035581 0.015240
-0.082901 -0.003054 -0.030033
0.010767 -0.058645 0.067983
0.049266 0.019576 -0.011369
-0.023957 -0.006431 -0.063190
-0.059014 0.000960 0.012125
-0.084531 0.006383 -0.013096
-0.076437 0.006305 -0.057294
0.016296 0.041605 -0.030365
0.012576 0.016944 0.021946
-0.012557 0.007224 0.038589
-0.032982 0.067954 -0.081843
0.021671 0.028965 -0.013140
-0.003341 0.007129 0.027042
-0.058362 0.083450 -0.080281
-0.013215 0.000714 0.038266
-0.024588 -0.024923 -0.035380
0.070135 -0.048119 0.073834
-0.025490 -0.001561 -0.067633
0.073248 -0.041654 0.073280
0.060531 0.013708 0.020479
-0.075498 0.006819 0.002504
0.049319 -0.088911 -0.027532
-0.011658 -0.027425 0.050034
-0.020328 0.012281 -0.070221
-0.011523 -0.013374 0.043201
-0.025731 -0.022696 -0.043007
0.011786 -0.053101 0.071797
-0.015108 0.014230 0.020985
-0.095817 0.071714 -0.030574
0.058165 -0.037060 0.080540
0.002659 0.009775 0.049264
0.090038 -0.022637 0.032232
-0.005735 0.013091 0.038985
0.036703 -0.037537 0.082787
0.070497 0.009232 0.036874
0.061164 -0.082692 0.018767
0.079456 -0.007611 0.050677
0.015865 -0.013382 0.073163
0.084351 -0.000318 -0.027532
-0.001088 -0.040243 0.064041
0.077947 -0.033209 0.070209
-0.066759 0.017666 -0.068893
0.054819 -0.086795 -0.000220
-0.020458 0.027294 0.020387
0.036134 0.008899 0.066018
0.003152 0.019583 0.020199
-0.010600 0.051322 -0.071456
-0.032128 -0.021270 -0.040542
0.020745 -0.004070 0.072905
0.088144 -0.052356 0.032448
0.054761 -0.028988 0.081234
-0.078929 -0.001106 -0.007589
-0.022325 -0.028754 0.037156
-0.001831 0.006350 -0.051327
0.021438 -0.006293 0.072077
-0.025453 -0.007870 0.017733
-0.056013 0.002896 -0.070230
-0.050879 0.024520 0.020467
0.011639 0.026420 0.042487
-0.066724 -0.003054 -0.061048
-0.015039 -0.022792 -0.046334
-0.036565 0.072308 0.026429
-0.021406 -0.016190 0.023681
0.000914 0.066922 0.006339
-0.010855 -0.037307 0.048090
0.026447 0.022402 -0.042313
0.058165 -0.019689 0.078659
0.021534 0.019456 -0.046247
-0.005412 0.063396 0.012587
0.034218 -0.042795 0.082031
-0.037462 0.078603 -0.082784
-0.009949 0.029127 0.018454
0.018389 0.035761 -0.030368
0.003486 0.015988 0.022149
-0.025133 -0.020169 0.001881
-0.067619 -0.004544 -0.059009
-0.003135 0.036519 0.014097
0.009240 0.054566 -0.005832
0.089654 -0.025207 0.037615
0.091649 -0.054253 -0.001693
-0.018017 -0.032142 -0.027533
-0.026806 -0.023060 -0.016338
-0.002744 0.010479 0.024536
-0.001051 0.082987 0.009467
-0.011523 -0.013374 0.043201
0.036703 -0.037537 0.082787
-0.094161 0.049492 -0.026012
-0.009900 -0.054716 -0.027532
-0.063392 0.022543 -0.071838
0.017245 0.038451 -0.034691
0.011656 0.055016 -0.012163
0.076279 -0.043974 0.070596
0.033205 0.015735 0.028708
0.017199 -0.072739 0.056973
-0.089205 0.017561 -0.032334
0.030706 0.006781 0.062798
0.021990 0.022907 0.011575
0.046260 -0.079265 0.057406
0.088022 -0.021318 0.056870
0.047118 0.004906 0.066869
-0.030241 0.003735 -0.071682
-0.071770 -0.003754 -0.000290
0.024768 0.006689 0.059207
0.030274 -0.078771 0.055528
0.047208 0.001305 0.070582
-0.028766 -0.016619 -0.049039
0.079821 -0.032343 0.068280
0.084482 -0.048194 0.065591
-0.059336 0.089500 0.023915
-0.043853 -0.001100 0.014770
-0.056799 -0.001212 0.011855
0.071179 -0.071016 0.048353
0.007441 0.040141 0.003711
-0.009900 -0.054716 -0.027532
-0.004627 -0.051539 0.045606
-0.020425 -0.021040 0.025333
0.029140 0.003890 0.066324
0.080959 -0.033893 0.067027
-0.018711 0.053192 0.020316
-0.019652 0.028365 -0.073236
-0.006197 0.081783 0.014296
0.006046 0.033659 0.009996
0.090395 -0.056912 -0.000057
0.006151 -0.008713 0.063425
-0.069290 -0.003058 -0.058907
0.072276 -0.054978 0.069783
0.009742 0.010875 0.028908
0.010377 0.058366 -0.009324
-0.036415 -0.020771 -0.038095
-0.023695 0.000875 0.019460
0.054756 -0.053893 0.078187
0.007185 0.023964 -0.037523
0.061003 -0.018539 0.077392
0.068275 -0.059357 0.070209
0.030482 0.021798 0.000131
0.031711 -0.001395 0.072099
0.006560 -0.072417 0.036131
0.040411 -0.001179 0.072914
-0.016797 -0.026611 0.037236
-0.086879 0.006926 -0.022934
0.008625 0.052789 -0.046807
0.044483 -0.077873 0.061131
0.000155 -0.069232 0.002517
0.022587 -0.038483 0.079911
0.004489 -0.016801 0.067080
-0.009952 -0.042574 0.044454
-0.023198 -0.017126 0.017934
-0.050515 -0.012738 0.002331
-0.023740 -0.013241 0.042601
0.068506 0.009224 0.023459
-0.007618 -0.005322 -0.028485
-0.029802 0.024926 -0.076207
0.006363 0.011108 -0.027531
-0.082187 -0.003059 -0.035999
-0.094412 0.079305 -0.041718
0.017020 0.036961 -0.016662
0.046260 -0.079265 0.057406
0.052374 -0.025178 0.081256
0.071138 -0.052250 0.071860
-0.014496 0.006355 0.022483
-0.006197 0.081783 0.014296
-0.047620 0.046210 -0.080232
-0.070947 0.011767 -0.064423
-0.029133 -0.015164 0.006490
-0.021658 -0.010300 0.022542
-0.089026 0.017772 -0.034333
0.040907 0.015504 0.033432
0.051215 -0.072575 0.067441
0.017548 0.015236 0.024560
-0.095046 0.060867 -0.023654
0.004052 -0.058688 0.059182
-0.040146 -0.008601 0.009099
0.010319 -0.000825 0.058035
0.008497 -0.074119 0.024258
0.061547 0.012281 0.045822
-0.026417 -0.011517 0.015204
0.085832 -0.038550 0.058184
-0.005222 -0.031800 0.060277
-0.023517 -0.001864 -0.066592
0.024853 -0.075717 0.059208
0.003767 0.008996 -0.040080
-0.055850 0.075567 0.024773
-0.052470 0.021184 -0.075567
-0.007840 -0.004741 -0.028489
0.020689 -0.023520 0.078327
0.046467 -0.016927 0.080161
0.012012 0.021009 0.038188
-0.009228 -0.054533 0.008074
-0.065479 0.005609 0.010595
-0.018884 -0.006866 0.025130
0.006501 0.020677 0.042740
0.022206 0.004910 0.060543
0.065164 0.008552 0.037818
0.020107 -0.078765 0.038945
0.002068 0.046750 -0.057969
0.014951 -0.082485 -0.012464
-0.019542 -0.004464 0.023334
-0.066759 0.017666 -0.068893
-0.007415 -0.048422 0.042294
0.068588 -0.006091 0.067372
-0.062201 -0.011922 -0.053512
-0.021294 -0.027891 -0.031190
-0.018678 -0.004220 0.037836
-0.065850 0.075904 -0.076996
0.073380 0.007016 0.036712
-0.024493 -0.019806 0.042369
0.045724 -0.020204 0.081136
0.006470 0.066587 -0.054073
-0.072058 -0.012214 -0.038557
-0.012808 0.027793 0.019190
0.078022 0.005716 -0.007561
-0.093701 0.053529 -0.037820
-0.005471 -0.001141 -0.028447
-0.078062 0.082506 -0.068840
0.025365 0.020529 0.044318
0.086934 -0.037787 0.054827
-0.000995 0.028182 0.016717
0.001795 -0.032014 0.068012
0.021245 0.022313 0.013376
-0.040094 -0.007471 0.010221
-0.018303 0.000919 0.022397
-0.016377 -0.038656 0.007929
-0.013058 -0.020420 0.045625
0.006381 0.045485 0.002105
0.000434 0.083363 -0.063882
0.008756 -0.067973 0.062502
-0.026987 -0.003848 -0.066661
0.048990 -0.085176 0.025335
0.009370 0.089500 -0.006491
0.084366 -0.016429 0.050536
0.063113 -0.084624 -0.011735
0.074208 -0.034663 0.073169
0.035596 0.019457 0.008136
0.012043 0.082420 -0.014584
0.006363 0.011108 -0.027531
-0.000119 0.056058 0.007562
-0.042907 0.053840 0.025334
0.074717 -0.071449 0.034349
-0.003157 -0.032717 0.062846
-0.031139 -0.004612 0.014763
0.091366 -0.055720 -0.006344
-0.022892 -0.018403 0.017557
-0.043176 0.060868 0.025912
0.077648 -0.061376 0.056797
-0.077252 -0.003055 -0.049073
0.016688 0.035520 -0.044516
0.095658 -0.027721 -0.015410
0.061707 -0.028775 0.079151
0.018221 -0.084123 -0.012467
-0.055951 0.007452 0.015593
0.022206 0.004910 0.060543
-0.026383 0.006327 0.018961
-0.030131 -0.022824 -0.022377
0.006805 0.011315 0.030192
0.013822 0.056791 -0.027532
-0.072621 0.075241 -0.072928
-0.089354 0.024856 -0.016366
-0.082769 -0.001067 -0.038805
0.006172 -0.073645 0.036882
0.008485 0.014189 0.025460
0.060398 -0.031319 0.079816
-0.023317 -0.012004 0.019921
-0.070225 0.066375 0.017943
0.008124 -0.068749 0.059778
0.070509 -0.028204 0.075034
0.003275 -0.067338 0.032217
-0.032477 -0.005657 -0.066887
0.085613 -0.025749 0.056885
0.013167 0.074388 -0.034037
-0.048377 -0.004536 0.012019
0.046037 -0.051410 0.080411
0.006710 0.022706 0.037842
0.030275 0.021418 0.005205
0.078636 0.002543 0.036989
0.026030 -0.041398 0.080660
0.076949 0.007306 -0.021835
0.023090 -0.025466 0.079507
-0.014105 0.019799 0.020535
-0.015360 0.015476 0.020919
-0.048998 0.017680 0.019518
-0.051508 0.053531 -0.080393
-0.049416 -0.016852 -0.005586
0.047947 -0.011980 0.078239
0.005312 0.025799 0.016244
0.052161 -0.086708 0.008000
0.089625 -0.029613 0.041257
-0.077280 -0.007821 -0.039829
-0.037462 0.078603 -0.082784
-0.031703 -0.020639 -0.012539
0.050745 -0.084487 0.046397
0.092214 -0.046408 0.017186
0.048990 -0.085176 0.025335
0.052261 -0.064772 0.073651
0.010232 -0.021868 0.072874
-0.005327 0.089500 -0.069694
-0.042162 0.013201 0.019235
-0.003436 0.008605 0.043793
-0.080533 0.038825 0.005531
0.054559 -0.087530 -0.011344
-0.024255 0.019060 -0.073406
-0.018948 -0.005842 0.027342
-0.015675 -0.034523 0.034584
-0.002371 0.037711 -0.061828
0.054819 -0.086795 -0.000220
0.016703 -0.029126 0.077513
-0.016378 0.069606 -0.076570
0.002112 0.019411 -0.049788
-0.047939 -0.017310 -0.049850
0.026792 0.003721 0.069551
0.006745 -0.067293 0.046437
-0.062717 0.060999 -0.077568
0.017933 0.025892 0.042765
0.025667 0.008879 0.053463
-0.073872 0.000384 -0.057014
-0.032361 -0.011889 0.008062
-0.055857 -0.017779 -0.043997
-0.027926 0.045466 -0.078823
-0.049963 0.046208 -0.079896
0.053104 -0.007208 0.075143
-0.033757 -0.020763 -0.014556
-0.061979 0.035045 0.018715
0.026298 -0.060386 0.075065
0.084731 -0.065452 0.007629
0.049543 -0.079274 0.065153
-0.080624 0.019847 0.000451
0.009032 0.065112 -0.048481
-0.076525 -0.005274 -0.008893
-0.080324 0.005706 -0.051573
0.027760 0.020237 0.044780
0.037293 0.020284 0.042212
-0.043463 -0.020891 -0.017801
-0.047949 -0.010417 0.006372
0.035057 0.009436 0.059182
-0.004481 0.045081 0.012712
-0.010225 0.079650 0.017275
0.030901 -0.069711 0.072890
0.066639 0.012823 0.003916
-0.039676 -0.020772 -0.016853
-0.033872 -0.018024 -0.005391
0.074717 -0.071449 0.034349
0.044115 0.009445 0.059955
-0.024286 0.074075 -0.080064
-0.081742 -0.004542 -0.031935
-0.069623 0.017667 0.010898
0.005453 -0.002714 0.054826
0.084947 -0.058577 0.035147
-0.094298 0.075536 -0.014355
-0.003436 0.008605 0.043793
0.015788 -0.059227 0.071266
0.039181 0.008842 0.061331
-0.069608 0.051698 -0.073012
-0.006816 -0.020779 0.056244
0.041003 0.016199 0.031878
-0.034648 -0.009595 0.009351
-0.023612 -0.015785 0.017872
0.020017 0.022861 0.042828
0.004684 0.025723 -0.046904
0.030482 0.021798 0.000131
0.079379 -0.068868 0.024824
0.052565 0.005936 0.063826
-0.095197 0.064674 -0.033668
0.016987 -0.010236 0.072243
0.032053 0.014819 0.032773
0.016624 -0.080644 0.017403
-0.012043 -0.000345 0.043011
0.085706 -0.035483 0.058982
-0.039991 -0.003715 0.013249
0.028779 -0.080445 0.046473
0.018385 -0.003056 0.068015
-0.025692 0.000968 0.018605
-0.090659 0.038900 -0.043154
-0.000342 0.015106 0.022302
0.054000 0.017327 0.007590
0.006120 0.079983 -0.055825
0.000514 -0.000699 0.059156
0.076567 -0.067028 0.058813
-0.083225 -0.001510 -0.035507
-0.049575 0.019942 -0.075931
0.024037 0.020620 -0.038481
0.020669 0.013017 0.059347
0.001013 0.015524 0.042764
0.058518 0.012639 0.032219
-0.005648 0.011155 0.023340
0.096224 -0.035501 -0.022532
-0.013762 -0.045163 -0.007402
-0.078480 -0.008099 -0.022617
0.013648 0.081565 -0.030554
-0.007958 -0.052773 0.036181
-0.056828 -0.010898 0.002677
0.011153 -0.061008 0.066526
-0.025555 -0.021817 -0.007433
0.081676 -0.003318 0.026748
0.004595 -0.041542 0.069750
0.014713 0.048444 -0.025346
0.041912 -0.089006 -0.008049
-0.070998 0.055362 0.016460
0.015113 0.015043 0.052513
-0.041663 0.028344 0.022063
0.014775 0.033184 -0.000130
0.009032 0.065112 -0.048481
0.060885 0.015857 -0.000443
-0.002542 0.048929 0.010611
0.011461 0.082764 -0.012437
-0.008737 -0.056648 -0.003585
0.060728 -0.067561 0.068571
-0.038481 -0.010548 -0.062798
0.078485 -0.001173 0.035044
0.006390 -0.076667 -0.012466
-0.068587 0.082673 -0.075712
-0.032161 -0.016568 -0.000388
-0.095013 0.075602 -0.017491
0.079077 -0.060250 0.055013
-0.001740 0.003545 -0.049497
-0.056718 -0.017221 -0.010994
0.082306 -0.050749 0.059706
-0.074804 -0.009822 -0.015639
0.085706 -0.035483 0.058982
0.040488 -0.024721 0.082220
0.076076 0.002028 0.030604
0.036906 0.016760 0.024583
-0.019710 -0.025285 0.024142
-0.033813 -0.002640 0.014793
0.094020 -0.046578 -0.001691
-0.067820 -0.010137 -0.051392
-0.008537 0.036118 0.016615
-0.018884 -0.006866 0.025130
0.072274 -0.068152 0.054922
0.015576 0.013899 0.026252
0.032682 -0.088763 -0.019892
-0.045158 0.070050 0.026378
0.036214 -0.070207 0.070795
-0.029070 -0.020485 -0.009088
0.021438 -0.006293 0.072077
0.070511 -0.000273 0.057454
0.050785 0.013166 0.041298
-0.011658 -0.027425 0.050034
0.028587 0.022127 -0.031479
-0.027706 -0.012703 -0.056786
-0.057734 0.068033 -0.079919
-0.092938 0.039074 -0.027181
0.003078 -0.046890 0.066578
0.083234 0.000990 -0.021844
0.001390 -0.037786 0.067354
0.089791 -0.031844 0.041295
-0.084685 0.089500 -0.061789
0.073845 0.009201 -0.008046
0.005098 -0.051751 0.066576
0.021942 0.013492 0.030128
0.080701 -0.011357 0.055068
0.065123 0.010399 0.035534
0.014332 0.048205 -0.020191
-0.051012 0.017413 0.019091
0.016624 -0.080644 0.017403
-0.003346 0.009701 0.043279
0.006247 0.049912 0.000719
0.056721 -0.082555 0.030494
0.025407 -0.064173 0.072928
0.083234 0.000990 -0.021844
0.003651 -0.074243 -0.012466
-0.010141 -0.025665 0.052628
-0.071830 0.002897 -0.060640
-0.079379 0.005513 -0.052990
0.076186 0.007360 -0.008189
0.091325 -0.049010 0.018877
-0.025879 -0.019231 0.002939
0.088041 -0.039184 0.061664
-0.024720 -0.012391 -0.055767
0.085673 -0.043453 0.065570
0.037328 0.002000 0.072897
-0.021100 0.022442 -0.072781
-0.040146 -0.008601 0.009099
-0.023612 -0.015785 0.017872
0.007548 0.072439 -0.003380
-0.055951 0.007452 0.015593
-0.018015 -0.032061 -0.030328
0.035946 -0.023559 0.081784
-0.041663 0.028344 0.022063
0.015720 0.043131 -0.024591
0.003294 0.059959 0.003294
0.005582 -0.043143 0.072892
-0.041936 -0.020200 -0.041823
0.070826 0.008482 0.018552
-0.043984 0.038761 0.023551
0.018850 0.032245 -0.011196
-0.007198 0.015184 0.042788
-0.002052 -0.064657 0.013487
0.084947 -0.058577 0.035147
0.088648 -0.045046 0.041586
-0.023743 -0.021323 0.042783
0.061085 0.006097 0.056961
0.069569 0.012082 -0.008039
-0.031782 -0.018774 -0.045038
-0.029333 0.083397 0.025636
0.040491 -0.041284 0.082638
0.063907 -0.079304 0.032232
0.069885 -0.070255 0.054791
0.055670 0.000604 0.068996
0.081078 -0.011244 0.063883
0.019610 0.023694 0.011692
0.023144 0.027694 -0.038148
0.090810 -0.042223 0.034988
0.023472 0.025919 0.036961
-0.077660 -0.009203 -0.030145
0.013564 0.056424 -0.033142
0.017417 -0.005590 0.069529
-0.090399 0.048034 -0.047296
-0.088815 0.020981 -0.038943
0.030901 -0.069711 0.072890
0.046468 -0.037156 0.082743
-0.046367 0.089500 -0.082799
0.087056 -0.033786 0.054792
0.044596 -0.089373 -0.021991
-0.022184 -0.024576 -0.044233
0.007212 -0.014782 0.068381
-0.015821 -0.027122 -0.031984
-0.002087 0.019365 0.042760
0.018603 -0.067590 0.066524
0.024224 0.015737 0.030011
-0.092752 0.040722 -0.021502
-0.089356 0.017596 -0.025866
-0.020128 -0.028251 -0.014938
0.020658 0.024648 0.008695
0.015409 -0.020491 0.075359
0.027434 0.013332 0.035724
-0.043974 -0.012113 0.004570
-0.024138 -0.025652 0.037079
0.014045 0.049336 -0.036718
-0.005735 0.013091 0.038985
0.096050 -0.033469 -0.014839
-0.007971 0.059431 0.014433
0.031619 -0.087976 -0.004947
-0.030468 -0.015114 0.004704
0.016608 -0.058188 0.072301
-0.000506 0.003461 0.033759
0.016696 0.011926 0.030901
0.012353 0.033254 0.003831
0.069976 -0.064421 0.064645
-0.095761 0.089500 -0.020706
-0.004310 0.010958 0.039399
-0.083141 -0.002352 -0.032748
0.091867 -0.056043 -0.027532
0.002507 -0.060235 0.051572
0.005582 -0.043143 0.072892
-0.015229 -0.013167 0.044607
-0.000685 0.044151 0.010035
-0.042179 0.082608 -0.082986
0.014010 0.009067 0.036215
-0.086777 0.057363 0.000447
0.016608 -0.058188 0.072301
0.064035 -0.021235 0.076941
0.004456 0.089500 -0.031204
-0.014787 -0.008602 0.035721
0.027723 -0.006756 0.074492
-0.035337 -0.000864 0.015366
0.005291 0.046571 -0.052618
0.059820 -0.086173 -0.018473
0.065649 -0.070629 0.060927
0.065337 0.010460 0.035030
0.009703 0.052988 -0.043728
0.011136 0.040463 -0.002273
-0.029794 -0.020046 -0.046375
-0.076504 0.000384 -0.053747
-0.006367 0.047245 0.013687
0.077614 -0.045572 0.068934
0.095005 -0.043531 -0.007875
0.020177 0.019176 -0.041938
-0.008622 -0.036978 0.053409
0.013425 0.076599 -0.023990
0.057787 -0.084118 0.017457
-0.017664 -0.014065 -0.046429
0.026931 0.023340 0.001815
-0.092312 0.068324 -0.046961
-0.095985 0.079051 -0.032187
0.031426 -0.040132 0.081950
-0.085096 0.068212 0.004261
-0.005806 0.000187 0.033378
-0.080208 0.002893 -0.049972
0.077451 -0.005688 0.063484
-0.089808 0.082427 -0.002301
-0.058153 -0.013629 -0.053113
-0.047620 0.046210 -0.080232
0.053271 0.017992 0.002027
0.087163 -0.011549 0.024818
-0.018323 -0.019208 0.043039
-0.008726 0.021185 -0.064482
0.046247 -0.034500 0.082818
-0.010113 0.013013 0.042543
-0.073811 0.017600 0.007449
0.020575 -0.004045 0.070105
0.007534 0.083250 -0.053383
-0.044296 0.044380 0.024251
0.032897 -0.079464 0.055070
0.074995 0.007684 -0.000037
-0.019654 -0.016971 0.036208
-0.064122 -0.007669 -0.058453
-0.070892 -0.007763 -0.051757
-0.014818 0.043601 0.018447
0.052261 -0.064772 0.073651
0.052656 0.014668 0.030533
0.077473 -0.067934 0.037577
-0.004896 0.004492 0.031825
0.026792 0.003721 0.069551
0.036491 0.020694 -0.016261
-0.025508 -0.023582 0.037330
-0.084667 0.002897 -0.038675
0.072880 -0.009837 0.066520
0.031738 -0.068475 0.071450
0.012285 0.007619 0.038371
-0.087862 0.012099 -0.021734
0.063589 0.004883 0.056684
-0.020262 -0.029025 -0.029484
-0.052214 0.089500 -0.081934
0.025416 0.005829 0.061473
0.050221 0.014606 0.033950
0.058204 0.010205 0.058790
-0.089387 0.077405 -0.054303
-0.072921 0.064873 0.016022
-0.089287 0.044376 -0.048886
0.082260 -0.040346 0.064714
-0.000012 -0.004730 0.050212
0.037025 -0.070922 0.072904
0.048439 -0.086298 0.017565
-0.011882 -0.040165 0.041649
-0.044952 0.082746 -0.082876
0.011139 0.065946 -0.012353
0.011648 0.053262 -0.044087
0.031931 0.019250 0.015712
0.019507 -0.015492 0.075623
-0.095881 0.071891 -0.028268
0.082435 -0.070179 -0.007459
-0.064931 -0.016590 -0.021745
-0.042744 0.003142 -0.072816
-0.003044 0.052601 0.010630
-0.003157 -0.032717 0.062846
0.037311 -0.067513 0.072967
0.011461 0.082764 -0.012437
0.066428 0.007056 0.041431
-0.005224 0.021104 0.019957
0.034321 0.019516 0.010714
0.059465 -0.080959 0.034063
0.083652 -0.016792 0.064247
0.041230 -0.059163 0.077736
-0.065838 -0.014963 -0.041109
-0.053692 0.022532 0.019455
-0.068752 0.011848 -0.066134
-0.013211 -0.018154 0.044028
-0.006197 0.081783 0.014296
-0.088095 0.040725 -0.050403
0.041003 0.016199 0.031878
-0.025969 -0.005723 -0.064751
0.009572 -0.007440 0.065498
-0.079149 0.000966 -0.005873
-0.012909 -0.042121 0.033148
0.033242 0.007371 0.062759
-0.017517 -0.005916 0.026274
-0.083452 0.002762 -0.013449
0.083491 -0.010608 0.041768
0.004188 0.089500 -0.025158
-0.026740 -0.013688 0.012861
-0.000722 -0.049958 0.058967
-0.013283 0.034706 0.018460
-0.086830 0.046037 -0.001840
0.069790 -0.060739 0.068119
-0.071687 0.049864 0.015345
-0.069107 0.024330 -0.068848
0.066116 0.010088 0.026748
-0.067593 0.024356 0.013773
-0.019170 -0.029622 -0.012876
-0.061017 0.049869 0.021133
0.001486 -0.006842 0.055752
-0.025778 -0.017213 0.009501
-0.027089 -0.018040 0.003470
0.039119 -0.080195 0.064655
-0.064960 -0.016060 -0.037777
0.042597 -0.085824 0.024727
0.052142 -0.084103 0.028524
-0.053084 0.075750 -0.081532
0.007781 0.027772 0.013739
0.021131 -0.080513 0.032135
-0.030899 0.022349 0.020940
0.077020 -0.057485 0.062951
-0.080610 -0.003054 -0.041802
-0.022329 -0.002695 -0.065466
-0.047835 0.089500 0.026579
-0.007432 0.000893 -0.055992
-0.080142 -0.006286 -0.022372
0.043074 -0.019399 0.081082
-0.077360 -0.009495 -0.026284
-0.038109 0.004444 0.017259
0.064254 0.012554 0.016836
0.011198 0.034670 0.003705
-0.004445 0.005002 0.028548
0.076329 -0.053955 0.066519
-0.011710 -0.002693 0.036735
0.001653 -0.024752 0.067059
-0.017644 -0.032672 0.024727
0.041256 -0.089500 -0.027378
0.008451 -0.065339 0.057464
-0.064608 0.000966 -0.065206
0.029930 -0.065476 0.073157
-0.019885 0.072619 -0.078362
0.019065 0.033349 -0.019531
-0.001898 0.075528 0.010091
0.059486 0.012988 0.035503
-0.015366 -0.038286 -0.027532
0.029930 0.021116 0.008597
0.001239 -0.072243 -0.027532
0.040080 0.014385 0.039715
-0.012483 0.089500 0.018857
-0.007902 0.084775 -0.071758
0.028429 0.021555 0.043252
-0.055897 -0.015444 -0.005441
0.008435 0.089500 -0.024558
-0.062118 0.011983 -0.070167
0.088176 -0.058527 0.013921
0.095322 -0.044462 -0.022346
0.015016 -0.002502 0.065127
0.036781 0.020778 -0.023472
0.085345 -0.028742 0.058945
0.001192 -0.062504 0.055225
-0.093878 0.089500 -0.012047
0.013551 0.075820 -0.028115
-0.015506 0.012722 -0.067574
-0.096076 0.089500 -0.023644
-0.006200 -0.060799 -0.001644
0.020107 -0.078765 0.038945
-0.036485 0.000506 0.015860
0.023144 0.027694 -0.038148
0.057253 -0.060403 0.074738
0.064754 -0.066023 0.067494
-0.024997 -0.015643 0.014360
-0.054095 -0.017732 -0.010444
-0.082255 0.082518 -0.064625
0.064949 -0.013476 0.073995
-0.024975 0.002713 0.018997
-0.007618 -0.005322 -0.028485
0.045723 -0.060225 0.077060
0.008097 0.028711 -0.037012
-0.063887 0.004613 -0.067271
-0.028693 0.012518 -0.073464
0.068275 -0.059357 0.070209
-0.017243 -0.005337 0.042794
-0.047845 0.012081 -0.074607
-0.043476 -0.014430 -0.056798
-0.081420 0.010870 -0.004063
-0.056154 0.017677 0.017777
0.005370 0.009366 0.028949
0.003651 -0.074243 -0.012466
-0.039829 -0.014223 0.001209
0.055338 0.014423 0.035501
0.018373 -0.020888 0.076797
0.016399 0.038454 -0.040852
-0.011319 -0.050208 0.012247
0.078809 -0.065364 0.041298
-0.037053 0.045283 -0.080349
-0.000685 0.044151 0.010035
0.019635 0.032609 -0.023646
0.092862 -0.046596 0.011237
-0.022491 -0.025152 0.042630
-0.020061 -0.017472 0.027398
-0.019812 0.058802 -0.077396
-0.013290 0.066584 -0.074656
-0.066020 -0.016370 -0.024860
0.086089 -0.066367 -0.027532
-0.069360 -0.014774 -0.030050
0.024296 0.026528 -0.020400
0.068248 0.004121 0.048794
0.011696 0.049775 -0.030180
-0.022024 -0.014113 0.025935
-0.014650 0.039017 -0.072363
-0.058362 0.083450 -0.080281
-0.025692 0.000968 0.018605
-0.020970 0.003026 -0.067936
0.013933 -0.069501 0.059106
-0.001898 0.075528 0.010091
0.004414 0.062977 0.001626
-0.072003 0.017790 0.009082
-0.024253 -0.022841 -0.007858
-0.046413 -0.006205 -0.067073
-0.031327 0.018788 -0.075397
-0.032297 -0.013723 -0.056763
0.005582 -0.043143 0.072892
-0.008833 0.011411 0.038753
-0.065850 0.075904 -0.076996
0.077568 -0.005088 0.050595
0.026347 0.023013 -0.041931
0.003073 0.009105 0.028115
0.018433 -0.060793 0.071821
0.044125 -0.031022 0.082871
-0.021196 -0.024834 0.006055
-0.022275 0.018196 0.020649
-0.011231 0.072154 0.017647
0.059469 -0.085019 0.003845
-0.058729 -0.016596 -0.045173
0.001750 0.038856 -0.056696
0.043495 -0.041701 0.082553
0.063793 -0.041197 0.078230
-0.067991 -0.013115 -0.012110
0.077508 -0.061437 0.065922
0.005441 0.010356 -0.028257
0.067099 -0.066395 0.065261
0.084747 -0.015765 0.060706
0.069148 -0.076598 0.030371
-0.014777 -0.019270 0.041447
0.046468 -0.037156 0.082743
0.023498 -0.082283 0.046051
-0.080216 0.082509 -0.066788
0.071025 0.006944 0.026952
-0.011437 -0.029919 0.050303
-0.007618 -0.005322 -0.028485
-0.034129 0.021027 -0.076332
0.017514 -0.082798 0.002520
-0.008402 -0.034754 0.060014
0.080451 -0.021014 0.064662
-0.029719 -0.021214 -0.027532
0.078375 -0.016053 0.064662
-0.065039 0.057232 -0.076168
0.028174 0.023611 -0.016856
-0.034441 -0.020744 -0.037076
-0.084697 0.005707 -0.041945
0.080608 0.003187 -0.007450
0.062594 -0.061878 0.071899
-0.036042 0.001042 -0.071666
-0.078302 0.089500 -0.068684
-0.054507 0.037075 0.021653
-0.068527 -0.014532 -0.019250
0.034762 -0.089123 -0.027532
0.086555 -0.063356 0.003714
0.001653 -0.024752 0.067059
0.013322 -0.044377 0.075217
0.000558 -0.042650 0.065280
-0.030524 -0.022861 -0.031391
0.071289 0.011582 -0.027532
-0.022394 0.062697 0.022693
-0.006755 0.045110 -0.067569
-0.003911 0.077105 0.012134
0.038914 0.000969 0.071227
-0.017478 -0.016332 -0.035962
0.004073 0.009451 -0.046399
0.049548 -0.070267 0.072896
-0.004749 -0.063425 -0.004628
-0.027005 -0.007718 0.016252
-0.005191 0.001254 0.035906
-0.036176 -0.013412 0.003473
-0.004429 0.068165 -0.068152
0.019790 0.032396 -0.027532
-0.018528 -0.031652 0.008189
-0.086072 0.089500 0.003848
-0.006672 0.006501 0.028613
0.056580 -0.001639 0.070625
0.008429 0.005542 0.039292
-0.066305 0.045889 0.018162
-0.024720 -0.012391 -0.055767
0.083722 -0.031736 0.062887
-0.047115 0.068212 -0.082172
0.023771 0.006970 0.057500
-0.014232 -0.004160 -0.058831
0.017570 0.032237 -0.005285
0.070697 -0.004488 0.063746
0.030768 0.010013 0.055082
0.007539 -0.070136 0.038945
-0.028744 0.045675 0.022988
-0.024288 -0.025489 -0.027532
0.064452 -0.011226 0.073238
-0.051029 0.026163 -0.076787
0.089442 -0.054000 0.020059
0.066465 -0.080685 0.014796
-0.024074 0.049543 0.022071
0.011550 0.061702 -0.013366
0.033000 -0.086436 0.036842
-0.086721 0.064541 0.001523
0.002706 0.043473 -0.056312
0.005291 0.046571 -0.052618
0.024040 -0.070727 0.066531
0.014275 0.037948 -0.006657
0.050545 0.014980 0.034123
0.071882 -0.054653 0.072905
0.091689 -0.031256 0.048030
-0.075936 -0.000983 -0.002728
-0.085487 0.002896 -0.021601
0.080942 -0.069068 0.036972
-0.015900 -0.000897 0.024908
0.040486 -0.053071 0.080077
-0.022961 0.055552 0.022298
0.074025 -0.065575 0.065880
-0.024255 0.019060 -0.073406
0.024777 0.026056 -0.037377
-0.071276 0.000966 0.003997
-0.002245 -0.014962 0.059018
-0.018966 -0.008691 -0.057610
-0.055142 0.017665 -0.074161
0.090819 -0.016596 0.014038
0.076610 -0.005378 0.054791
0.079376 -0.011568 0.058918
-0.056718 -0.016285 -0.047861
0.010454 0.051285 -0.040339
0.083662 -0.046399 0.059948
-0.049303 0.089500 -0.082445
0.043522 0.017350 0.020666
-0.067443 0.089500 0.020335
-0.003404 0.059967 0.010659
-0.012773 -0.005651 -0.055877
0.015737 0.041960 -0.020446
0.006933 0.084767 -0.001525
-0.026585 -0.016766 0.008273
0.083665 -0.003389 0.036834
0.015127 0.046112 -0.025771
-0.063227 0.003119 0.011008
-0.091812 0.031791 -0.030847
-0.051511 0.056979 0.024646
-0.083001 0.011542 -0.006609
0.054075 -0.076162 0.060954
0.013500 0.039910 -0.007114
0.088698 -0.011456 0.013673
0.027671 -0.084081 0.024258
0.021438 -0.006293 0.072077
-0.077903 -0.003054 -0.008146
0.023113 -0.014178 0.076495
-0.005907 -0.058720 0.014924
0.010122 0.080021 -0.008618
0.065773 -0.044436 0.076895
0.077188 -0.040150 0.070516
0.010787 0.055498 -0.045679
0.052419 -0.085388 0.019124
-0.013419 0.010412 0.021721
0.003608 0.089500 -0.059877
-0.006460 -0.009925 0.047878
0.093962 -0.048568 -0.008759
-0.093563 0.075523 -0.044301
-0.021336 -0.013971 -0.050030
-0.011779 -0.004083 0.044638
-0.018102 0.000611 -0.065165
0.067536 -0.074252 0.060010
-0.022329 -0.002695 -0.065466
-0.009155 -0.007040 -0.049568
0.043499 0.015346 0.034058
-0.072925 -0.010728 -0.014001
0.012043 0.082420 -0.014584
0.084717 -0.063909 0.036726
0.009907 -0.055554 0.069191
-0.000602 0.017530 0.038725
0.000279 -0.059178 0.058708
0.014934 0.043691 -0.017832
0.055177 0.009080 0.054999
-0.018286 -0.031298 -0.035411
-0.003688 -0.066213 -0.027532
-0.052358 -0.019908 -0.017973
0.007482 0.043013 0.001810
0.015605 0.040684 -0.016641
0.080573 -0.071922 -0.003963
0.030349 0.017118 0.028252
0.069040 0.000217 0.058948
0.014217 0.041634 -0.044513
0.006084 -0.024844 0.070710
0.036627 0.007972 0.062605
0.079538 -0.066007 0.035909
-0.084984 0.046340 0.001198
0.088144 -0.052356 0.032448
-0.009424 0.007952 0.026390
0.011951 0.049194 -0.010576
0.090645 -0.052662 0.036973
-0.071529 -0.009156 -0.007605
-0.089641 0.057025 -0.051235
0.009832 0.013714 -0.036012
-0.038467 -0.012377 -0.060218
0.025291 -0.067510 0.072893
0.084166 -0.039557 0.061691
0.013757 0.087500 -0.028032
-0.080533 0.038825 0.005531
-0.011005 -0.051991 -0.015906
-0.046048 -0.008102 0.009292
0.015625 -0.077683 0.035079
0.011786 -0.053101 0.071797
0.004463 0.089500 -0.024857
0.096242 -0.035928 -0.027532
0.093226 -0.050935 -0.007867
0.012401 0.056544 -0.032750
-0.036415 -0.020771 -0.038095
0.092767 -0.015634 -0.016746
-0.008714 -0.031975 0.054995
0.010576 -0.080082 -0.019930
0.045613 0.019616 0.036821
0.082745 -0.059741 0.056979
-0.009258 -0.034139 0.053447
0.034435 -0.063162 0.075299
0.008497 -0.074119 0.024258
0.025374 0.021656 -0.044836
-0.028340 0.071153 -0.081088
0.066011 -0.051477 0.074989
0.032154 -0.088446 -0.012467
-0.083529 0.000964 -0.016212
-0.004469 0.010507 0.039250
-0.089738 0.024349 -0.037559
-0.004434 0.038284 0.014203
0.010903 -0.004911 0.064242
-0.016642 -0.005651 -0.059347
0.037293 0.020284 0.042212
-0.067863 -0.014801 -0.037211
-0.010778 -0.036523 0.054057
-0.031282 -0.019091 -0.006727
-0.001202 0.031524 0.015281
0.049687 -0.077267 0.060955
0.050166 -0.049407 0.080469
0.025624 -0.086934 -0.012466
-0.062397 -0.015273 -0.010849
0.008097 0.028711 -0.037012
0.059870 -0.085325 -0.001693
-0.075458 -0.003059 -0.051891
0.072050 0.008746 0.010411
0.007837 -0.075847 0.009744
-0.008833 0.011411 0.038753
-0.071290 0.089500 -0.074109
0.013485 0.047023 -0.014418
-0.002647 0.019495 0.042380
0.060654 -0.082131 0.043681
0.083011 -0.048488 0.059968
0.043742 -0.079028 0.058627
0.082230 -0.064948 0.026746
-0.091911 0.082686 -0.049345
-0.009952 -0.042574 0.044454
0.046662 0.003057 0.068994
-0.012073 0.066676 0.017847
-0.066305 0.045889 0.018162
-0.040511 -0.006119 0.011413
0.009919 0.035244 -0.028179
-0.081993 -0.001067 -0.041442
0.070372 -0.072949 0.043267
-0.095197 0.064674 -0.033668
-0.012281 0.002320 0.025624
0.075858 0.005128 0.036840
0.039083 0.009733 0.059397
-0.002322 -0.059388 0.033841
0.068301 -0.067401 0.062819
-0.020081 -0.027102 0.008982
0.027851 0.022200 -0.037205
-0.038437 -0.007757 0.010106
0.018794 -0.057954 0.073488
-0.082944 -0.003055 -0.027357
0.053941 0.008722 0.057408
-0.085797 0.005592 -0.018336
-0.004870 0.043175 0.013313
-0.047845 0.012081 -0.074607
0.070813 -0.006558 0.065780
0.003777 0.083059 0.003510
0.091649 -0.054253 -0.001693
-0.069205 0.064357 -0.074490
0.021314 0.025175 0.006474
0.077508 -0.061437 0.065922
-0.015287 -0.041824 0.005591
0.005822 0.078444 0.000183
0.046233 -0.075530 0.064852
0.028765 0.023053 -0.030307
-0.012523 0.003698 -0.062678
0.048197 0.019967 -0.018446
0.014315 -0.063747 0.066952
-0.015306 -0.023780 -0.037794
-0.079118 -0.007673 -0.031800
0.016427 0.017854 0.021096
0.006084 -0.024844 0.070710
-0.016055 -0.028106 -0.046283
0.055414 -0.085970 0.007412
0.012421 -0.059032 0.069100
-0.016256 -0.030523 -0.037443
0.089684 -0.022380 0.035106
0.001834 0.013370 0.026340
0.077775 -0.067117 0.055449
0.037262 0.017327 0.021573
-0.058197 0.042379 0.021263
0.015398 0.023139 0.037529
-0.089481 0.046207 -0.007085
0.088344 -0.033539 0.048870
-0.029830 0.066586 -0.081180
0.009476 0.046750 -0.042163
-0.087335 0.014733 -0.039895
-0.046413 -0.006205 -0.067073
0.000033 0.051297 0.007931
0.005083 -0.027372 0.070354
0.021943 -0.073409 0.061257
0.002619 -0.055119 0.060488
0.095009 -0.028180 -0.001694
0.047416 -0.014836 0.079385
-0.082349 0.017328 -0.053035
0.027996 0.021374 -0.027532
-0.082409 0.002896 -0.010589
0.014230 -0.055744 0.072153
-0.006913 0.028198 -0.064480
0.043479 -0.057097 0.078568
-0.020310 -0.013123 0.042773
-0.001472 0.018562 0.020756
-0.005024 -0.034845 0.060173
-0.069165 0.000383 0.005508
-0.032572 -0.015323 -0.053765
-0.074532 -0.006285 -0.048937
-0.020133 -0.027329 -0.000540
-0.035360 0.083211 0.026626
0.021943 -0.073409 0.061257
0.026965 -0.054434 0.077787
0.014849 -0.047372 0.075355
-0.039319 0.049627 0.024902
-0.048084 0.072009 0.026181
0.075706 -0.030465 0.071916
0.028838 0.007008 0.061454
0.093553 -0.040211 0.036831
0.046464 -0.005764 0.075443
-0.011412 0.029716 0.018645
0.039471 -0.084361 0.035180
0.014617 0.049389 -0.030100
0.013359 0.055648 -0.019790
0.006514 0.026639 0.036972
-0.082753 0.038611 0.002684
0.000281 0.008828 0.027110
-0.091312 0.046131 -0.011948
0.003154 0.060681 -0.058716
0.034621 0.005209 0.066329
0.029189 0.014339 0.032736
0.012641 0.012191 0.028077
0.015116 0.016750 -0.046343
-0.059835 -0.017387 -0.040959
0.086423 -0.061496 0.037089
-0.033813 -0.002640 0.014793
-0.017145 -0.033798 -0.019271
0.008432 0.078287 -0.051340
-0.002560 0.025740 -0.059176
0.030153 -0.083379 0.035021
-0.062873 0.027814 -0.073120
-0.064369 -0.016178 -0.017493
-0.070985 0.082498 -0.074252
0.072589 0.005927 0.045064
-0.049280 0.045695 0.023882
0.010360 -0.066334 0.059208
-0.092015 0.066377 -0.008647
0.068250 -0.014082 0.072558
0.025945 -0.080750 0.056387
0.063367 -0.060093 0.072567
-0.011649 0.060346 -0.073138
0.002068 0.046750 -0.057969
0.090810 -0.042223 0.034988
-0.018948 -0.005842 0.027342
-0.015469 -0.022836 0.041186
0.034436 -0.031849 0.082581
0.017570 0.032237 -0.005285
0.066051 -0.037619 0.077588
0.013565 0.000130 0.067070
-0.065668 0.000520 0.008214
0.090771 -0.028224 0.034000
-0.082793 0.039072 -0.058799
-0.092942 0.089500 -0.009241
-0.023774 -0.025594 -0.022306
0.094020 -0.046578 -0.001691
0.084467 -0.064523 0.036974
-0.032475 0.066584 0.025618
0.009148 -0.050446 0.070977
-0.025969 -0.005723 -0.064751
0.013568 0.019920 0.043288
-0.018701 0.002284 0.021769
-0.007730 -0.045973 0.054422
-0.031243 -0.016391 0.000950
0.006470 0.066587 -0.054073
0.073248 -0.041654 0.073280
-0.019728 -0.028671 0.028282
0.068602 -0.072864 0.048817
0.019304 0.019765 0.044633
0.003608 0.089500 0.003813
0.015625 -0.077683 0.035079
0.076842 0.007183 -0.015080
-0.076550 0.012180 -0.059149
0.082742 -0.046136 0.061921
-0.084205 0.023923 -0.052299
0.020044 -0.064431 0.072891
0.002377 0.075225 -0.061162
0.094669 -0.047638 -0.027532
-0.028505 -0.017932 0.000674
0.005843 0.010091 -0.028250
-0.000923 -0.069343 -0.012467
0.018077 -0.035906 0.078365
0.007566 0.068042 -0.052162
0.009131 0.049380 -0.003976
0.052370 -0.056074 0.077902
-0.081954 0.055364 -0.062779
-0.016256 -0.030523 -0.037443
0.091105 -0.031841 0.033943
0.047144 -0.086800 0.036910
-0.078719 0.062700 0.011003
0.053805 0.019026 -0.022187
-0.018849 -0.012916 0.036454
0.084633 -0.046048 0.057866
0.086942 -0.004213 -0.015054
-0.000004 -0.052408 0.057908
0.074998 0.008685 -0.014899
0.000403 0.032473 0.014141
0.014588 -0.009171 0.070345
0.001895 0.023115 0.018540
-0.079325 0.067673 -0.066919
-0.034782 -0.003894 -0.068668
0.058030 0.017683 -0.015188
0.007030 0.019385 -0.032794
-0.000803 0.009063 0.026396
0.054470 -0.087795 -0.018659
0.081842 -0.045284 0.063829
0.034757 -0.087253 0.009738
-0.002855 0.009748 0.039033
0.076963 -0.027453 0.070499
-0.016017 -0.016255 -0.028632
-0.030325 -0.010865 0.011046
0.065984 -0.083422 -0.015088
0.004848 -0.069022 0.035090
0.014552 0.038830 -0.046376
-0.019344 -0.027317 -0.044172
-0.037731 -0.007157 -0.066400
0.015720 0.043131 -0.024591
0.011355 -0.029936 0.074839
-0.043138 -0.005838 -0.067659
-0.059835 -0.017387 -0.040959
-0.087020 0.011784 -0.017476
0.051797 -0.081895 0.041591
-0.018713 -0.024866 0.030498
-0.017459 0.010128 0.020862
-0.015109 -0.037816 0.042680
-0.046198 -0.010807 -0.062233
-0.050879 0.024520 0.020467
-0.016790 0.027429 -0.071584
0.069370 -0.078643 0.017190
-0.046854 0.000961 0.015522
0.019790 0.032396 -0.027532
-0.074474 0.032226 0.010281
-0.068358 -0.001510 0.004879
0.049174 0.005228 0.068746
-0.046252 0.002896 -0.072458
-0.077656 0.011806 0.001658
-0.093040 0.053353 -0.040780
-0.015151 -0.023625 -0.046194
0.028501 0.022586 0.001472
-0.036416 -0.020196 -0.040984
-0.004018 0.036049 -0.063307
0.006304 -0.045921 0.070155
-0.033315 -0.015437 0.001239
0.033076 0.003511 0.067990
0.090645 -0.052662 0.036973
-0.040263 -0.012394 0.004257
0.032191 0.021577 -0.009071
-0.080737 0.049505 -0.063309
0.056374 -0.083753 0.023459
-0.003481 0.023112 0.019164
-0.010006 0.013208 -0.063521
0.074859 -0.075328 0.012445
-0.052323 0.042373 0.022909
0.046167 -0.085720 0.023952
-0.012935 -0.012119 -0.044400
-0.005456 -0.001137 -0.051603
0.007494 0.017238 0.043336
0.016846 -0.003140 0.067109
-0.026778 -0.020084 -0.003212
0.049430 -0.059718 0.076865
-0.016528 -0.005053 0.037489
-0.001638 -0.029914 0.064535
0.013440 -0.015344 0.072928
-0.093488 0.068032 -0.012707
0.020842 0.031208 -0.030257
0.038684 0.016207 0.028556
0.005483 0.061851 -0.055198
0.057253 -0.008598 0.074738
0.019486 -0.066447 0.068239
0.040024 0.020516 -0.027532
-0.001688 0.019260 -0.056069
-0.014075 -0.007074 -0.055463
0.048427 -0.072210 0.068552
-0.060195 -0.012002 -0.054899
0.016036 -0.079314 0.024275
0.040481 0.018138 0.014686
0.007702 -0.060159 0.063430
-0.037764 -0.014107 0.001756
0.021541 -0.001632 0.068611
-0.087501 0.017689 -0.041508
-0.088055 0.035090 -0.048638
-0.050379 -0.019494 -0.041841
-0.047835 0.089500 0.026579
-0.029968 -0.023079 -0.027532
-0.010146 -0.008912 -0.028529
-0.054392 -0.003059 -0.067616
0.076567 -0.067028 0.058813
-0.003258 0.030279 0.016494
-0.083845 0.057523 0.004687
0.018880 0.018558 -0.046393
0.081849 -0.026385 0.064746
-0.094169 0.083627 -0.042943
0.078723 -0.054826 0.062776
0.094052 -0.041697 0.008551
-0.071830 0.002897 -0.060640
-0.012202 -0.048327 -0.027532
0.007129 -0.053147 0.067978
0.088251 -0.025205 0.044930
-0.045853 -0.003753 0.012964
0.061364 -0.002311 0.068998
0.090645 -0.052662 0.036973
-0.082901 -0.003054 -0.030033
0.060571 -0.085666 -0.011705
0.078611 0.004052 0.004081
-0.058445 0.024412 0.018308
-0.054654 0.082865 0.025276
-0.004119 0.008985 0.025138
-0.052285 -0.012333 -0.058459
-0.016470 -0.031313 -0.034895
-0.025477 -0.018439 0.007146
-0.052511 -0.005900 0.009963
-0.095985 0.079051 -0.032187
0.011524 -0.071871 0.059653
0.020880 0.026691 -0.046405
0.006941 -0.057547 0.064827
-0.082202 0.000965 -0.043851
-0.095680 0.083619 -0.020283
-0.019654 -0.016971 0.036208
-0.022584 0.041866 -0.076645
0.020208 -0.078441 0.056443
0.039695 -0.071148 0.070232
0.033000 -0.076093 0.063161
0.000085 0.002136 0.036738
-0.055095 0.089500 -0.081266
-0.001258 -0.013540 0.064384
0.005358 -0.067312 0.056371
-0.072512 -0.001107 0.001300
0.080709 -0.027255 0.066522
0.012844 0.053125 -0.039808
0.047322 -0.040992 0.082380
-0.018536 -0.031474 0.042768
-0.035720 -0.016182 -0.001709
0.069976 -0.064421 0.064645
-0.089244 0.017777 -0.023656
-0.010992 -0.032574 0.050531
-0.001788 -0.067682 -0.005170
-0.081993 -0.001067 -0.041442
0.026965 -0.022377 0.080027
0.002504 0.082738 -0.061319
0.021887 0.025611 0.004192
-0.038329 0.001450 -0.072053
0.031713 -0.087458 0.002517
0.026212 0.024848 -0.013627
