0.021812 0.033876 -0.005583
-0.016873 0.039754 -0.033976
0.000175 -0.054392 -0.101485
0.058514 0.105659 0.006702
0.117876 0.091547 -0.022990
0.049268 0.023601 -0.105658
0.029480 0.048506 -0.054457
0.051056 0.095583 -0.024638
-0.054285 -0.001426 -0.100104
0.136790 0.017645 0.006043
-0.012195 -0.036367 -0.027157
-0.029361 0.036631 -0.046133
0.008893 -0.051862 -0.080945
0.129001 0.064886 -0.024601
0.027373 -0.018379 -0.016680
0.104416 0.093190 -0.034801
-0.023232 -0.010469 -0.018354
0.103326 0.105882 -0.012699
0.035486 -0.038192 -0.076931
0.008095 0.013047 -0.013545
0.057641 0.035610 -0.061972
0.068649 0.073141 0.049244
0.055660 0.030988 -0.066226
0.056435 0.000500 -0.080311
0.064815 0.087117 0.040738
-0.019504 -0.051103 -0.107783
0.083384 0.069619 0.048546
0.002154 0.053071 -0.085524
0.046059 0.042485 -0.063159
0.024241 0.071936 -0.014758
0.013749 0.043038 -0.024990
0.024040 0.049418 -0.116316
0.018573 0.047998 -0.017876
0.049935 -0.000169 -0.061892
0.081285 0.087154 0.044385
-0.020022 0.038720 -0.034768
0.061219 0.100949 0.026162
0.074148 0.074650 0.046823
0.136162 0.013743 0.011018
-0.001452 -0.040692 -0.029993
-0.003935 -0.054559 -0.107782
0.051466 0.045390 -0.057073
-0.051838 0.016905 -0.103946
0.018125 0.045989 -0.017159
0.006737 0.027756 -0.018710
0.020891 -0.004618 -0.005708
-0.051007 0.019247 -0.103875
0.081735 0.110670 0.006784
-0.001838 0.039820 -0.028889
0.072053 0.043245 -0.054077
0.101355 0.101222 -0.026991
0.108761 0.088102 0.035286
0.014758 0.047129 -0.042165
0.131314 0.065778 0.006630
0.129679 0.076478 -0.000980
0.074082 0.087283 -0.043537
-0.041533 0.018343 -0.039468
0.055735 0.065392 -0.063358
0.023845 0.051785 -0.033513
0.054955 0.100902 -0.019080
-0.010687 -0.053884 -0.115450
0.042967 0.033260 -0.096572
0.028036 0.009970 0.011003
0.031345 0.035126 0.018988
0.125311 0.072960 -0.021492
0.032146 0.087413 -0.013587
0.127678 0.038583 0.027866
0.120921 0.021085 0.038590
-0.030141 0.019324 -0.024706
0.044653 0.085986 0.024067
0.027968 0.066301 -0.035197
0.127523 0.084918 0.004099
0.024692 -0.000981 -0.002421
0.041824 -0.026420 -0.059169
0.058927 -0.002366 -0.071965
0.052412 0.016167 -0.112223
0.041935 0.055885 -0.045626
0.048911 0.100960 0.000797
-0.015472 -0.020526 -0.018474
0.077815 0.094184 0.040131
0.077775 0.036386 -0.053736
0.052474 0.061032 -0.045739
0.084338 0.020826 -0.054439
-0.003723 -0.029455 -0.020548
0.014884 0.046037 -0.032825
0.020858 -0.031316 -0.026401
0.067454 0.015615 0.052611
0.067352 0.055521 -0.049591
0.029991 -0.043407 -0.082245
0.028662 -0.000540 -0.019974
0.003179 -0.052711 -0.082603
0.129742 0.065720 -0.013999
0.026120 0.035402 0.007750
0.041036 0.067012 -0.050951
0.020064 0.048199 -0.041756
0.056083 0.009120 -0.079272
0.066632 0.041829 -0.055624
0.009400 0.040459 -0.026626
0.045578 0.096319 0.011480
-0.017339 0.030015 -0.023786
0.061773 -0.009530 -0.065872
0.078144 0.083103 -0.045526
0.133111 0.064885 -0.014378
0.088916 0.024929 -0.053839
-0.015474 -0.023250 -0.019585
0.050281 0.021466 -0.096287
0.069692 0.109412 -0.005576
-0.040728 -0.036231 -0.103696
0.048509 0.000500 -0.051249
0.124526 0.064805 0.031509
0.039230 0.038641 -0.080916
-0.045427 0.007491 -0.041936
0.071413 0.049331 -0.052025
-0.052849 -0.005093 -0.085359
0.069799 0.057633 -0.049408
0.120151 0.089931 -0.020979
-0.015970 -0.050974 -0.088630
0.041936 0.070788 -0.051511
0.015002 -0.052777 -0.112537
0.028254 -0.046059 -0.096056
0.059402 0.094554 0.032779
0.071821 0.098886 0.034374
0.036840 0.086484 -0.015942
0.020650 0.048499 -0.070484
0.028215 0.064320 -0.024895
-0.050013 0.016553 -0.081488
0.068209 0.105819 0.019934
0.024313 -0.010310 -0.003468
0.051909 -0.018140 -0.048609
0.028538 -0.035764 -0.040758
0.110898 0.090851 0.031746
0.040640 0.066755 -0.052028
-0.006912 0.003026 -0.013169
0.052474 0.061032 -0.045739
0.053145 -0.014037 -0.090893
0.052726 0.097386 -0.023709
0.047728 -0.022534 -0.082402
-0.008601 -0.031619 -0.022423
-0.009467 0.047235 -0.052174
0.015861 0.032494 -0.015183
-0.022193 -0.046464 -0.072046
0.043102 0.064927 0.034772
0.068566 0.083071 -0.043562
0.075463 0.110063 -0.008295
0.010240 0.050955 -0.075511
0.044534 -0.016609 -0.048940
-0.040026 -0.013526 -0.032319
-0.013935 0.037702 -0.029320
0.002764 -0.034766 -0.023952
0.090674 0.106380 -0.021750
-0.022225 0.034695 -0.030698
0.006507 -0.053303 -0.091850
0.104124 0.000501 0.050593
0.095700 0.050476 0.049946
0.078188 0.052713 -0.051244
0.031945 0.047434 0.017952
-0.047042 -0.027909 -0.107719
0.108868 0.063065 -0.042554
0.035362 0.043353 -0.071334
0.097029 0.072839 0.045678
-0.008627 -0.036655 -0.026430
0.083233 0.099944 -0.034696
-0.028841 -0.045732 -0.096467
0.126964 0.056553 -0.024530
0.033585 0.049585 -0.049720
0.027595 0.054716 -0.033778
0.125700 0.087923 0.008723
0.069072 0.092813 -0.039130
0.063403 0.015614 0.051271
-0.027975 0.031660 -0.032318
0.073830 0.005986 -0.056208
0.106046 0.017467 -0.049300
-0.019801 -0.048573 -0.079544
0.006505 -0.037976 -0.027344
0.020655 -0.016996 -0.008887
-0.008387 -0.051307 -0.075799
0.089856 0.040683 -0.052345
0.013287 0.044684 -0.030428
0.043385 -0.018249 -0.042060
-0.054816 -0.001138 -0.111376
0.104915 0.064866 -0.047646
0.033180 0.043663 -0.074899
0.097842 0.060256 0.047801
0.054009 -0.009580 -0.112125
0.059193 0.059262 -0.046636
0.087178 0.110124 0.009501
-0.018439 0.045254 -0.055822
0.001295 0.035287 -0.024254
0.027824 -0.044936 -0.083040
0.090675 0.104897 0.025217
-0.036890 -0.018365 -0.030693
0.062389 0.105098 0.016625
0.019114 0.008745 -0.007960
-0.001779 0.053774 -0.093087
0.011086 0.042910 -0.029055
0.041345 0.063950 -0.037096
0.127144 0.031787 0.029863
0.022129 0.070889 -0.010271
0.006755 -0.006157 -0.013382
0.037200 0.085828 0.009276
0.028293 0.080608 -0.009276
0.024064 0.022810 0.000365
0.110440 0.085837 0.035147
-0.015472 0.018437 -0.017728
-0.026149 0.019353 -0.022264
0.015366 -0.042033 -0.037529
0.042077 0.036792 -0.078504
0.079092 0.085429 0.044919
-0.014478 0.043055 -0.039534
0.038867 0.038263 0.030293
0.070319 0.084119 0.047241
0.057967 0.072681 -0.053777
0.022708 0.070800 -0.003026
0.122029 0.069876 -0.028117
0.112934 0.093359 0.027477
0.061365 0.053724 -0.049442
0.124906 0.023703 0.033928
0.135993 0.015611 -0.011487
0.014073 -0.046818 -0.055921
-0.013186 -0.051808 -0.089112
0.044758 -0.026414 -0.075620
0.090674 0.106380 0.021750
0.107749 0.097886 -0.027178
0.026448 0.072562 -0.022969
0.001068 -0.004335 -0.012851
0.133164 0.020826 0.020003
0.053393 -0.006933 -0.093542
0.104301 0.090201 -0.041214
-0.012146 -0.053055 -0.102117
0.032004 0.051494 -0.043216
0.061907 -0.005672 -0.066168
0.052111 0.063964 -0.042436
0.020487 0.013897 -0.007180
0.085335 0.103682 -0.028717
-0.010587 0.007060 -0.014049
0.082497 0.000500 0.055002
-0.000268 -0.018345 -0.015551
0.024064 0.022810 0.000365
-0.024860 0.049083 -0.121000
-0.050766 -0.006543 -0.069890
0.133151 0.057371 -0.001140
0.088139 0.094179 -0.040012
0.083610 0.060398 -0.050162
0.016806 0.045716 -0.021609
0.130237 0.073021 -0.003855
0.054500 0.000985 -0.116011
0.041497 -0.018916 -0.040174
0.061291 0.099088 -0.028780
0.037531 0.082942 0.013091
0.073830 0.005986 -0.056208
-0.041769 0.032708 -0.084924
0.054608 0.004213 -0.099806
0.025741 0.010018 0.003656
0.053144 0.103027 -0.006123
0.072397 0.099616 -0.033633
-0.012574 -0.020068 -0.017560
-0.050951 0.014863 -0.085102
0.018886 0.049167 -0.078577
0.018250 -0.043566 -0.047490
0.010259 0.029964 -0.018396
0.015230 0.034568 -0.016460
0.022590 0.055455 -0.024138
0.115442 0.009933 -0.043913
0.092634 0.094625 0.038744
0.058390 0.054133 -0.050935
0.039024 0.037565 -0.094283
0.062850 0.038000 0.049367
-0.009598 0.050893 -0.074226
0.027363 0.070809 -0.042572
0.119860 0.076399 -0.028857
0.055170 0.024077 -0.071254
0.133979 0.051671 -0.001271
-0.000415 -0.047265 -0.047644
0.070151 0.091002 -0.040684
0.043737 0.086960 -0.036328
0.037200 0.085828 0.009276
0.023610 -0.040924 -0.047546
0.085482 0.110991 -0.000758
-0.010977 0.032777 -0.023702
0.104869 0.063942 0.044248
0.124722 0.063017 0.027023
0.136536 0.024390 0.004877
-0.034804 -0.009894 -0.025038
0.047443 -0.021122 -0.075321
0.076116 0.051310 -0.051445
0.086962 0.096634 0.038064
0.040226 0.023086 0.034139
0.118371 0.086830 0.026378
-0.045300 -0.026878 -0.081423
-0.030383 -0.012991 -0.022612
0.051185 0.027247 -0.075749
0.037850 0.065339 -0.055218
0.073353 0.024249 -0.055871
-0.004132 -0.038134 -0.027157
0.121803 0.074538 -0.032309
0.021853 0.026668 -0.005514
0.066740 0.108227 0.009146
0.029769 -0.014576 -0.022680
0.076563 0.047671 -0.052369
0.027172 0.070772 -0.035483
0.016504 0.024661 -0.012902
0.132681 0.045384 0.014782
0.001529 0.011601 -0.013806
0.106194 0.102026 -0.021024
-0.044497 -0.009026 -0.039467
0.068959 -0.008953 -0.058019
0.057857 0.033284 -0.063061
0.131376 0.046658 -0.018214
-0.012350 0.002979 -0.014046
0.020186 0.050135 -0.013239
-0.016841 -0.029290 -0.023129
-0.039071 -0.021760 -0.037435
0.062139 0.034371 -0.059932
0.110619 0.101306 0.016890
0.000568 -0.053445 -0.088990
0.125370 0.089928 -0.004557
0.008751 0.037728 -0.024062
-0.022537 0.008785 -0.017781
0.116659 0.006174 0.043069
0.064728 0.085296 0.041441
0.027168 0.066368 -0.035212
0.033852 0.041960 -0.090771
0.054729 0.015368 -0.079593
0.106684 0.065782 0.042915
0.080738 0.099802 0.034841
0.022745 0.047933 -0.071710
0.008927 0.053973 -0.107894
0.132669 0.017647 -0.021613
0.012405 0.049060 -0.058456
0.031231 -0.044744 -0.104703
0.047569 0.097639 -0.014889
0.033708 0.067883 0.014754
0.044936 0.092606 0.017659
0.092743 0.087488 -0.043064
0.070151 0.091002 -0.040684
0.011913 0.008787 -0.011851
0.123760 0.069622 0.025590
-0.052664 0.015638 -0.115647
0.078555 0.087283 -0.044168
0.087374 0.098657 0.035930
0.097202 0.024750 -0.052200
0.054350 -0.005495 -0.106063
-0.011783 0.043869 -0.039534
-0.022380 0.041589 -0.047452
-0.016256 -0.042901 -0.041272
0.040172 0.066084 -0.042043
0.081729 0.105956 -0.024207
0.037208 0.079774 -0.024555
0.076496 0.089384 -0.042959
0.055025 0.005525 -0.089132
0.087374 0.098657 0.035930
0.117751 0.021444 -0.041477
-0.027716 0.020470 -0.023626
-0.004584 0.022540 -0.017259
0.082380 0.088026 -0.044025
0.078702 0.106789 -0.021909
0.134516 0.006307 0.017780
0.107899 0.032106 -0.047294
0.068211 0.109333 0.000374
-0.001712 0.054295 -0.100339
0.025804 -0.006392 -0.009907
0.041024 0.054644 -0.043594
0.126443 0.076429 -0.017226
0.027535 -0.031508 -0.031660
0.011076 -0.048793 -0.062445
0.095481 0.083979 0.043605
0.083610 0.060398 -0.050162
-0.019058 0.030751 -0.025036
0.101388 0.064765 0.049007
0.125056 0.087694 -0.011823
0.133134 0.073614 -0.006519
0.037362 0.039776 -0.104946
0.080738 0.099802 0.034841
0.115566 0.061886 -0.037419
0.043749 0.039021 -0.070551
0.056804 0.102892 0.015913
0.007149 -0.031423 -0.022072
-0.004644 -0.048603 -0.055583
-0.043641 -0.032125 -0.098351
0.008751 0.037728 -0.024062
0.019265 -0.004565 -0.007368
0.003005 0.054045 -0.097476
-0.008801 -0.024431 -0.018585
0.052364 0.065659 -0.047701
0.104416 0.093190 -0.034801
0.033584 0.067154 -0.041880
0.097029 0.072839 0.045678
0.043047 0.070924 -0.049399
0.000009 0.048457 -0.053642
0.126000 0.085956 0.010956
0.023222 0.065373 -0.039459
0.098031 0.051371 0.049140
0.102286 0.093563 0.035746
0.021411 0.048497 -0.082610
-0.007656 0.020369 -0.016761
0.044283 -0.000267 -0.042861
-0.002532 -0.054241 -0.100058
0.038877 -0.032864 -0.068015
-0.037018 0.017040 -0.030035
0.014514 0.030246 -0.015792
0.132298 0.024924 -0.021454
-0.032944 0.010095 -0.023626
0.045768 0.065611 -0.038771
0.107771 0.104291 0.011312
0.042602 0.095631 -0.000072
0.014431 0.065322 -0.015474
-0.017339 0.051232 -0.096801
0.020744 0.051108 -0.027871
-0.012146 -0.053055 -0.102117
0.069937 -0.002782 -0.056786
0.018842 -0.039495 -0.035118
0.078485 0.100924 0.036504
0.030446 0.044304 -0.083495
-0.007487 -0.044998 -0.040173
0.042320 -0.034541 -0.106180
0.058533 0.023084 0.048760
0.103203 0.024699 0.050134
-0.039664 0.009338 -0.030037
0.110077 0.063044 0.041902
0.057564 0.017959 -0.070466
0.132519 0.051544 -0.012314
0.094868 0.064924 -0.051869
0.125330 0.051381 -0.028664
0.026267 0.066403 -0.035803
0.005589 0.000501 -0.012450
0.115930 0.095274 0.021083
0.102137 0.031916 0.049983
0.036118 -0.023537 -0.033828
0.050790 0.038215 -0.064841
0.050103 -0.008096 -0.066968
0.022633 -0.018293 -0.007449
0.016806 0.045716 -0.021609
0.109704 0.031838 0.046308
0.117447 0.026541 -0.041314
0.055048 0.002803 -0.091184
0.046838 0.030553 0.040307
-0.008094 0.039936 -0.030037
0.029620 0.078112 -0.008004
0.108584 0.091797 0.038081
0.072670 0.109981 0.005632
-0.048020 0.022641 -0.085314
0.073505 0.088681 0.042804
0.123263 0.093674 -0.000123
0.090670 0.110405 -0.003394
0.057641 0.035610 -0.061972
0.047127 0.084917 0.028146
0.043598 0.065156 -0.059064
0.021876 -0.023421 -0.021955
0.056659 0.037760 -0.061259
0.063394 0.032318 -0.059935
0.009211 -0.040818 -0.031660
0.035806 0.084456 0.007525
0.113706 0.099202 -0.017153
0.125694 0.088833 0.006321
-0.025105 0.045528 -0.075795
-0.044578 0.022837 -0.062761
0.069548 0.000500 -0.058083
0.038621 -0.031665 -0.061868
0.008299 0.043000 -0.031730
-0.009919 -0.047861 -0.055861
0.010585 -0.018063 -0.014591
-0.027029 -0.012465 -0.020581
0.087736 0.085321 0.048184
0.004111 -0.038379 -0.027415
0.003927 0.037514 -0.025891
-0.043670 0.004830 -0.035533
0.043199 0.080640 -0.030141
0.024410 -0.015888 -0.005021
0.076792 0.052868 0.051025
0.099522 0.073595 0.048130
0.067685 0.082999 0.043291
0.015445 0.048724 -0.055852
0.040707 -0.020885 -0.040720
-0.007052 -0.019603 -0.016410
-0.021685 0.047979 -0.081254
0.035135 0.044403 0.023619
0.057857 0.033284 -0.063061
0.089099 0.000500 0.054608
-0.023539 -0.049280 -0.105896
0.065351 -0.018380 -0.055068
0.136039 0.003991 0.012551
0.042890 0.094372 0.015899
0.007199 0.047767 -0.049417
0.126964 0.056553 -0.024530
0.023214 -0.002750 -0.002469
0.124709 0.090918 -0.005388
-0.016432 -0.052418 -0.115451
0.121597 0.093191 0.012756
-0.045558 0.027852 -0.088408
0.001843 0.023816 -0.017599
-0.034216 -0.034986 -0.056162
0.128163 0.083297 0.001390
0.023283 0.049309 -0.040456
0.033653 -0.031032 -0.040828
0.027592 0.058283 -0.029614
0.121627 0.027921 0.037239
-0.012083 -0.046754 -0.052735
-0.036187 0.024916 -0.035533
0.016445 0.046582 -0.027797
-0.014945 0.009176 -0.015297
0.028149 0.075001 -0.006068
0.117776 0.091887 0.022741
0.074142 0.083105 0.044963
-0.045145 0.030210 -0.100278
0.076435 0.109034 0.014262
0.028722 -0.045030 -0.088573
0.116466 0.069463 0.034737
0.116491 0.076855 0.032621
-0.054306 -0.006782 -0.108253
0.066929 0.101121 -0.029182
0.032873 0.087385 -0.016857
-0.009467 0.047235 -0.052174
0.113385 0.054553 0.040697
0.072347 0.016058 -0.056592
-0.000223 -0.054742 -0.108832
0.102951 0.107183 -0.005725
-0.006694 0.012400 -0.014367
0.007199 0.047767 -0.049417
0.116593 0.082927 0.030541
0.126397 0.083082 -0.021876
0.058188 0.090786 -0.035187
0.003079 0.037088 -0.025643
-0.030695 -0.043300 -0.085179
0.019898 -0.012501 -0.008078
0.099698 0.097092 -0.033756
0.054443 0.094335 0.028911
0.034361 0.042479 -0.078344
0.054853 -0.011739 -0.083089
0.040111 0.039546 0.031778
0.117758 0.094979 0.018378
0.120149 0.069457 -0.030707
0.124147 0.091824 0.005499
0.072670 0.107635 -0.017401
-0.001923 -0.053773 -0.093126
0.094782 0.051675 -0.050008
0.042077 0.036792 -0.078504
0.005301 0.029940 -0.020148
-0.012577 0.018661 -0.017069
0.045374 -0.030355 -0.105220
0.130087 0.063030 0.015857
0.015587 0.028144 -0.014386
-0.032620 -0.020189 -0.027155
0.027226 0.065923 -0.045865
-0.026683 -0.026950 -0.026697
0.130110 0.088050 0.001127
-0.036296 -0.030166 -0.047295
0.113385 0.054553 0.040697
-0.046996 0.024657 -0.085108
0.119166 0.100929 -0.002445
-0.046432 0.012859 -0.052165
0.122316 0.084916 0.021408
0.051567 0.097288 0.021533
0.023992 0.070828 -0.029162
0.080715 0.063210 0.049861
-0.034838 -0.039480 -0.081254
-0.036070 0.040756 -0.102120
0.024157 0.049213 -0.042668
-0.038118 0.034999 -0.073923
0.070285 0.108998 -0.009743
-0.053779 -0.009942 -0.107602
-0.037639 0.029766 -0.051180
0.017856 0.020689 -0.011016
0.048290 0.034354 -0.071696
0.061485 0.030548 0.049538
-0.004085 -0.006776 -0.013210
-0.001266 0.054916 -0.115414
0.016176 -0.046125 -0.055858
0.006801 0.017197 -0.014802
0.056543 0.008243 0.048434
0.054478 0.008684 -0.090749
0.115202 0.085439 -0.030977
0.033653 -0.031032 -0.040828
0.130550 0.035634 -0.023218
0.028855 -0.031176 -0.032707
0.110143 0.103497 -0.009363
0.045859 0.100939 -0.001317
-0.047042 -0.027909 -0.107719
0.029234 0.077106 -0.004390
0.057015 0.020935 -0.070044
0.050651 0.074651 0.035324
0.047045 0.034425 -0.073451
0.060019 0.087707 -0.046659
-0.013054 -0.043508 -0.039534
0.086166 0.069669 0.048408
0.032581 -0.032235 -0.041096
0.001540 -0.054016 -0.096100
0.131621 0.064868 -0.018803
0.006431 0.005877 -0.012606
0.067042 0.091817 0.043494
0.125175 0.063064 0.026473
0.045133 0.089759 -0.025040
0.006755 -0.016706 -0.015451
0.054282 0.007424 -0.098848
0.100843 0.082713 0.042000
0.041246 -0.035464 -0.101621
0.085411 0.085953 -0.044759
0.111740 0.063051 0.040801
0.078707 0.107830 -0.019052
0.115329 0.099205 0.013823
-0.015472 -0.020526 -0.018474
0.034280 0.074987 -0.024638
-0.006694 0.012400 -0.014367
0.008323 -0.039394 -0.029388
0.063881 0.101167 -0.027249
0.031304 0.068873 0.010096
0.083544 0.096194 -0.038713
0.046274 0.034471 -0.074678
0.016800 0.029755 -0.013621
0.083196 0.049071 -0.051840
0.065467 0.000499 -0.061148
0.000577 -0.043002 -0.033647
0.128996 0.000500 0.029388
0.055091 0.017803 -0.076086
-0.048187 -0.020146 -0.077673
0.003197 -0.054460 -0.104486
-0.043358 0.023713 -0.058864
0.077961 0.084624 0.048465
-0.025319 -0.038224 -0.041110
0.011086 0.042910 -0.029055
0.035914 0.086903 -0.012120
0.039361 -0.023370 -0.040826
0.021941 0.045978 -0.005978
0.053224 -0.018383 -0.081000
0.084746 0.108807 0.016134
-0.042751 0.033300 -0.098351
0.030009 0.006523 0.016714
-0.042940 -0.033434 -0.102122
0.093522 0.095303 -0.037931
-0.054851 -0.004306 -0.121000
0.027056 0.071353 0.003862
0.116099 0.096230 0.019210
-0.009299 -0.051812 -0.081117
0.028326 -0.000941 -0.019006
0.009438 -0.053992 -0.110617
0.030517 0.054426 -0.041379
0.043693 -0.033207 -0.112948
0.001028 -0.039155 -0.028054
-0.017838 -0.011919 -0.016644
0.022341 0.063659 -0.010661
0.129283 0.048245 -0.022608
0.019841 0.025361 -0.009260
0.065503 0.008127 0.052241
0.092575 0.085604 -0.047348
-0.044785 0.029786 -0.092876
-0.001452 -0.040692 -0.029993
0.119127 0.072545 0.035843
0.039896 0.088649 0.012016
0.076116 0.051310 -0.051445
0.124782 0.089474 0.009488
-0.037441 0.028324 -0.046123
0.099567 0.086580 0.041239
0.050962 0.089302 0.029849
0.033212 0.059417 -0.034400
-0.021676 -0.049537 -0.096650
-0.018061 0.040912 -0.037435
0.110685 0.086471 -0.034658
-0.038020 -0.028557 -0.049033
0.113595 0.091977 -0.028111
0.127941 0.063130 0.020674
0.052729 0.074706 -0.038990
0.021430 0.055753 -0.025783
0.074113 0.071269 -0.047503
0.079097 0.060439 0.050071
0.050454 0.100442 -0.011905
0.040111 0.039546 0.031778
0.009821 0.023733 -0.016232
-0.030093 0.034319 -0.040282
-0.039661 -0.035410 -0.086048
0.038168 0.048960 -0.052615
-0.030161 -0.018057 -0.024167
0.023318 0.054555 -0.027356
0.051743 -0.007509 -0.078120
-0.035539 -0.004391 -0.024705
0.020650 0.048499 -0.070484
0.117889 0.097803 -0.011390
0.125175 0.063064 0.026473
-0.025397 0.021677 -0.022843
0.119800 0.041877 0.037267
0.066066 -0.014959 -0.058535
0.041080 0.046341 0.031757
0.069692 0.109412 0.005576
0.034099 0.052144 -0.043366
0.042802 0.056898 -0.042386
0.021221 0.032058 -0.007045
0.022458 0.070916 -0.015202
-0.030161 -0.018057 -0.024167
0.127777 0.063062 0.021705
0.016757 0.017156 -0.011261
0.127426 0.072553 0.024701
0.033212 0.059417 -0.034400
0.023469 0.071293 -0.015683
-0.054323 0.008725 -0.121000
0.106739 0.063063 -0.044880
0.102576 0.106705 0.010049
-0.016208 0.035601 -0.027996
0.087276 0.083520 0.045378
-0.031588 0.011718 -0.023063
0.012510 0.045256 -0.034113
0.129498 0.051690 0.021044
-0.049677 0.014567 -0.074096
0.045055 -0.011911 -0.043532
0.013015 0.044962 -0.032036
0.043488 0.037892 -0.072979
0.021104 0.064363 -0.016854
0.100207 0.084916 -0.041594
0.110685 0.086471 -0.034658
0.022872 -0.008351 -0.017834
-0.026149 0.019353 -0.022264
0.043504 0.055049 -0.044221
0.086111 0.028162 -0.053875
0.020232 0.048393 -0.039200
0.068938 0.016456 -0.058312
0.054738 -0.000085 -0.098870
0.092266 0.034714 -0.052555
0.105858 0.010104 -0.049674
0.019515 0.019353 -0.009056
0.068841 -0.009947 -0.056519
0.137470 0.005497 -0.000992
0.010825 0.025594 -0.016496
0.099973 0.065959 0.046027
0.070918 0.065028 -0.055144
0.044026 -0.000272 -0.041968
0.057498 0.008569 -0.074361
0.130087 0.063030 0.015857
-0.038911 0.016475 -0.032314
0.012984 -0.034678 -0.025809
0.105041 0.090918 -0.036091
0.017571 -0.018296 -0.011829
0.105691 0.030918 -0.048528
0.111118 0.089972 -0.032199
0.057641 0.035610 -0.061972
0.024810 0.072643 -0.010479
0.094353 0.098200 -0.034805
0.091730 0.024751 -0.053446
0.042483 0.000500 0.037743
0.063881 0.101167 -0.027249
0.049113 -0.010480 -0.063590
0.121701 0.092777 -0.013303
0.027927 0.070224 0.007262
0.052936 -0.011271 -0.097394
-0.034514 -0.029511 -0.039462
0.002463 0.033730 -0.022972
0.095801 0.092328 -0.039519
0.054337 -0.007935 -0.091029
0.027189 0.063678 0.003931
0.089772 0.101835 0.031147
0.024249 0.064209 -0.015363
0.119127 0.072545 0.035843
0.127183 0.076696 -0.015023
0.021104 0.064363 -0.016854
0.034938 0.066931 -0.047678
-0.007119 0.047647 -0.052172
0.028219 0.060894 0.007497
0.026698 0.000500 0.006235
0.068210 0.107902 -0.012841
-0.011321 0.044607 -0.041860
0.010327 -0.028673 -0.021001
0.016644 0.052442 -0.121000
0.118568 0.063798 0.036305
-0.001755 0.038292 -0.027130
0.020262 0.054110 -0.025719
0.028836 -0.005667 -0.020371
-0.011961 0.052990 -0.100419
0.116610 0.061958 0.036448
-0.018334 -0.015398 -0.017673
0.094863 0.023018 -0.052914
0.099257 0.010038 -0.052274
0.120840 0.096396 -0.003985
0.004360 0.054672 -0.112037
-0.027929 -0.038362 -0.048526
0.133281 0.035589 -0.016420
0.047083 0.029023 -0.085619
0.029909 0.045099 -0.075944
0.012195 0.024240 -0.015480
0.044970 -0.011269 -0.043432
0.041705 0.061264 -0.041076
0.059884 0.099649 -0.026817
0.044535 0.091087 0.018995
0.101737 0.106327 0.013274
0.042469 -0.020849 -0.047861
0.024004 -0.023507 -0.022994
0.005920 -0.051026 -0.071193
0.030517 0.054426 -0.041379
0.065263 0.071365 -0.056132
0.017623 -0.038662 -0.032723
0.053341 0.017206 -0.083305
0.073353 0.024249 -0.055871
0.042195 0.070620 -0.051896
0.120903 0.087445 0.022042
0.088854 0.058330 0.050110
0.031241 -0.032869 -0.039268
-0.041740 0.028205 -0.064573
0.111042 0.088987 0.032945
0.041978 0.040578 -0.069744
0.067493 -0.006700 -0.059573
0.071264 0.094016 -0.042931
-0.051120 0.010592 -0.077497
-0.050011 -0.022476 -0.111423
0.024482 0.065822 -0.042319
0.037998 0.071074 -0.044954
0.050093 0.030550 0.042958
-0.028225 -0.030018 -0.030698
0.058321 0.011682 -0.071235
0.038838 0.054865 0.026710
-0.054118 0.004631 -0.100264
0.063465 0.007230 -0.063246
0.089195 0.109383 0.012400
0.045374 -0.030355 -0.105220
0.122284 0.013938 0.037648
0.048491 -0.018180 -0.046278
0.079734 0.089478 -0.043256
0.098266 0.062807 -0.047620
0.044534 -0.016609 -0.048940
0.022212 0.049539 -0.037154
0.045701 -0.003172 -0.121000
0.059304 0.070805 -0.060335
0.087624 0.039053 -0.052778
-0.040058 0.013430 -0.032318
-0.054020 -0.009951 -0.115089
-0.008570 -0.054250 -0.115079
0.046708 0.095592 0.016127
-0.022197 -0.039872 -0.040238
-0.023879 -0.034854 -0.032318
0.010720 0.036747 -0.021817
0.022853 0.014465 -0.003374
0.066382 -0.003923 -0.060722
-0.023308 0.049392 -0.105895
-0.019043 0.003607 -0.015900
0.011076 -0.048793 -0.062445
0.137364 0.000501 0.004113
0.054961 0.073669 -0.040420
0.053454 0.014255 -0.088717
0.071923 0.108256 0.014758
0.062168 0.083663 -0.049567
0.048472 0.047797 -0.054444
0.006664 0.041019 -0.029178
0.060015 0.050650 -0.051160
0.054228 -0.018369 -0.050170
0.051428 0.091186 0.028841
0.091764 0.000501 -0.054232
0.040882 0.068860 -0.034269
0.051905 0.019907 -0.085927
0.106511 0.096331 0.030227
0.080647 0.082990 0.045720
0.060075 0.042174 -0.057100
0.040871 0.093264 0.004510
-0.026324 -0.031698 -0.030698
0.056083 0.009120 -0.079272
0.083283 0.088744 -0.047853
0.076385 0.015011 -0.055353
-0.026906 0.047780 -0.111495
0.069318 -0.006455 -0.058212
-0.032478 -0.037356 -0.059341
0.053317 0.102193 -0.011730
0.079515 0.035391 -0.053571
0.046868 0.090122 -0.026618
0.117315 0.098736 0.009781
0.030568 0.071513 0.007172
0.087773 0.031975 0.053436
0.053720 0.083789 -0.046445
0.023274 -0.014186 -0.019236
0.032015 0.082442 -0.006140
0.014515 -0.043221 -0.040082
0.054016 0.000500 -0.089596
0.064938 0.101166 0.027947
-0.047360 0.027824 -0.115258
0.049571 0.083405 -0.033659
0.032774 0.072944 0.010737
0.033068 0.070764 -0.044377
0.047655 0.070771 -0.055130
0.113661 0.072968 -0.036383
0.053023 -0.000115 -0.084660
-0.050735 0.013315 -0.079543
-0.042346 0.022284 -0.050495
0.059551 0.008583 -0.069279
0.062050 0.097714 -0.031162
0.084461 0.110965 0.003036
0.050426 -0.004339 -0.066055
0.065215 0.000500 -0.061373
0.069664 0.094576 0.037983
0.089921 0.064893 0.052070
0.059492 0.019883 -0.066830
0.083585 0.055339 -0.050956
-0.026983 -0.047855 -0.115368
0.024233 0.053733 -0.000083
-0.026983 -0.047855 -0.115368
0.117193 0.064948 -0.039549
0.118412 0.096466 -0.013847
0.102286 0.093563 0.035746
0.055081 0.049783 -0.051667
0.084430 0.083522 -0.045592
0.093614 0.109926 -0.003363
-0.006207 -0.037414 -0.026697
0.081272 0.092930 -0.041272
-0.052849 -0.005093 -0.085359
0.032296 0.080955 -0.014042
0.128433 0.044815 0.025189
0.054981 0.000000 -0.118993
0.003121 0.026768 -0.018861
0.134961 0.024862 0.013731
0.031776 0.045556 -0.067658
0.076632 0.087215 0.043985
0.047418 0.064914 0.039146
-0.039163 0.038645 -0.121000
-0.001452 -0.040692 -0.029993
0.129466 0.009565 -0.028444
0.129283 0.048245 -0.022608
0.113506 0.083978 0.033294
0.022994 0.063598 -0.018158
0.086962 0.096634 0.038064
0.014557 -0.049417 -0.072193
0.007648 0.033135 -0.021232
-0.031029 0.043536 -0.089117
0.055465 -0.008533 -0.082977
0.080161 0.094861 -0.039801
0.054337 -0.007935 -0.091029
0.088934 0.091433 0.041766
0.009010 -0.004297 -0.012202
0.129986 0.065668 0.013169
0.118711 0.069148 0.032480
0.126964 0.056553 -0.024530
0.111379 0.101866 0.013619
0.100207 0.084916 -0.041594
-0.006293 -0.054572 -0.115451
-0.039783 -0.026127 -0.049252
0.016169 0.036706 -0.016074
0.046642 0.063289 0.034636
0.024004 0.057745 -0.002438
0.116203 0.077042 -0.032857
0.017138 0.045751 -0.020332
0.051743 -0.007509 -0.078120
0.066382 -0.003923 -0.060722
0.010898 0.048859 -0.056128
-0.054494 -0.006939 -0.115453
0.085266 0.101223 -0.032808
0.047062 -0.025247 -0.088472
-0.026796 0.034382 -0.034768
0.122676 0.090269 0.015127
0.061387 0.067329 0.044194
0.069688 0.108941 0.009262
0.010275 -0.008312 -0.012245
0.022517 0.059399 -0.016030
0.048734 0.036419 -0.068606
0.110303 0.024940 0.046553
-0.001779 0.053774 -0.093087
0.012364 -0.037784 -0.028759
-0.036985 0.040305 -0.107782
-0.004105 0.048004 -0.052165
-0.000473 0.050219 -0.063593
0.122175 0.065711 -0.029218
0.065279 0.106409 0.015492
-0.017304 0.051700 -0.103757
0.035818 0.040977 -0.082676
0.021876 -0.023421 -0.021955
0.021494 -0.018248 -0.008653
0.027756 0.071826 0.005123
0.047080 0.099422 -0.000112
0.049113 0.099329 0.011971
0.039473 -0.035970 -0.088485
0.001414 0.054346 -0.101107
0.061907 -0.005672 -0.066168
0.020876 0.008319 -0.006074
0.053913 0.013022 -0.087568
-0.054522 -0.003188 -0.105895
0.005344 -0.054698 -0.116505
0.030817 0.042856 0.016910
0.046458 0.096303 0.013909
0.048461 0.051098 -0.049682
0.110668 0.099948 -0.020232
0.043520 0.032810 -0.103592
0.007474 0.032012 -0.020641
0.046875 0.100942 -0.008815
0.134997 0.037012 0.008819
0.101405 0.107902 -0.003526
0.038536 0.060843 -0.037223
0.065762 -0.010420 -0.060611
-0.012020 0.050318 -0.073810
0.128183 0.003905 0.030621
0.104416 0.093190 -0.034801
-0.053449 0.000246 -0.088936
0.121042 0.096236 0.003500
0.011251 0.038497 -0.022764
0.028855 -0.031176 -0.032707
0.047085 0.099079 -0.006148
-0.000049 -0.007025 -0.013090
0.072463 0.103150 -0.028065
-0.041745 -0.027596 -0.062503
-0.016256 -0.042901 -0.041272
0.122362 0.062301 0.029958
0.027268 -0.015879 -0.021647
-0.042505 -0.034395 -0.107255
0.087106 0.088787 0.047122
0.049954 0.051722 -0.049222
-0.048512 0.015576 -0.068311
0.063831 0.107943 0.003983
0.123244 0.017533 -0.036399
0.125631 0.031422 0.032057
-0.042854 -0.005351 -0.033976
0.039595 -0.034384 -0.079430
0.116902 0.091693 0.030867
0.112567 0.101583 0.011969
0.028037 0.047683 -0.059602
-0.002143 -0.045587 -0.040255
0.007670 0.038327 -0.025304
0.051299 0.055022 -0.046712
0.024924 0.048065 -0.097562
0.126350 0.082908 -0.013142
0.096194 0.038738 0.051263
-0.039489 -0.032201 -0.068307
0.028359 0.014968 0.012540
0.051819 0.008103 0.045581
0.030128 0.070811 -0.041056
0.069075 -0.009403 -0.056823
0.118731 0.097868 0.007984
0.037879 0.090227 0.001500
0.061031 0.013302 -0.066053
0.136289 0.019353 0.009038
0.132685 0.042053 0.016116
0.034445 0.076836 0.011546
-0.009565 0.043695 -0.037431
0.056721 0.051360 -0.050379
0.041850 0.086585 0.018567
0.063822 0.049604 -0.051947
-0.048028 -0.021601 -0.081335
0.048637 0.094553 0.021480
-0.029978 -0.046064 -0.117185
0.077275 0.101257 -0.032450
0.058908 0.070477 -0.060941
0.015754 0.065536 -0.024262
0.137014 0.000500 -0.007331
0.056144 0.055705 -0.049555
0.133485 0.073530 -0.002841
0.063576 0.107237 -0.009357
0.025677 0.070476 -0.040993
0.057506 0.039876 -0.059476
0.020950 0.026720 -0.007459
0.065790 0.083399 0.042487
0.096006 0.109266 0.005512
0.032177 0.043262 -0.094181
0.095075 0.108736 -0.010743
-0.024830 0.032888 -0.030693
0.034135 -0.026756 -0.034330
0.116993 0.063950 -0.038074
0.029502 -0.043018 -0.077121
0.039864 0.059114 -0.041658
0.043102 0.064927 0.034772
-0.024484 -0.031095 -0.028524
-0.027941 0.042605 -0.068315
0.067991 0.100873 0.030128
0.063107 0.106358 0.012929
0.025332 0.047118 -0.089271
0.050073 0.023379 -0.087751
0.045374 -0.030355 -0.105220
0.103224 0.087846 0.042955
0.035906 0.058288 -0.040131
0.044996 -0.027978 -0.084268
-0.019415 -0.037524 -0.032318
-0.031321 0.034909 -0.045903
-0.028615 -0.044197 -0.081255
0.111434 0.069836 0.042935
0.029963 0.078294 -0.010653
0.028694 0.071323 0.002777
0.122819 0.088485 0.017174
0.030514 0.017357 0.018288
-0.032538 0.017482 -0.025724
0.061463 0.105639 -0.013414
0.042565 0.089658 0.016744
0.046825 0.073382 -0.036140
0.099845 0.021088 0.051619
0.048495 0.089414 0.026931
0.018462 0.048202 -0.018876
0.060210 -0.018372 -0.053114
0.014488 0.065016 -0.016069
0.009680 -0.017124 -0.014319
0.122656 0.038542 -0.034720
0.006754 0.030455 -0.020028
-0.024209 0.030195 -0.027518
0.006156 0.054600 -0.116134
0.118995 0.084234 -0.032353
0.119166 0.100929 -0.002445
0.044979 0.083953 0.025749
-0.028072 0.035956 -0.040172
0.053808 0.058458 -0.045422
-0.023926 0.044330 -0.064579
-0.047083 0.013956 -0.057125
0.064633 0.058263 -0.048286
0.028201 0.064483 0.009509
0.016634 0.049807 -0.078573
0.097225 0.078568 0.044365
-0.038609 -0.000780 -0.027432
0.008673 -0.009988 -0.014158
0.007494 -0.046626 -0.047444
0.131495 0.063088 -0.009684
0.112959 0.102678 -0.002942
0.005046 0.054788 -0.121000
0.025892 0.047535 -0.063567
0.071144 0.067324 0.047639
0.107618 0.093643 0.032152
0.106739 0.063063 -0.044880
0.067549 0.053537 -0.050275
0.122492 0.092997 -0.010122
-0.050895 -0.014945 -0.084857
0.061118 0.085718 -0.039582
0.047250 0.098819 -0.008915
0.045349 -0.009956 -0.043757
0.085624 0.028132 0.053912
0.024410 -0.015888 -0.005021
0.048700 -0.003257 -0.055493
-0.051970 -0.015747 -0.100058
0.114024 0.063048 -0.039014
0.107662 0.063040 0.043372
0.117455 0.100938 -0.011174
0.095913 0.107202 0.016423
-0.025105 0.045528 -0.075795
0.053775 -0.011634 -0.121000
-0.009644 -0.020967 -0.017305
0.062139 0.034371 -0.059932
0.038327 0.056514 -0.043364
0.035113 -0.034838 -0.059133
-0.048020 0.022641 -0.085314
0.007948 0.034231 -0.021791
0.043896 0.090853 -0.022104
0.029708 0.050815 -0.043015
0.044455 0.094310 0.013412
0.023299 -0.047593 -0.084286
0.053525 0.100825 -0.017125
-0.023030 0.027414 -0.024704
0.103646 0.103052 -0.021209
0.089047 0.027925 0.053615
0.068003 -0.004030 -0.059331
0.054631 0.011321 -0.084987
0.005825 0.026327 -0.018261
0.059367 0.099859 0.026008
0.096597 0.090919 -0.040154
0.097361 0.051372 -0.049348
-0.003552 0.045495 -0.040237
0.121701 0.092777 -0.013303
-0.016974 -0.045099 -0.052207
0.085877 0.100940 0.036536
0.082485 0.025099 -0.054202
0.060967 0.106243 0.009554
-0.034262 0.018229 -0.027642
0.052017 -0.010387 -0.084840
0.077189 0.110824 -0.000382
0.087715 0.061392 -0.050211
0.050752 0.023087 0.044097
-0.028563 0.024670 -0.026511
0.044093 0.031915 -0.094139
0.062186 0.036825 -0.058983
0.024432 0.063565 0.000420
0.083379 0.064873 0.052589
0.041978 0.040578 -0.069744
0.052206 0.021732 -0.080733
0.012210 0.053336 -0.108086
0.003866 -0.053528 -0.091465
-0.008173 0.000376 -0.013250
0.051647 0.017963 -0.098120
0.135897 0.009817 0.012759
0.039446 0.076984 -0.028876
0.035738 0.008387 0.028823
-0.005639 -0.035284 -0.024641
0.111849 0.006350 -0.046481
0.062719 0.078614 -0.052082
0.035639 0.057655 0.021208
0.047192 0.060247 0.035687
0.050898 -0.017320 -0.090351
0.133963 0.035320 0.014247
0.012266 0.042390 -0.026405
0.032022 0.073081 -0.023128
-0.024830 0.032888 -0.030693
0.012510 0.045256 -0.034113
0.060502 0.064888 0.047762
-0.025846 0.037582 -0.040157
-0.038450 0.038918 -0.108009
-0.027929 -0.038362 -0.048526
0.053775 -0.011634 -0.121000
0.082985 0.087954 0.044050
0.109507 0.064879 -0.045124
0.091411 0.110327 0.003012
0.016309 -0.052086 -0.105010
-0.013111 -0.026840 -0.020638
0.032330 0.043114 -0.085102
0.040495 0.088850 -0.019555
0.048998 -0.017272 -0.075486
0.066792 0.089384 -0.040449
0.037243 0.043231 -0.069013
0.067677 0.108489 -0.009163
0.111849 0.006350 -0.046481
0.126049 0.064917 -0.029515
0.019898 -0.012501 -0.008078
0.045343 0.056035 -0.044083
0.048022 0.074701 0.032759
0.029186 0.075998 -0.013171
0.019506 0.050898 -0.018794
-0.037251 -0.020822 -0.033024
-0.021776 -0.027922 -0.024385
0.097550 0.000501 -0.052920
-0.021147 -0.013070 -0.018082
-0.015111 0.046403 -0.055461
0.037899 0.071311 -0.044202
0.049351 0.044862 -0.058371
0.126790 0.083549 0.010928
-0.018783 0.028411 -0.023325
0.050661 0.101885 0.001332
-0.046862 -0.017635 -0.062675
0.010332 -0.017806 -0.014429
0.058273 -0.008900 -0.072961
0.006633 0.046228 -0.042014
0.069688 0.105051 0.022826
0.016317 0.065074 -0.024806
0.124423 0.087528 0.014160
0.103756 0.010105 0.050609
-0.016256 0.045047 -0.050699
0.130193 0.085063 0.009112
-0.036070 0.040756 -0.102120
0.065174 -0.018222 -0.054794
0.029297 0.040136 0.014540
0.016176 -0.046125 -0.055858
0.061624 0.063743 -0.047638
0.078320 0.089862 0.042939
-0.012577 0.026886 -0.020545
0.069743 -0.001656 -0.058078
0.061154 0.039816 -0.058040
0.010268 0.043533 -0.031438
0.050525 0.021552 -0.115284
0.049618 0.066340 -0.040389
0.126630 0.061258 0.023594
0.106531 0.094978 0.031677
0.068071 0.094735 -0.037265
0.054918 0.000500 0.047591
-0.019365 -0.050487 -0.096643
0.045591 0.086253 -0.028658
0.012338 0.040701 -0.023801
-0.048086 -0.024624 -0.095944
0.106774 0.064884 0.046651
0.133450 0.006407 0.020633
-0.031625 -0.031622 -0.037435
0.025793 0.066411 -0.036552
-0.032808 0.037073 -0.059346
0.037243 0.043231 -0.069013
0.028104 0.050679 0.010312
0.126000 0.085956 0.010956
0.087506 0.017287 -0.054415
0.046189 0.051235 -0.049139
-0.050043 -0.020516 -0.096779
0.127130 0.051177 -0.025840
0.120475 0.091521 0.018428
0.038146 0.047400 -0.056953
0.120221 0.097273 0.000018
-0.035567 -0.022845 -0.032354
0.057268 0.002894 -0.076481
-0.043857 -0.011748 -0.039468
0.087579 0.088980 0.043281
0.072397 0.099616 -0.033633
0.028854 0.065856 -0.047707
0.121154 0.000501 -0.039150
0.034438 0.084066 -0.014230
0.043387 0.067169 -0.050132
0.041339 0.065137 -0.040886
-0.048016 0.011877 -0.059126
0.018508 -0.001521 -0.007884
0.132105 0.054778 0.012059
0.008046 -0.044320 -0.038305
0.050291 0.100800 0.017905
-0.031321 0.034909 -0.045903
-0.024860 0.049083 -0.121000
0.109876 0.064987 0.044924
0.052652 0.070828 -0.057335
-0.006400 0.046477 -0.045966
0.117315 0.098736 0.009781
0.028203 -0.043177 -0.072593
0.014998 0.052647 -0.108953
0.063584 0.000499 -0.063178
0.031086 0.060920 0.012919
0.044555 -0.019770 -0.055097
0.038287 -0.022513 -0.036622
-0.040325 0.020865 -0.039467
0.126806 0.085309 0.008338
-0.023384 0.048422 -0.092702
0.097841 0.063047 0.047766
-0.041740 -0.025287 -0.055459
-0.040782 -0.011037 -0.032319
0.050889 0.019990 -0.097263
0.093652 0.100925 0.035000
0.066141 0.057904 -0.050390
0.106894 0.058403 0.044222
0.035070 0.054426 -0.044543
0.131708 0.063030 -0.009806
0.052022 -0.002665 -0.076558
0.075481 0.092362 0.045361
0.077815 0.094184 0.040131
0.079796 0.005532 -0.055075
0.004219 0.009909 -0.013368
0.023525 -0.004802 -0.017696
0.021904 0.057745 -0.014710
0.025890 0.050758 -0.039086
-0.039687 -0.009737 -0.030188
0.035843 0.048656 0.023789
0.055304 0.027301 -0.068932
0.088609 0.101288 0.032279
-0.023812 -0.033632 -0.030693
-0.048658 -0.022804 -0.092219
0.048669 0.028097 -0.081232
0.040415 0.030227 0.033575
0.038327 0.056514 -0.043364
0.021398 -0.047520 -0.076753
0.136790 0.017645 0.006043
0.041950 0.092637 -0.015213
0.026033 0.048224 -0.110494
0.031441 0.079162 0.002101
-0.018333 0.014707 -0.017484
-0.004888 -0.045140 -0.039467
0.093614 0.104769 0.024330
0.083670 0.003818 0.054986
0.086975 0.064990 0.052410
0.087773 0.031975 0.053436
0.039531 0.087346 0.012871
0.051735 0.017581 -0.101354
-0.007052 -0.019603 -0.016410
0.067706 -0.001397 -0.059447
0.098488 0.038784 0.050590
0.066751 0.038003 0.050754
0.119751 0.063028 -0.033584
-0.028277 0.021809 -0.024617
0.020868 0.048604 -0.054888
-0.048028 -0.021601 -0.081335
0.019157 0.053990 -0.017481
0.023570 0.063626 -0.020087
-0.044944 -0.024003 -0.068312
-0.034780 0.042632 -0.121000
0.084821 0.092887 0.045593
0.091721 0.107531 0.018098
0.076792 0.052868 0.051025
0.039422 0.065782 -0.056895
0.036418 0.067195 -0.046953
0.006826 -0.036456 -0.025873
0.008893 -0.051862 -0.080945
0.053958 0.011373 -0.090914
0.073702 0.097220 0.036719
-0.036206 -0.040893 -0.105893
0.020588 -0.001726 -0.005950
0.048734 0.036419 -0.068606
0.063882 0.099102 -0.030495
-0.016841 -0.029290 -0.023129
0.079671 0.077785 -0.046824
0.049373 0.087737 0.029179
0.018873 -0.046301 -0.062239
0.069786 -0.001986 -0.056430
-0.039163 0.038645 -0.121000
0.100329 0.098146 0.032216
0.127456 0.085237 -0.018216
-0.030517 -0.030511 -0.033929
-0.030312 -0.034582 -0.041717
-0.038009 0.022007 -0.035477
0.050860 0.036684 -0.066266
0.016234 -0.005957 -0.015228
-0.023812 -0.026306 -0.024441
0.109117 0.062085 0.042204
0.135003 0.013438 0.015681
0.021753 0.017510 -0.005569
-0.017061 0.038651 -0.032318
0.133740 0.064850 0.011767
0.057627 0.027072 -0.066316
0.000799 -0.025144 -0.018217
-0.047284 0.025588 -0.092558
-0.013040 0.048312 -0.062534
0.097536 0.109025 -0.003905
0.104757 0.083416 -0.039863
-0.045824 0.020280 -0.062961
-0.051940 0.002345 -0.075791
0.136596 0.013884 0.008628
0.030973 0.074200 -0.020407
0.043673 0.094285 -0.015197
0.052780 0.102713 0.006988
0.081734 0.109685 0.012747
-0.003374 0.054911 -0.120999
0.033507 0.079311 -0.019473
0.119480 0.054778 -0.035194
0.019727 0.000500 -0.015471
-0.001237 0.033305 -0.022801
-0.039114 -0.015907 -0.032280
-0.017074 -0.032922 -0.025853
0.048592 0.086086 0.029295
0.024521 0.000501 -0.002225
0.043855 0.065417 -0.059552
0.075463 0.110063 -0.008295
0.051440 0.052422 -0.048787
0.046845 0.036317 -0.070932
0.131075 0.069331 -0.001926
-0.039799 0.027155 -0.052159
0.069689 0.107506 -0.015808
0.092524 0.017469 -0.053708
-0.051289 0.017493 -0.098351
0.071542 0.092825 -0.039889
-0.011321 0.044607 -0.041860
0.071177 0.106679 -0.019455
0.050025 0.058523 -0.044148
0.048928 0.030996 -0.075232
0.052744 0.103124 0.001925
0.012168 0.045727 -0.036627
0.093477 0.066122 -0.047959
0.054057 0.103709 0.004390
0.095075 0.108117 -0.013655
-0.029361 0.036631 -0.046133
0.041024 0.054644 -0.043594
-0.054835 -0.003478 -0.115391
-0.020022 0.038720 -0.034768
0.020347 0.053055 -0.018700
0.040632 0.072239 -0.032421
-0.006282 -0.052333 -0.081728
-0.046982 -0.008832 -0.050276
0.102523 0.065778 0.045006
0.009001 -0.001012 -0.012706
0.028694 0.071323 0.002777
0.045845 0.030245 -0.114812
0.057933 0.103940 -0.014181
0.055735 0.065392 -0.063358
-0.005211 -0.002656 -0.012975
0.106865 0.038734 -0.047136
0.026146 0.054517 -0.032221
-0.050431 0.021364 -0.109669
-0.006876 -0.046463 -0.046231
0.008981 0.015861 -0.014072
0.052886 0.030267 -0.069878
0.085337 0.088490 0.043728
0.044256 0.066219 -0.055224
0.030234 0.045964 -0.067966
0.116492 0.098656 -0.012623
0.052473 -0.000124 -0.075589
0.126552 0.072964 0.018846
0.111849 0.006350 -0.046481
0.031241 -0.032869 -0.039268
0.035253 0.070826 -0.046634
-0.022472 -0.042532 -0.051776
-0.044612 0.010555 -0.041124
0.005462 0.035822 -0.023949
0.035633 -0.041911 -0.120999
-0.044056 -0.017955 -0.049129
-0.044729 0.000004 -0.037431
0.117698 0.095404 -0.017756
0.032516 -0.029254 -0.035078
0.056813 -0.010400 -0.076543
0.060015 0.050650 -0.051160
-0.047509 -0.026763 -0.104008
0.129510 0.088715 0.006124
0.081165 0.111057 -0.000000
0.091792 0.063572 -0.050160
0.003417 0.020046 -0.016043
0.014306 0.046046 -0.034644
0.136121 0.031785 0.003139
0.019696 -0.033600 -0.027794
0.030441 0.073982 0.005073
0.129199 0.078598 0.001859
0.042227 0.094423 -0.010011
-0.045268 0.005655 -0.040172
0.046308 -0.022607 -0.072317
-0.045664 0.010888 -0.046112
0.050085 0.046647 -0.055849
-0.048226 0.001612 -0.052549
0.017480 -0.051360 -0.099248
0.016062 0.046759 -0.034220
0.047624 -0.000209 -0.049395
0.030235 -0.031143 -0.034423
0.072420 0.072292 -0.054801
0.098941 0.100652 0.029468
0.045446 -0.002893 -0.121000
0.074107 0.100955 0.032676
-0.032620 -0.020189 -0.027155
-0.023307 -0.038964 -0.039467
0.031945 0.047434 0.017952
0.124698 0.088166 -0.021980
0.010004 -0.046141 -0.047382
0.089921 0.064893 0.052070
0.053720 0.083789 -0.046445
0.089353 0.006614 0.054533
-0.039281 0.032014 -0.066451
0.041029 0.049416 -0.051591
-0.027843 -0.041617 -0.062720
-0.038668 -0.038702 -0.107964
0.126310 0.093686 0.011367
0.047136 -0.027987 -0.110794
0.013609 -0.040198 -0.032636
0.120220 0.031790 0.038234
0.025024 -0.014417 -0.005042
0.059321 0.106397 -0.001406
0.127315 0.082892 0.009354
-0.049105 0.008032 -0.060854
0.007582 0.039385 -0.026526
0.137329 0.000500 -0.004394
0.001062 0.025834 -0.018530
-0.042175 -0.031523 -0.081243
0.067685 0.082999 0.043291
0.014363 -0.019956 -0.017950
0.031408 0.065180 0.017734
0.111425 0.092332 0.030044
0.050103 -0.008096 -0.066968
0.107480 0.063119 0.043246
0.020341 0.064681 -0.016602
0.075731 0.093236 -0.040522
0.023299 -0.036409 -0.034046
0.043683 0.072596 -0.034447
0.025024 -0.014417 -0.005042
0.122316 0.084916 0.021408
0.088653 0.110411 0.006421
0.124911 0.082930 -0.017215
0.074700 0.060248 0.049592
0.001969 0.045153 -0.038617
0.097972 0.108974 0.002573
0.026903 0.047903 -0.115858
0.048668 0.100314 -0.005269
0.129581 0.069746 0.011775
-0.041398 -0.019691 -0.041119
0.113212 0.089924 0.030240
-0.043358 0.023713 -0.058864
0.043370 0.084534 0.022883
0.059613 0.015036 -0.067893
-0.028782 -0.039057 -0.053918
0.047787 0.083674 -0.032197
0.025139 -0.018391 -0.006601
0.066706 0.000500 -0.060028
0.035070 0.054426 -0.044543
0.109656 0.004005 0.047820
0.010580 -0.025593 -0.019453
0.062816 -0.016516 -0.061666
0.021397 0.053403 -0.010544
0.011607 -0.038966 -0.029926
0.048825 0.095167 -0.029002
0.131699 0.031661 -0.021579
0.103782 0.097485 0.030885
0.041452 0.095608 -0.014537
0.052293 -0.015750 -0.105925
0.130193 0.085063 0.009112
0.042549 0.070783 -0.052265
0.106647 0.100378 -0.024128
0.033977 -0.023301 -0.030675
0.128200 0.083049 -0.002223
-0.025406 -0.028737 -0.027157
0.052474 0.061032 -0.045739
0.009760 -0.053621 -0.103423
-0.003723 -0.012454 -0.014114
0.021235 0.065071 -0.001950
0.043276 0.066249 0.029653
-0.025973 0.033323 -0.032318
0.052619 -0.011361 -0.091044
0.126131 0.006267 0.033438
0.090674 0.106380 -0.021750
-0.022498 0.037718 -0.035493
-0.013563 -0.042623 -0.037431
0.111611 0.046450 0.043316
0.044283 -0.000267 -0.042861
0.030038 0.083957 -0.005972
0.037290 0.031821 0.029048
0.032907 -0.022522 -0.028908
-0.007487 -0.044998 -0.040173
0.107749 0.097886 -0.027178
0.010898 0.048859 -0.056128
0.053728 -0.018277 -0.079757
0.134135 0.064852 -0.009962
-0.053001 -0.012379 -0.102117
0.090469 0.098548 -0.035490
0.061092 0.091431 0.041087
0.129466 0.009565 -0.028444
0.046016 0.072586 -0.048671
-0.051047 -0.020266 -0.115073
0.117779 0.057628 0.036313
0.063982 0.084599 0.044997
0.069686 0.109619 -0.002607
0.027989 0.046404 -0.098267
0.006162 -0.054216 -0.104752
0.130193 0.085063 0.009112
0.049034 0.029132 -0.078027
-0.029877 -0.040894 -0.066302
0.114444 0.094555 -0.024253
0.032928 0.081066 0.004110
0.010516 -0.013282 -0.013110
0.048368 0.083509 0.030285
0.036777 0.059181 -0.037295
0.060252 0.106686 0.003541
0.035099 0.045496 -0.064202
0.028203 0.021185 0.012707
-0.048443 -0.025017 -0.103924
0.058111 0.064912 -0.062565
-0.022952 0.038383 -0.037434
0.043682 -0.022403 -0.057014
0.125311 0.072960 -0.021492
-0.006395 -0.049722 -0.063042
0.052506 0.063122 0.040276
0.035561 0.041924 -0.117513
0.007628 -0.042013 -0.033080
0.099460 0.028348 0.051253
0.055925 0.102916 -0.014415
0.054566 0.103249 0.009877
-0.011783 0.043869 -0.039534
0.017579 -0.041143 -0.037493
0.132967 0.058478 0.001599
0.015988 0.010944 -0.010526
0.045446 -0.002893 -0.121000
0.042233 0.072422 -0.046130
0.022745 0.047933 -0.071710
-0.003512 -0.052544 -0.081295
0.120279 0.094465 -0.013663
0.007843 -0.049376 -0.062248
0.039230 0.038641 -0.080916
-0.010900 0.051945 -0.085181
0.049573 0.034428 -0.069960
0.116748 0.083079 -0.030328
0.061675 0.049204 -0.052238
0.031107 -0.033569 -0.040789
0.023528 -0.035321 -0.032636
0.014937 0.026153 -0.014420
0.044428 0.070805 -0.056968
-0.020602 0.028889 -0.024441
0.072053 0.043245 -0.054077
0.024842 0.043882 0.003692
0.055799 0.104083 -0.008767
-0.031029 0.043536 -0.089117
0.039836 0.081439 0.018460
-0.034822 0.011123 -0.025365
0.010516 -0.013282 -0.013110
-0.019290 -0.048001 -0.073814
0.072670 0.109981 -0.005632
0.062982 0.052856 0.047480
0.135112 0.064899 0.000733
-0.029037 0.017294 -0.023129
-0.013523 0.015042 -0.016189
-0.009383 0.037987 -0.028010
0.053363 -0.013066 -0.115701
0.055779 0.063113 0.042517
0.101691 0.096229 -0.033599
0.106914 0.026540 -0.048292
0.050701 0.072289 -0.051446
0.132685 0.042053 0.016116
0.019978 0.056081 -0.018575
-0.044999 0.013206 -0.045894
-0.054522 -0.003188 -0.105895
-0.052167 0.014195 -0.096468
0.019442 -0.041417 -0.040751
0.062367 0.062180 -0.046573
0.052364 0.065659 -0.047701
0.126168 0.038861 0.030116
-0.055013 0.000812 -0.120999
0.027226 0.065923 -0.045865
0.009760 -0.053621 -0.103423
0.018189 0.000500 -0.008169
-0.004998 -0.045714 -0.041716
0.126350 0.082908 -0.013142
0.028913 0.075778 -0.002406
0.009223 0.006672 -0.012237
0.037023 0.061787 -0.035572
0.015586 -0.038882 -0.031732
0.039024 0.037565 -0.094283
0.123034 0.089062 -0.015905
-0.022472 -0.042532 -0.051776
0.085735 0.082910 0.045662
0.033050 0.055481 -0.038049
0.069203 -0.005728 -0.056231
0.028489 0.046860 -0.064981
0.110871 0.072297 -0.042716
0.036770 -0.037810 -0.081992
0.126024 0.009764 -0.033464
0.039519 -0.000350 -0.037323
0.047986 -0.026877 -0.121000
0.012486 0.035959 -0.019787
-0.043529 -0.005967 -0.035533
-0.040758 -0.016404 -0.035533
0.039808 0.036871 -0.091526
0.087712 0.110775 0.002656
0.032195 0.055686 0.016361
0.126552 0.072964 0.018846
-0.052956 0.010880 -0.096468
0.113095 0.064905 0.042781
0.053573 0.066146 -0.055891
0.114944 0.101371 -0.004156
0.048761 0.096593 0.018280
0.077321 0.009095 -0.055323
0.084243 0.015621 -0.054682
0.050426 -0.004339 -0.066055
-0.039783 -0.026127 -0.049252
0.017838 -0.042150 -0.040796
-0.022949 -0.043801 -0.059041
0.099973 0.065959 0.046027
0.126630 0.061258 0.023594
0.006971 -0.054401 -0.112037
0.016232 -0.023316 -0.019833
-0.007408 -0.043307 -0.035534
0.019287 -0.024568 -0.021444
0.099318 0.038558 -0.050341
0.058480 0.067328 0.042683
0.070631 0.011411 -0.057453
-0.053361 -0.012050 -0.107965
0.056962 0.082995 0.037968
0.131674 0.060251 -0.010099
0.011695 -0.040125 -0.031575
0.047563 0.032545 -0.075481
-0.039720 -0.024776 -0.045500
0.097842 0.060256 0.047801
0.025265 -0.015742 -0.005887
-0.016797 -0.041447 -0.037435
0.039790 0.057974 -0.040043
0.084149 0.046948 0.052101
0.052746 0.014586 -0.098408
