0.025596 -0.011231 0.097300
0.074553 0.046785 0.092396
0.045476 0.044146 0.070959
0.031548 0.043286 0.067510
0.077174 0.042546 0.093342
0.035612 -0.024714 0.097307
-0.041760 0.013762 0.096260
0.031472 0.074179 0.091291
-0.038907 -0.035379 0.089167
-0.036892 -0.037405 0.081639
-0.037007 -0.038638 0.083423
0.001275 0.051475 0.078800
-0.036446 -0.038133 0.089218
0.027339 0.035974 0.063311
-0.003633 0.043175 0.097307
0.012431 0.058109 0.066557
0.042334 0.015500 0.062347
-0.024543 -0.027782 0.088512
0.073092 0.029029 0.093020
-0.035117 -0.038247 0.083170
0.025596 -0.011231 0.097300
0.013275 0.060491 0.089880
0.050779 0.064997 0.075020
0.016411 0.060639 0.069716
0.056206 0.063606 0.095003
0.030706 0.073595 0.077025
-0.018454 0.020360 0.106331
0.032581 0.047925 0.067265
0.041977 -0.013190 0.078800
0.008229 -0.014604 0.106800
-0.035319 -0.040207 0.083645
0.073170 0.028946 0.076683
-0.020937 -0.017678 0.106800
-0.018736 0.039838 0.057801
-0.024915 -0.027411 0.082715
0.044807 0.002224 0.060583
0.014099 0.006819 0.099004
0.050223 0.002371 0.095939
0.065676 0.022220 0.072571
-0.038399 -0.034924 0.088201
0.011595 0.057970 0.070224
0.001881 0.048321 0.095907
-0.002338 -0.031437 0.105796
0.050779 0.064997 0.075020
0.030024 0.030929 0.097476
0.079160 0.037737 0.076821
0.046384 0.030954 0.066448
-0.036195 -0.031232 0.082388
0.017284 -0.002306 0.106800
0.026037 0.035499 0.057801
0.059953 0.014645 0.078024
0.005013 0.053917 0.065698
-0.030347 -0.035877 0.084691
0.018021 0.063326 0.079104
0.030533 0.073472 0.090262
0.060432 0.012445 0.093113
0.054368 0.067906 0.078712
0.031132 0.074262 0.084778
0.006538 0.056061 0.077262
-0.023150 0.012073 0.106300
0.034087 0.078362 0.076989
-0.037554 -0.038106 0.082600
0.035760 0.040382 0.066215
0.040140 0.018079 0.052199
-0.039117 -0.034165 0.086127
0.036996 0.025585 0.060707
0.014745 0.059348 0.070466
-0.029424 -0.029973 0.081804
0.034847 -0.024043 0.097785
0.025215 0.037483 0.063212
-0.004020 0.048881 0.063910
-0.000355 -0.015744 0.099165
-0.037503 -0.037168 0.088370
0.009206 0.055168 0.093260
-0.038336 -0.033789 0.083297
-0.043864 -0.003358 0.096031
0.060515 0.053575 0.096467
-0.039424 -0.035073 0.083204
-0.039489 -0.032597 0.086001
0.042028 0.047305 0.069206
-0.030387 0.002884 0.106800
0.040121 0.017442 0.096806
-0.038810 -0.037131 0.087542
-0.018160 -0.038234 0.097782
0.071386 0.026854 0.094186
-0.015320 0.041272 0.052200
0.045419 0.030680 0.067783
0.009012 -0.043036 0.096260
-0.028501 -0.015669 0.097800
0.043686 -0.010317 0.091507
0.043509 0.077735 0.080100
0.033598 0.077877 0.094702
-0.025849 -0.011046 0.097300
0.015329 -0.002608 0.098892
-0.032462 -0.028349 0.080774
0.074566 0.030006 0.083219
0.058373 0.011902 0.069988
-0.037024 -0.037646 0.087985
0.015914 0.061711 0.089326
0.073628 0.027536 0.082612
0.036862 0.051143 0.068739
0.067804 0.022708 0.094597
-0.026838 -0.034856 0.096064
-0.025618 0.035803 0.058200
0.077561 0.034992 0.095827
0.074565 0.030743 0.084200
0.043557 -0.006396 0.057800
0.063782 0.018680 0.071529
-0.001074 0.015752 0.105799
0.072144 0.028366 0.072963
-0.012818 0.044332 0.085811
-0.003581 0.044712 0.094308
0.007700 0.054158 0.086216
0.003816 0.050936 0.096135
0.077223 0.044502 0.084800
0.057453 0.010538 0.094109
0.024395 0.019966 0.098801
0.003028 0.052236 0.095180
-0.043760 0.002665 0.057998
0.035760 0.040382 0.066215
0.054466 0.006593 0.080120
0.023566 0.069784 0.091141
0.020367 0.024061 0.105801
0.039800 -0.014457 0.097783
0.033232 0.028570 0.052000
-0.027226 -0.032171 0.083798
-0.039008 -0.036928 0.084248
-0.035240 -0.038976 0.087753
0.057131 0.010119 0.093975
-0.039647 -0.035165 0.087031
-0.006432 0.046361 0.093701
0.043242 0.078519 0.088002
0.039963 0.080949 0.082743
0.006906 0.014182 0.105807
0.015329 -0.002608 0.098892
0.049751 0.037676 0.070528
0.036858 0.051141 0.070903
-0.000355 -0.015744 0.099165
0.075325 0.047255 0.081747
0.026522 0.035139 0.060550
0.055426 0.006795 0.085122
-0.033282 -0.026115 0.088351
0.029329 0.032505 0.096728
0.056241 0.010711 0.093205
-0.035607 -0.029411 0.087977
0.028706 -0.031171 0.097773
0.019062 0.063084 0.071470
-0.003530 0.048737 0.094046
0.027536 0.010089 0.106800
0.034087 0.078362 0.076989
-0.043608 -0.005193 0.096407
0.002768 0.052095 0.063772
0.061167 0.015019 0.069378
0.037620 0.050180 0.067379
0.032852 0.027607 0.097598
-0.029589 -0.033387 0.081674
-0.034847 0.024043 0.097785
0.050588 0.038491 0.068931
-0.039709 -0.035104 0.084806
-0.017611 -0.024932 0.106800
-0.040739 0.014809 0.097307
0.043532 0.011333 0.060708
-0.036814 -0.030605 0.087960
-0.034633 -0.028389 0.087957
0.020657 -0.016313 0.106799
-0.015999 -0.005007 0.106800
0.011713 0.058318 0.094237
-0.001668 0.046682 0.095288
0.043970 0.029719 0.068112
0.057002 0.007837 0.090734
0.008983 0.057859 0.092366
0.036396 -0.024767 0.058200
-0.028127 -0.032684 0.090533
-0.038630 -0.020838 0.096504
0.046750 -0.002374 0.095214
0.030107 0.044170 0.067875
-0.012848 -0.028787 0.098800
0.048397 0.061577 0.073429
0.019243 0.062853 0.068606
-0.036378 -0.037252 0.089978
0.056825 0.007194 0.085260
-0.038404 -0.036408 0.088898
0.055834 0.007136 0.074932
-0.039804 0.018679 0.096260
0.077798 0.033361 0.094511
0.029113 0.074256 0.079594
0.043596 -0.011525 0.090156
0.031685 0.074262 0.079447
-0.028171 0.033850 0.057801
0.071087 0.026722 0.095456
0.010124 0.011597 0.098810
0.074647 0.041128 0.095710
0.038516 -0.021242 0.096153
-0.013943 0.040780 0.097481
0.028292 0.037443 0.094403
0.050379 0.068600 0.095149
0.041583 0.014418 0.060550
-0.037859 0.021077 0.097307
0.025336 -0.020394 0.097800
0.052848 0.004182 0.064108
-0.033060 -0.027751 0.090150
0.027197 -0.009739 0.097300
0.030624 0.074908 0.084200
-0.035602 -0.039004 0.088706
0.050583 0.038200 0.068956
0.027197 -0.009739 0.097300
0.006544 0.054516 0.078200
0.009788 0.055621 0.071318
0.061385 0.017028 0.070673
0.044772 -0.000764 0.060553
0.035535 0.079690 0.084800
-0.017676 0.040067 0.096701
0.008599 0.055835 0.092239
-0.012874 0.044297 0.069027
-0.027984 -0.034949 0.088813
0.069136 0.050339 0.076739
0.031884 0.046448 0.065963
0.035196 0.079942 0.084200
-0.027794 -0.008631 0.097300
0.044234 -0.013088 0.078200
0.015149 0.062155 0.091009
0.010092 0.043839 0.060714
0.015980 -0.039998 0.097496
0.045532 -0.001426 0.094414
0.035853 0.031523 0.094558
0.044915 -0.004643 0.094424
0.074903 0.028752 0.087896
0.020531 0.065494 0.070617
0.028483 0.034683 0.060593
0.027011 0.073079 0.076724
0.032741 0.042390 0.067521
0.048129 0.000433 0.061298
0.014698 -0.019042 0.106799
0.048182 0.039586 0.067020
0.016205 0.040718 0.052000
0.019702 0.064882 0.093677
0.011641 0.058406 0.094372
0.003667 -0.043751 0.096444
-0.035199 -0.039309 0.088584
0.042689 0.009912 0.052000
0.014259 0.059000 0.093809
-0.009500 0.044310 0.092160
-0.000569 0.015481 0.098839
0.045678 0.031832 0.065406
-0.012874 0.044297 0.069027
-0.035183 -0.037747 0.082194
-0.017309 -0.008411 0.106300
0.008479 0.054867 0.073792
-0.035183 -0.037747 0.082194
0.020314 0.064172 0.093721
-0.028146 -0.033851 0.058199
-0.043698 -0.003328 0.058000
0.022285 0.065633 0.094390
0.029643 0.072570 0.075318
0.046298 -0.007762 0.092791
0.069502 0.026650 0.096467
0.064045 0.018803 0.070041
-0.036689 -0.037728 0.082458
-0.034968 -0.028002 0.085747
-0.042192 -0.003705 0.097779
0.014385 0.061958 0.092119
0.023397 0.068431 0.093663
-0.032258 -0.030703 0.080998
-0.039231 -0.033975 0.087052
0.055196 0.006898 0.076475
-0.007464 0.044729 0.060986
-0.037605 -0.036144 0.089926
0.008580 0.057570 0.091939
0.077031 0.042952 0.078262
0.038708 0.049988 0.070456
0.052560 0.003235 0.087121
0.074213 0.029964 0.091207
0.037456 0.081003 0.084801
0.068142 0.055509 0.084200
0.038419 0.081164 0.082333
0.014902 0.017465 0.106327
0.039208 0.018484 0.097307
0.003649 0.046687 0.061382
0.011848 0.058222 0.094200
0.017611 -0.024932 0.106800
-0.001984 0.042873 0.097598
-0.018449 -0.039209 0.097300
0.050283 0.034192 0.070036
-0.016164 0.020016 0.106332
0.035226 0.077444 0.095921
0.015405 0.002042 0.098885
0.050369 0.014209 0.064245
0.014166 0.059957 0.087207
-0.026638 0.010400 0.106299
-0.035067 -0.038211 0.088540
0.030626 0.074702 0.083289
0.052067 0.007695 0.096629
-0.027411 -0.024915 0.082715
-0.016767 -0.026695 0.098800
0.016110 0.061894 0.095020
0.014208 0.060232 0.088251
-0.031774 -0.031213 0.090699
0.037211 0.080487 0.091960
-0.028875 -0.033188 0.096064
0.029175 0.034537 0.063381
0.007951 0.044239 0.060657
-0.043775 0.002070 0.052000
0.073447 0.045235 0.076767
0.041987 0.016700 0.062571
0.042897 0.013586 0.060746
0.015998 -0.015422 0.097300
-0.020937 0.017678 0.106800
0.055028 0.006753 0.078037
0.031160 0.074054 0.091939
0.027316 0.073384 0.087441
-0.008673 0.030307 0.098800
0.031330 0.074252 0.083757
-0.016832 -0.040645 0.096045
0.079659 0.035512 0.084800
-0.035926 -0.029094 0.086541
-0.033854 -0.039322 0.085641
0.068232 0.024276 0.095956
0.007510 0.054341 0.075134
0.016770 0.026693 0.105801
0.043973 0.000615 0.096232
0.073533 0.030629 0.089402
-0.026809 -0.034003 0.088429
0.074020 0.027938 0.091743
0.044019 -0.012168 0.064857
0.034925 0.078979 0.094216
-0.037141 -0.036113 0.089724
-0.002160 0.022900 0.106700
0.071386 0.026854 0.094186
0.057931 0.008752 0.076856
0.017873 0.025967 0.098801
0.044631 -0.012654 0.073032
0.074345 0.029514 0.089805
0.037859 -0.021077 0.097307
0.054173 0.007500 0.087213
-0.013435 0.042771 0.067968
-0.013423 0.043253 0.068486
0.031330 0.074252 0.083757
0.014044 0.041351 0.096910
-0.016887 -0.039940 0.097273
0.035336 0.080076 0.084800
0.037620 0.050180 0.067379
-0.042033 0.012401 0.052000
0.016488 -0.007023 0.106800
-0.035308 -0.039207 0.083629
0.015021 0.060963 0.075355
0.043825 0.046011 0.068977
-0.026638 0.010400 0.106299
0.041166 0.034265 0.067547
0.005870 0.044600 0.060710
0.049955 0.038755 0.070479
0.055923 0.067697 0.084800
0.027702 0.071971 0.093923
0.028574 0.073308 0.092433
0.006708 0.014226 0.099104
-0.030492 -0.035732 0.087465
0.027181 -0.009743 0.106295
0.047322 -0.006512 0.092982
0.021586 0.036511 0.097766
0.011657 0.059755 0.074433
0.043821 -0.000563 0.052000
-0.034746 -0.038689 0.082721
0.044692 -0.007800 0.061108
-0.014698 0.019042 0.106799
0.075774 0.032104 0.074589
-0.013213 0.043766 0.085678
0.059106 0.010955 0.093273
0.016760 -0.000000 0.106800
0.074773 0.030570 0.087419
0.008375 0.055837 0.069937
-0.034872 -0.038067 0.082466
0.073041 0.028622 0.074012
0.057292 0.010474 0.070452
0.031561 0.045565 0.065748
0.048517 0.074090 0.084800
-0.043665 0.005607 0.058200
0.016597 -0.039279 0.097702
0.006520 0.056145 0.077883
0.060166 0.015812 0.094414
0.026742 0.071146 0.094161
0.057209 0.007790 0.089318
0.048507 -0.004802 0.064168
-0.039298 -0.035108 0.087483
0.060189 0.012641 0.074669
0.029648 0.072595 0.092522
0.058151 0.011551 0.094221
0.046302 0.014104 0.094769
-0.035296 -0.038240 0.089447
0.061819 0.014182 0.071408
0.007350 0.054929 0.088859
0.033521 -0.028110 0.096806
-0.036334 -0.038273 0.082226
0.069098 0.024125 0.073010
0.031208 0.074149 0.082162
-0.019031 -0.039663 0.096031
-0.017028 0.005687 0.097300
0.014633 0.005792 0.099140
0.076158 0.032301 0.084200
0.027398 -0.032342 0.097768
-0.003597 -0.043197 0.097307
-0.038885 -0.035643 0.089070
0.015805 0.059472 0.096609
-0.034974 -0.039873 0.087896
-0.029329 -0.032505 0.096728
0.013864 -0.027194 0.106800
0.045255 -0.008036 0.093033
0.027458 0.035650 0.060744
0.025699 0.035096 0.097134
-0.035512 -0.027421 0.084918
0.068308 0.025142 0.073704
0.016149 0.039196 0.097768
0.076148 0.031806 0.084200
0.070952 0.026440 0.073107
0.042612 -0.011002 0.063023
0.057963 0.009189 0.071956
0.004371 0.043807 0.052199
0.073373 0.027131 0.092418
0.054331 0.007923 0.073960
0.030416 0.072928 0.076099
0.008643 0.055048 0.072683
-0.003597 -0.043197 0.097307
0.004068 0.051983 0.063277
0.036058 0.080245 0.080472
-0.036577 -0.037974 0.082356
0.019031 0.039663 0.096031
-0.039047 0.020331 0.058200
-0.034484 -0.039152 0.083163
0.014365 0.005642 0.098827
0.016847 0.059394 0.096785
0.035783 -0.025301 0.052000
-0.013716 0.042525 0.078800
-0.034546 -0.038390 0.082823
0.046853 0.041524 0.067221
-0.035262 0.024454 0.097598
-0.013099 -0.008768 0.105799
-0.038336 -0.033789 0.083297
-0.010959 0.045789 0.078199
0.048612 0.040817 0.068982
0.007010 0.056488 0.075142
0.070232 0.026908 0.094198
0.003468 0.044954 0.060931
0.043732 -0.013002 0.078800
0.028308 -0.008627 0.106800
0.045684 -0.002145 0.094566
-0.038516 0.021242 0.096153
0.025867 0.069008 0.074575
0.055923 0.067697 0.084800
0.031692 0.040426 0.096104
0.029220 0.073301 0.077122
0.032420 0.047930 0.067124
0.019593 0.063444 0.094271
0.072252 0.051353 0.084800
-0.013099 -0.008768 0.105799
0.057655 0.010450 0.067645
-0.039826 -0.034612 0.084017
0.017169 0.020936 0.106799
0.045588 -0.000250 0.094377
0.060015 0.014185 0.087450
0.055763 0.009823 0.071371
-0.015123 -0.016525 0.097300
-0.018454 0.020360 0.106331
-0.040571 0.016165 0.096914
0.043072 -0.011505 0.063285
0.047825 0.041339 0.070639
0.043825 -0.012767 0.087446
0.016634 0.041641 0.060574
0.056214 0.008453 0.066899
0.035246 0.049859 0.070032
-0.041863 0.008111 0.097701
0.037994 0.040246 0.065112
-0.043973 -0.000615 0.096232
-0.034598 -0.037527 0.089280
-0.002400 0.015209 0.098811
-0.034602 -0.037559 0.082297
0.015416 0.019334 0.106338
-0.038389 -0.034547 0.088778
0.009678 0.057523 0.093072
0.059234 0.010855 0.093040
0.013649 -0.007851 0.099189
0.004848 0.053525 0.071295
0.017399 0.060666 0.096642
0.052345 0.003375 0.095321
0.027808 -0.033973 0.096433
0.054845 0.006977 0.074766
0.043243 -0.004708 0.097134
0.073827 0.045696 0.094262
0.009514 0.055479 0.072237
0.043155 0.006822 0.096881
0.063497 0.016435 0.091584
0.072725 0.029609 0.076912
0.041777 0.009868 0.097577
0.008303 0.054589 0.089362
0.014105 0.059025 0.070034
-0.017933 0.000000 0.097300
0.064775 0.021241 0.072125
0.015173 -0.018967 0.106335
0.020260 0.063964 0.093814
0.064775 0.021241 0.072125
0.059334 0.013115 0.069844
-0.013864 -0.027194 0.106800
0.021416 0.038423 0.096116
-0.019568 -0.011215 0.106296
0.039531 0.080583 0.091029
0.030103 0.073129 0.077723
0.055241 0.008230 0.065220
0.055289 0.009063 0.072148
0.014478 0.041575 0.058199
0.002984 0.024622 0.098798
0.005532 0.043664 0.060550
-0.036128 -0.036845 0.082433
-0.012347 0.042233 0.088795
-0.000282 -0.044023 0.058199
0.030614 0.074900 0.083029
0.045329 0.032876 0.065016
-0.030908 -0.032090 0.090639
0.029705 0.070786 0.096796
0.027738 0.070757 0.075344
-0.035192 -0.036933 0.089681
-0.037888 0.022024 0.052000
0.004051 0.049657 0.096264
0.011108 0.059514 0.072944
-0.033863 -0.039746 0.086583
0.030384 0.074701 0.080385
0.008724 0.054897 0.072532
0.046302 0.014104 0.094769
0.031382 0.044056 0.066225
-0.028829 -0.030568 0.080261
0.035771 0.027489 0.063221
-0.038067 -0.034870 0.089136
0.036511 0.050140 0.070362
0.028785 0.074893 0.088089
0.017611 0.024932 0.106800
0.010402 0.043600 0.060567
-0.036841 -0.038808 0.083883
0.058619 0.010293 0.093226
0.071814 0.045847 0.095381
0.054507 0.007749 0.074383
0.057519 0.008178 0.074204
0.019960 0.065203 0.085150
0.052775 0.028253 0.067451
0.049221 0.022853 0.096674
-0.036147 -0.037032 0.082063
0.041518 0.014641 0.057801
0.050019 -0.001644 0.072256
0.013190 -0.041448 0.097137
0.014478 0.041575 0.058199
0.012011 0.044578 0.094310
-0.004701 0.047724 0.061901
-0.034666 -0.028298 0.083792
-0.008802 -0.042444 0.097307
0.039471 0.019498 0.057801
0.046318 0.031077 0.067957
0.007962 0.054326 0.073764
0.044942 -0.005902 0.060669
-0.002039 0.046974 0.095300
0.018449 0.039209 0.097300
0.007663 0.055310 0.073110
0.008024 0.057182 0.091078
0.076602 0.034543 0.096222
0.042518 -0.012505 0.088581
0.045501 -0.009151 0.092028
0.028522 0.073209 0.077301
-0.013841 0.041792 0.057801
-0.035633 -0.040310 0.083984
0.076867 0.032152 0.076731
0.008952 0.055258 0.091149
0.036632 0.041341 0.065136
0.006608 0.054591 0.076369
0.012431 0.058109 0.066557
0.002327 0.052273 0.064688
0.039535 0.049193 0.070830
0.075433 0.032337 0.074192
-0.029288 -0.035727 0.087596
0.064193 0.059224 0.079930
-0.003843 -0.042166 0.097786
0.064045 0.018803 0.070041
0.072908 0.026697 0.076597
0.019616 0.064848 0.095061
0.021373 -0.038487 0.052199
0.003071 0.024353 0.106800
0.026779 -0.034903 0.096045
-0.001300 0.050188 0.071607
-0.037288 -0.035649 0.081944
0.060274 0.017563 0.096745
0.073957 0.029149 0.091269
0.051363 0.008588 0.096402
0.016839 0.062391 0.077035
0.029123 0.073430 0.076937
0.030612 0.074842 0.084800
0.042525 -0.013716 0.078800
0.025107 0.068295 0.074263
0.022944 -0.012090 0.106297
0.012018 0.060110 0.071156
0.027468 0.070678 0.075423
0.046014 -0.002768 0.094936
0.029611 0.074809 0.084863
0.004287 0.031231 0.105801
-0.036689 -0.037728 0.082458
0.030491 0.073499 0.091446
0.044977 -0.012248 0.084064
-0.042707 0.010684 0.058200
0.012957 0.008566 0.098878
0.027505 0.071985 0.094076
-0.025488 -0.034776 0.097466
-0.029630 -0.035377 0.088545
0.021351 0.067394 0.090585
0.045797 0.030433 0.068148
-0.033702 -0.025695 0.086340
0.013931 0.061296 0.073702
-0.038650 -0.034323 0.087283
0.073857 0.029734 0.091821
0.042683 0.007483 0.097300
-0.029487 -0.035519 0.083397
0.015024 0.061169 0.069386
0.074244 0.031148 0.084005
0.030425 0.072735 0.093959
0.042414 -0.013611 0.084253
-0.035535 -0.029476 0.083434
0.060634 0.014670 0.095188
0.074160 0.031011 0.082150
0.074871 0.048057 0.083162
0.000555 0.025515 0.097864
0.074230 0.031090 0.086664
-0.039312 -0.033622 0.085542
0.009832 -0.028898 0.106800
-0.033909 -0.032322 0.081868
-0.034353 -0.040071 0.086468
0.074224 0.031218 0.086152
0.042188 0.015464 0.060644
0.011536 0.058418 0.070729
0.077086 0.032644 0.080691
-0.027803 -0.034134 0.052199
-0.014482 0.005644 0.098889
0.067265 0.055664 0.079473
-0.038923 -0.019807 0.096914
0.009927 0.056536 0.095790
-0.013058 0.044198 0.084354
-0.012847 0.028787 0.098800
-0.014875 -0.017955 0.097300
0.036137 0.023155 0.097598
0.042226 -0.005923 0.097700
0.041606 0.008104 0.097768
0.008484 0.055883 0.071914
0.040418 0.032601 0.096312
-0.040206 -0.034641 0.084837
-0.009275 0.012472 0.098873
-0.035670 -0.039185 0.088991
0.015740 -0.000754 0.099228
0.044633 0.032395 0.065130
-0.019302 0.015407 0.106329
0.067658 0.052142 0.094810
0.061258 0.016918 0.094231
0.044007 -0.012827 0.066816
-0.031227 -0.004383 0.105806
0.006019 0.043409 0.052000
-0.015999 -0.005007 0.106800
0.018766 0.064030 0.070067
0.014163 -0.006836 0.099128
0.065959 0.055527 0.093849
0.028463 0.071461 0.075891
0.020234 -0.039043 0.096239
-0.034470 0.027324 0.096134
0.031112 0.074260 0.085792
0.028998 -0.002682 0.097300
0.067833 0.021914 0.077341
-0.032419 -0.028393 0.080892
0.038841 0.037424 0.066226
0.042937 0.009174 0.096445
-0.014310 -0.039898 0.097768
0.077479 0.044095 0.080591
-0.036580 -0.039067 0.087614
-0.000209 0.045330 0.094315
0.038028 0.081161 0.084200
0.064534 0.021385 0.096500
0.011875 0.043245 0.060575
0.039469 0.021605 0.060729
-0.017933 0.000000 0.097300
-0.011329 0.010422 0.098812
-0.004868 0.043738 0.060567
0.058275 0.009188 0.089824
0.059062 0.011310 0.081893
0.058068 0.011641 0.094197
0.073904 0.027669 0.091774
-0.000047 0.050797 0.083159
0.043026 0.012951 0.060644
0.006585 0.056118 0.084454
0.037667 0.080247 0.093039
-0.010380 0.044082 0.091407
0.012509 0.059816 0.088647
0.055447 0.006601 0.081050
-0.032171 -0.027226 0.083798
0.047221 -0.006328 0.062568
-0.009879 0.043792 0.061933
0.053520 0.004895 0.082206
-0.034029 -0.026782 0.088492
0.011705 -0.040997 0.097703
0.030103 0.073129 0.077723
0.030558 0.073646 0.081046
-0.027808 0.033973 0.096433
0.011713 0.058318 0.094237
-0.015709 0.015663 0.097300
0.026742 0.071146 0.094161
0.000175 0.045547 0.094349
0.014955 -0.017060 0.106332
0.009874 0.055844 0.071346
0.042091 0.078300 0.079119
-0.007489 0.013832 0.099104
-0.037859 0.021077 0.097307
0.015425 0.040068 0.097575
0.038942 0.022253 0.060580
-0.010367 0.046082 0.073112
0.014518 0.058591 0.066615
0.021416 0.038423 0.096116
0.073384 0.028653 0.092353
-0.026650 -0.033838 0.097496
-0.038694 -0.035514 0.083395
0.074814 0.030584 0.082784
0.030826 0.073783 0.087952
-0.028773 -0.034160 0.081418
-0.012379 0.044868 0.084704
-0.003978 0.045387 0.094604
0.015670 0.040784 0.096881
-0.039950 -0.035987 0.085248
0.039471 0.019498 0.057801
-0.015712 -0.000605 0.099096
0.027132 0.071552 0.093553
0.051460 0.001247 0.078800
0.042902 -0.004399 0.097462
0.009079 0.056178 0.092902
0.019737 0.062350 0.096699
-0.013190 0.008473 0.099025
0.040339 0.037065 0.065464
0.045854 0.043836 0.071407
0.073199 0.027186 0.084671
-0.035552 -0.038435 0.082063
-0.028186 -0.024141 0.083691
0.040333 0.048781 0.070781
-0.016476 0.038916 0.097785
-0.029424 -0.029973 0.081804
0.037752 0.080704 0.084800
-0.027796 -0.025164 0.089354
-0.009724 0.042732 0.052000
0.007505 0.054023 0.077066
0.030237 0.074313 0.090217
0.068536 0.023870 0.094224
-0.015344 -0.003124 0.099003
0.005870 0.044600 0.060710
0.042671 -0.012331 0.088944
0.021373 -0.038487 0.052199
0.032437 0.044550 0.065132
0.011692 0.059324 0.086645
0.058628 0.010035 0.071555
0.016597 -0.039279 0.097702
0.026409 0.015307 0.106800
0.043973 0.000615 0.096232
-0.034019 -0.038918 0.087861
-0.023910 -0.036966 0.058199
0.029488 0.072693 0.076831
0.043052 -0.009090 0.092409
0.008878 0.056156 0.071506
0.039392 0.080380 0.079272
0.030887 0.074023 0.089198
0.063676 0.060724 0.086738
-0.009441 0.044940 0.092052
0.058970 0.064370 0.091466
0.026394 0.070542 0.072490
0.011380 0.057877 0.094161
0.036919 0.079456 0.094428
0.018314 -0.020902 0.106799
0.011110 -0.010856 0.098880
0.064633 0.020832 0.096247
-0.026638 0.010400 0.106299
0.024781 0.011657 0.106300
0.044274 -0.005494 0.094251
0.032400 0.054064 0.068548
0.042897 -0.013395 0.086035
-0.032930 -0.030002 0.089293
0.074970 0.028772 0.084850
0.046336 0.032070 0.065588
-0.033811 -0.039665 0.085219
0.050147 0.036107 0.070278
0.016770 -0.026693 0.105801
0.031805 0.044678 0.065568
0.054795 0.008667 0.090033
-0.042749 -0.009813 0.052000
-0.002400 0.015209 0.098811
0.009483 0.055382 0.092232
0.037874 0.050522 0.070438
0.003843 0.042166 0.097786
0.001467 0.027757 0.106800
0.044600 0.044965 0.069084
-0.025234 -0.033891 0.097785
0.049281 0.001109 0.061754
0.042848 -0.013480 0.069031
-0.033812 -0.038348 0.083280
-0.038344 -0.037589 0.084334
0.047221 -0.006328 0.062568
-0.042707 0.010684 0.058200
0.016326 0.062430 0.074713
-0.031341 -0.034878 0.082599
0.006270 0.044740 0.061315
0.042473 0.014858 0.060746
0.055359 0.009477 0.072473
0.073211 0.030284 0.092250
-0.033201 -0.038962 0.085722
0.048845 0.006679 0.095520
0.054268 0.007539 0.075161
0.070525 0.050048 0.094047
0.034873 0.077956 0.095499
-0.040571 -0.015723 0.057000
0.036711 0.035733 0.096084
0.057537 0.010518 0.068340
0.072756 0.028587 0.076207
0.010061 0.056894 0.093749
0.006950 0.056388 0.087567
-0.034943 -0.027993 0.086660
-0.039461 -0.034947 0.084579
0.037439 0.050805 0.070591
0.034995 0.050973 0.070496
-0.035067 -0.038211 0.088540
-0.035098 -0.039517 0.083664
0.063279 0.018631 0.069060
-0.013190 0.041448 0.097137
-0.036851 -0.039090 0.085662
0.054470 0.006408 0.080149
-0.035966 -0.029051 0.085925
0.006091 0.051474 0.063144
-0.007820 0.013716 0.105811
0.028641 0.074853 0.087022
0.025406 -0.034556 0.097597
0.054831 0.008722 0.071754
0.043825 -0.012767 0.087446
0.009939 0.029916 0.098800
0.054356 0.068856 0.080242
0.008483 0.054712 0.089984
-0.009441 0.044940 0.092052
0.041558 0.014499 0.094300
-0.034391 -0.026420 0.084549
-0.015632 0.015125 0.106799
0.018264 0.062369 0.094236
0.007474 0.055183 0.090183
0.020657 -0.016313 0.106799
-0.034322 -0.026489 0.084571
0.065512 0.020307 0.083620
-0.037012 -0.037461 0.089250
0.029689 0.072177 0.094467
0.042028 0.047305 0.069206
0.045532 0.067914 0.074509
0.031866 0.073184 0.096774
0.053287 0.004315 0.064798
0.023944 0.068624 0.094230
0.054254 0.006839 0.078800
-0.027259 -0.033552 0.089480
0.044211 -0.010612 0.062730
0.055615 0.008101 0.072417
-0.038837 -0.035471 0.082357
0.049281 0.001109 0.061754
-0.011553 0.042458 0.090059
0.007811 0.054350 0.075616
0.031775 0.043632 0.066161
0.028307 0.033717 0.052199
-0.025718 -0.034012 0.097702
0.035018 0.039145 0.068075
0.054730 0.006918 0.075420
-0.026250 0.017455 0.098800
0.044756 -0.011586 0.088990
-0.007584 -0.043085 0.096806
0.050499 0.037311 0.068122
0.007109 0.055486 0.087319
0.026988 -0.033392 0.097575
0.055192 0.007221 0.087185
-0.017897 -0.000805 0.106297
-0.015416 -0.016022 0.106338
0.050258 0.000031 0.095069
0.032657 0.030743 0.060570
-0.015227 -0.004117 0.105806
0.043943 0.002462 0.058200
0.071161 0.028816 0.072287
0.061242 0.015394 0.070886
0.028706 -0.031171 0.097773
-0.030682 -0.036741 0.083436
-0.010058 0.046230 0.078801
0.056798 0.053183 0.073277
-0.036030 -0.039631 0.085472
0.062859 0.018827 0.094232
-0.028552 -0.005641 0.097300
-0.027595 -0.032180 0.097767
-0.038726 -0.035855 0.082784
0.026034 0.072303 0.076940
0.061513 0.017456 0.094423
0.009788 0.055621 0.071318
0.007447 0.054261 0.080370
0.042689 0.009912 0.052000
0.044316 -0.011877 0.089062
-0.011379 0.042472 0.096190
0.030695 0.042640 0.067945
0.056523 0.009537 0.095495
0.022241 -0.023732 0.097800
0.000000 0.025000 0.097557
0.018079 0.040140 0.057801
0.079119 0.035452 0.094414
0.030558 0.073646 0.081046
-0.017374 0.039461 0.097466
0.064361 0.049779 0.074518
0.031804 0.047330 0.066862
0.018161 0.062201 0.093781
0.067123 0.024301 0.070514
0.005281 -0.014661 0.098898
0.014327 0.059219 0.070561
0.038236 0.021821 0.058199
0.001014 0.031488 0.105800
-0.036664 -0.038006 0.084266
-0.039071 -0.034128 0.084697
0.034847 -0.024043 0.097785
0.044600 0.044965 0.069084
0.038095 0.024213 0.063123
0.068536 0.023870 0.094224
-0.033361 -0.038708 0.088893
-0.035386 -0.038911 0.082436
-0.009007 0.046376 0.090825
0.055814 0.064277 0.076785
0.073922 0.030466 0.073606
0.045590 -0.011328 0.078200
0.012241 0.058702 0.067473
-0.039997 -0.034108 0.084952
0.008056 0.054375 0.091185
-0.040102 -0.035422 0.088174
0.057127 0.011567 0.094134
-0.034983 -0.039223 0.087194
0.048154 -0.002828 0.061480
0.042084 -0.010980 0.097140
0.007470 0.054105 0.080280
-0.033060 -0.027751 0.090150
-0.001249 0.050219 0.088998
0.012857 0.041411 0.097275
0.013445 0.059573 0.094213
0.042081 0.008374 0.097589
-0.023535 0.020972 0.098800
-0.037607 -0.022829 0.052152
-0.035535 -0.029476 0.083434
0.079203 0.036352 0.094672
0.058395 0.009809 0.093027
-0.012144 0.042919 0.089312
0.049742 0.039192 0.069094
0.052514 0.013709 0.096561
-0.035514 -0.038694 0.088204
0.042974 0.030584 0.067841
0.026960 0.016338 0.098801
-0.007270 0.044256 0.093512
0.012090 0.058876 0.068254
-0.041357 0.010362 0.097703
-0.000671 0.043903 0.096444
0.002725 0.050632 0.062490
0.017010 -0.005794 0.106297
0.072401 0.027542 0.076168
-0.034949 -0.027984 0.088813
0.028470 0.013536 0.105801
0.012011 0.044578 0.094310
0.036109 0.050742 0.069998
-0.038336 -0.033789 0.083297
0.007312 0.050817 0.096340
0.069183 0.026012 0.094312
0.014443 0.059621 0.082338
0.072057 0.029087 0.075896
0.042114 -0.012743 0.087896
-0.030154 -0.032813 0.081245
0.028951 -0.033002 0.096443
0.036222 0.050227 0.067242
0.073113 0.027005 0.092748
-0.036505 -0.030929 0.088703
0.011380 0.057877 0.094161
-0.024676 0.036458 0.052200
-0.014723 -0.005277 0.098981
0.041037 -0.009984 0.097789
0.037456 0.081003 0.084801
-0.042192 -0.003705 0.097779
0.012131 0.042289 0.096094
0.012321 0.060039 0.089820
0.074876 0.030603 0.084800
0.041114 0.034140 0.067698
-0.033443 -0.031564 0.090514
-0.029109 0.000000 0.106300
0.014697 0.060115 0.077363
0.080749 0.039683 0.080676
0.014065 0.058857 0.070462
0.046810 -0.008390 0.090531
0.038565 -0.020815 0.052000
-0.042902 0.004399 0.097462
0.037326 0.023249 0.096225
-0.011031 0.045704 0.069170
0.016770 -0.026693 0.105801
0.005289 0.053762 0.082130
0.011535 0.043595 0.061951
-0.005332 0.047623 0.062261
0.035703 -0.025757 0.057800
0.020996 -0.022157 0.106800
0.068337 0.025156 0.094364
0.060857 0.013051 0.073234
0.067658 0.052142 0.094810
0.049229 -0.001062 0.095128
0.029565 -0.032355 0.052000
0.043532 0.011333 0.060708
-0.002758 0.026467 0.106800
0.066180 0.022057 0.095964
0.068280 0.023988 0.071476
0.045881 -0.010312 0.066327
-0.003147 0.024768 0.106799
0.045246 -0.009893 0.091363
0.011434 0.058228 0.093671
0.008419 0.054699 0.073010
-0.026400 -0.034411 0.086918
-0.011495 0.045225 0.066832
0.080749 0.039683 0.080676
0.007421 0.053967 0.080251
0.031510 -0.000000 0.098806
-0.019736 -0.039129 0.058000
0.014857 0.062301 0.071506
0.028700 0.074813 0.088822
0.072854 0.029813 0.092763
-0.001015 0.044017 0.052204
0.020892 0.039979 0.062854
0.008106 0.013494 0.099157
0.044553 0.031017 0.067997
-0.004038 0.047826 0.094392
-0.036984 -0.035102 0.090494
-0.030798 -0.028599 0.091256
0.011208 0.057851 0.070138
-0.011691 -0.010413 0.098992
-0.010959 0.045789 0.078199
0.027485 -0.033962 0.096881
-0.003848 0.046765 0.060873
0.045106 0.063562 0.096782
0.047400 -0.000755 0.095568
-0.027823 0.033223 0.097300
-0.017436 0.008728 0.097300
0.056527 0.007165 0.088637
0.032779 0.031037 0.063337
0.045222 0.031976 0.065232
0.035262 -0.024454 0.097598
0.029133 0.072107 0.076632
-0.028006 -0.034960 0.085451
0.043892 0.013361 0.094308
0.028597 0.071708 0.093811
0.044342 -0.012366 0.066146
0.077741 0.042962 0.079241
0.016977 0.005964 0.097300
0.020724 -0.011783 0.097300
0.019629 0.025934 0.097800
-0.028292 0.032256 0.097589
0.068336 0.023537 0.094278
-0.017403 0.009736 0.106800
0.074313 0.030238 0.090216
0.038632 0.021113 0.060550
0.057922 0.012882 0.066321
0.028345 0.032465 0.097481
-0.016949 -0.026580 0.105801
0.053599 0.004951 0.090668
0.059937 0.015445 0.094316
0.074344 0.028144 0.079344
0.004918 0.053534 0.078800
0.046741 -0.001093 0.095307
0.029987 -0.012594 0.097800
0.063807 0.018537 0.071411
0.042814 -0.009147 0.096728
0.014487 -0.006107 0.099112
0.015980 -0.039998 0.097496
0.026409 0.015307 0.106800
-0.038084 -0.037781 0.086269
-0.037454 0.023040 0.096244
0.032269 0.031368 0.060745
0.047090 0.001042 0.095192
0.061816 0.015417 0.071124
-0.002497 0.049154 0.078800
0.032414 0.002679 0.097800
-0.038937 -0.034952 0.088996
0.041893 0.076990 0.077440
0.008610 0.041662 0.097732
0.027458 0.035650 0.060744
0.059287 0.010880 0.092695
0.011477 0.057866 0.066749
0.027958 0.074152 0.091475
0.001146 0.043982 0.096013
0.020518 0.065141 0.070073
-0.037969 -0.036431 0.082576
0.081214 0.038389 0.086637
0.013275 0.060491 0.089880
0.010605 0.056177 0.093388
-0.037478 -0.034646 0.082252
-0.001199 0.047925 0.061133
-0.014773 0.005377 0.099112
0.010804 0.057714 0.093573
-0.009275 0.012472 0.098873
0.028009 0.032297 0.097656
0.023724 0.068237 0.071680
0.014825 0.060109 0.078105
0.025791 0.069051 0.093754
0.028922 0.003406 0.097300
0.023415 0.066859 0.094256
0.046885 -0.005516 0.094022
0.081018 0.039879 0.087391
-0.027485 0.033962 0.096881
0.078565 0.037810 0.095035
-0.000823 0.050496 0.063769
-0.034983 -0.039223 0.087194
0.064160 0.017156 0.073815
0.072057 0.029087 0.075896
0.042679 0.009952 0.058000
-0.034284 -0.027053 0.096914
0.009644 0.055698 0.092296
0.001709 0.051909 0.094271
0.072854 0.029813 0.092763
0.067943 0.025733 0.096659
-0.020182 -0.018967 0.106335
0.062906 0.057983 0.094422
0.013057 0.058074 0.093794
-0.039079 -0.036568 0.086714
-0.026988 0.033392 0.097575
0.032942 0.076281 0.074698
0.052876 0.003697 0.069367
0.006840 0.056270 0.075591
0.073466 0.029582 0.073638
-0.026302 0.035168 0.096407
-0.032852 -0.027607 0.097598
0.037859 -0.021077 0.097307
0.020608 0.064355 0.094256
-0.037856 -0.037993 0.083140
-0.025699 -0.035096 0.097134
-0.039025 -0.034603 0.082960
0.019332 0.039552 0.058199
-0.013294 0.041951 0.078200
0.007571 0.044363 0.060762
0.008942 0.057718 0.092439
0.013798 0.042921 0.062161
0.048845 0.006679 0.095520
0.027595 0.032180 0.097767
-0.039997 -0.034108 0.084952
0.007474 0.054007 0.083099
0.017080 -0.007610 0.106297
0.023768 0.068543 0.095124
0.015662 0.060213 0.070753
-0.012565 0.042590 0.088497
-0.018614 0.020803 0.106800
0.055525 0.011618 0.065215
0.026131 -0.011475 0.106800
0.015446 0.062811 0.093163
0.042305 0.046257 0.067307
0.034172 0.075566 0.096511
-0.034602 -0.037559 0.082297
0.052271 0.068271 0.094328
-0.035402 -0.037811 0.089343
0.015599 -0.041118 0.096164
0.053287 0.004315 0.064798
0.007927 0.054360 0.073974
0.061870 0.016840 0.083824
0.001603 0.051090 0.095317
-0.033270 -0.038807 0.082885
0.003547 0.042765 0.097598
0.028858 0.072092 0.093558
0.043341 -0.010338 0.091474
0.046302 0.014104 0.094769
0.015173 -0.018967 0.106335
0.027374 0.073543 0.077378
0.074698 0.030534 0.082161
0.041133 0.048005 0.070644
-0.041797 0.010537 0.097476
0.048841 -0.004148 0.078200
0.021939 0.036877 0.097598
-0.015416 -0.016022 0.106338
0.034847 -0.024043 0.097785
0.041464 0.047816 0.070814
-0.034065 -0.038885 0.083670
0.043916 -0.011609 0.063713
0.077798 0.033361 0.094511
0.018972 0.010784 0.097300
-0.002203 -0.043839 0.096470
0.018438 0.020390 0.097300
0.054593 0.006659 0.085186
-0.038247 -0.037413 0.082300
0.032039 0.074584 0.088899
-0.030588 -0.032360 0.090590
0.048130 0.041124 0.069121
-0.025689 -0.033708 0.085167
0.011773 -0.041466 0.097476
0.001826 0.051768 0.078199
0.019845 0.015917 0.106330
-0.015632 0.015125 0.106799
0.078425 0.034955 0.095076
-0.034115 -0.039081 0.086864
0.014952 0.003870 0.098832
0.080970 0.037353 0.084801
-0.030400 -0.034618 0.081911
0.038344 0.050422 0.070764
0.027794 0.071900 0.095705
-0.037432 -0.035863 0.082524
-0.033270 -0.038807 0.082885
0.059728 0.013850 0.070053
0.050380 0.072982 0.083188
0.072927 0.028755 0.093272
0.077725 0.033008 0.077363
-0.034631 -0.038948 0.087039
-0.036053 0.025198 0.096134
0.030303 0.073447 0.090343
0.015024 0.061169 0.069386
0.005244 0.053731 0.078200
0.051057 0.037268 0.070999
0.070525 0.050048 0.094047
0.048290 -0.001161 0.061290
-0.016476 0.038916 0.097785
-0.028501 -0.005928 0.106300
-0.016507 -0.005791 0.106800
0.060115 0.014379 0.070114
-0.038389 -0.034547 0.088778
0.032555 0.077062 0.094644
0.072305 0.048055 0.093943
0.029961 0.072903 0.077146
0.016770 -0.026693 0.105801
0.023948 0.018926 0.106800
0.025215 0.037483 0.063212
-0.025605 -0.035746 0.096188
-0.039036 0.020353 0.052199
0.034408 0.079139 0.079167
0.058780 0.010403 0.083633
0.043997 0.045455 0.070809
0.036919 0.079456 0.094428
0.046719 0.027700 0.096737
0.062605 0.015793 0.073826
0.001189 0.051466 0.069476
0.025311 -0.035776 0.058000
0.080911 0.037480 0.088868
-0.037821 -0.036850 0.083453
-0.015416 -0.016022 0.106338
-0.034614 -0.039827 0.087583
0.036456 0.026573 0.063189
-0.021307 0.011953 0.106300
0.067854 0.023481 0.095653
0.023684 0.037052 0.096239
0.017274 0.062300 0.083137
0.042860 0.045348 0.070695
0.080779 0.039772 0.084200
0.025093 0.041651 0.094874
-0.016949 -0.026580 0.105801
-0.029716 -0.033216 0.091017
-0.008700 -0.042020 0.097598
-0.028098 -0.034867 0.084620
0.048832 0.035085 0.066407
0.031707 -0.028183 0.097764
-0.013030 0.028705 0.105801
-0.013907 0.040027 0.097772
0.043515 0.045575 0.068089
0.037750 0.024458 0.060707
-0.015173 0.016388 0.106335
-0.003848 0.046765 0.060873
0.014418 0.017678 0.106800
-0.029819 -0.035208 0.082731
0.045273 -0.010710 0.064648
0.053743 0.007084 0.083096
-0.004589 0.015092 0.105808
0.049355 -0.003035 0.085672
-0.038908 -0.035673 0.082601
0.042288 -0.008315 0.097481
-0.034093 -0.039288 0.083928
0.001014 -0.031488 0.105800
-0.037908 -0.034217 0.088942
-0.005627 0.047418 0.093662
-0.012519 0.044353 0.078200
0.011889 0.011818 0.106800
0.050891 0.005631 0.096468
0.027697 0.073873 0.091982
-0.026409 -0.015307 0.106800
0.043181 0.003628 0.097300
-0.019256 0.015362 0.097300
0.056349 0.012509 0.096748
-0.001611 0.027535 0.098797
-0.017145 0.020443 0.106339
0.056086 0.010223 0.071079
0.052993 0.005091 0.063940
0.068480 0.025208 0.073878
-0.036933 -0.035192 0.089681
-0.015368 0.019246 0.097300
-0.024827 0.036317 0.096031
0.016770 0.026693 0.105801
0.019723 0.015124 0.106799
0.015980 -0.039998 0.097496
0.055678 0.010548 0.065189
-0.013596 0.043034 0.072960
0.031104 0.073650 0.092546
0.031774 0.032036 0.063309
-0.038802 -0.037137 0.086785
0.066668 0.020009 0.074895
0.007860 0.054513 0.075395
0.071785 0.025623 0.093203
0.023093 0.069460 0.093209
-0.039254 -0.034250 0.083568
0.033943 0.076226 0.096302
0.012086 0.057514 0.070236
0.044034 0.031402 0.066154
0.027132 0.071552 0.093553
0.079581 0.038432 0.077486
-0.013841 0.041792 0.057801
-0.008511 0.045836 0.092439
0.039073 0.019847 0.058000
-0.010058 0.046230 0.078801
-0.013581 0.041852 0.078800
0.044977 -0.012248 0.084064
0.040571 -0.016165 0.096914
0.010527 0.057448 0.094105
-0.025849 0.011046 0.097300
0.054593 0.006659 0.085186
0.017862 0.062104 0.068314
0.063497 0.016435 0.091584
0.045153 -0.011170 0.089065
0.023443 0.066669 0.070321
0.027005 0.070081 0.094339
0.016414 -0.038933 0.097786
0.071147 0.026742 0.094161
0.049746 0.037472 0.066963
0.002912 0.048944 0.096087
0.043243 -0.004708 0.097134
0.014476 0.061126 0.070895
0.073121 0.029064 0.076841
0.056144 0.008865 0.071539
0.010821 0.057662 0.068913
0.001147 0.022215 0.098797
-0.017018 -0.005748 0.106297
-0.015114 -0.004091 0.099000
0.007962 0.054326 0.073764
0.034717 0.074680 0.096606
0.020232 0.018830 0.097300
0.023768 0.068543 0.095124
0.073174 0.030227 0.077764
0.064923 0.021213 0.072310
-0.035514 -0.038694 0.088204
0.048159 -0.004575 0.093809
-0.034858 -0.028107 0.084568
-0.011193 0.044173 0.090417
0.043181 0.003628 0.097300
0.054902 0.011749 0.096785
0.055607 0.008040 0.070072
-0.024215 0.036527 0.058000
0.049588 0.039355 0.070746
0.027702 0.071971 0.093923
0.029770 0.072743 0.077761
0.037651 0.049721 0.070516
-0.014875 -0.017955 0.097300
-0.037027 -0.030393 0.084381
0.017022 0.040230 0.096891
0.052876 0.003697 0.069367
-0.018203 0.020420 0.097300
0.035246 0.049845 0.067453
0.078317 0.033595 0.077947
0.056113 0.007833 0.090412
-0.043235 0.007997 0.096200
-0.012715 0.044619 0.078200
0.008058 0.055456 0.065582
-0.035452 -0.027480 0.087051
-0.036037 -0.038633 0.085635
0.080452 0.036124 0.084802
0.047348 0.031816 0.066863
0.021522 0.065198 0.094239
0.040802 0.048502 0.069037
0.014961 0.059510 0.069968
0.008038 0.043284 0.057801
0.047417 0.041939 0.070843
0.031277 0.046874 0.066629
-0.001624 0.022315 0.106799
-0.009275 0.012472 0.098873
-0.037042 -0.036171 0.082281
-0.034968 -0.028002 0.085747
0.037401 0.079143 0.076729
0.015227 0.004117 0.105806
0.042362 -0.011079 0.096713
-0.025867 -0.033530 0.087482
0.030629 0.074664 0.086954
-0.000408 -0.015610 0.098944
0.031907 0.074793 0.081986
0.055067 0.007470 0.089528
0.044915 -0.004643 0.094424
0.029113 0.074256 0.079594
-0.037426 -0.037177 0.089566
0.032437 0.044550 0.065132
0.070486 0.028777 0.096736
0.072556 0.029337 0.093143
0.010500 0.057653 0.071077
0.059223 0.015482 0.066921
0.034291 0.079024 0.092975
0.043236 0.008093 0.096065
0.011650 0.058183 0.070029
0.062281 0.048166 0.096728
-0.039047 0.020331 0.058200
-0.011265 0.044845 0.089564
0.022760 0.012108 0.106293
-0.007669 0.046563 0.062861
0.017274 0.062300 0.083137
-0.036792 -0.036792 0.082500
0.015433 0.060073 0.093718
0.058928 0.058963 0.075620
-0.009066 0.046618 0.088148
0.044629 -0.006141 0.094023
-0.037813 -0.037835 0.088444
0.065273 0.020602 0.095640
0.019213 0.063125 0.071998
0.011172 0.042377 0.058000
0.043284 0.008038 0.052199
-0.039079 -0.036568 0.086714
0.054459 0.006626 0.080972
0.041211 0.034810 0.066242
0.052262 0.003818 0.063559
0.072500 0.028310 0.093620
0.009824 0.055623 0.071810
0.054502 0.006455 0.082975
0.044034 0.031402 0.066154
-0.035906 -0.037855 0.081777
0.054013 0.005842 0.095359
0.045731 -0.009932 0.090544
-0.020446 0.018042 0.097300
0.030037 0.074357 0.091129
0.022320 0.012597 0.106800
0.043521 0.003690 0.096905
-0.038055 -0.037817 0.085311
0.002922 0.025768 0.098800
0.051438 0.003284 0.095837
0.042867 -0.013655 0.074430
0.026128 0.069686 0.071750
0.016651 -0.040753 0.052199
-0.043973 -0.000615 0.096232
-0.018614 0.020803 0.106800
0.015296 0.061149 0.094253
0.010096 0.013380 0.106800
-0.034598 -0.037527 0.089280
0.030627 0.032775 0.060575
-0.016801 -0.040692 0.057801
0.010863 0.059247 0.093067
0.021537 0.065237 0.069721
0.019388 0.064565 0.094242
0.029515 0.072484 0.077257
0.044809 0.043318 0.067024
-0.040206 -0.034641 0.084837
0.034717 0.074680 0.096606
0.006338 0.054445 0.071952
0.031278 0.074226 0.086247
-0.038026 -0.037475 0.089875
0.002844 0.032400 0.097800
-0.009299 0.044861 0.062051
-0.007464 0.044729 0.060986
0.074216 0.033042 0.096711
0.044697 -0.008736 0.092667
-0.034284 -0.027053 0.096914
0.042405 -0.013416 0.068219
0.030639 0.074944 0.086904
0.055763 0.009823 0.071371
0.075774 0.032104 0.074589
-0.012785 0.044520 0.073818
0.057659 0.012578 0.069994
0.042960 0.034478 0.065191
-0.029096 0.001016 0.097300
-0.037478 -0.034646 0.082252
0.032762 -0.029350 0.096134
0.028671 0.072526 0.073187
-0.017022 -0.040230 0.096891
0.044320 0.044270 0.067263
0.035109 0.079853 0.082379
0.026636 0.071459 0.075472
-0.037765 -0.037046 0.082433
0.073468 0.031278 0.096644
0.068530 0.025065 0.073927
0.024075 0.036858 0.052199
0.042695 0.032334 0.067519
0.038197 0.078832 0.094707
0.006907 0.053659 0.064176
0.030627 0.032775 0.060575
0.027536 0.010089 0.106800
0.008594 0.012999 0.098898
-0.002836 0.016520 0.106800
-0.035784 -0.029241 0.084210
0.055664 0.009854 0.093288
0.041938 0.006189 0.097768
-0.009832 -0.028898 0.106800
0.056223 0.008961 0.093020
-0.030249 -0.029148 0.089766
-0.020182 -0.018967 0.106335
-0.013349 0.041926 0.085646
-0.033060 -0.027751 0.090150
-0.026385 -0.033012 0.082544
0.006737 0.054524 0.084381
-0.036933 -0.035192 0.089681
0.041936 -0.005194 0.097786
0.013922 0.059480 0.083566
0.038762 0.072576 0.074379
0.005973 0.053391 0.095930
0.027485 -0.033962 0.096881
0.008106 0.013494 0.099157
0.030629 0.074664 0.086954
-0.014633 -0.005792 0.099140
-0.026984 -0.033828 0.082839
0.009328 0.058033 0.071847
0.016053 0.015407 0.106329
0.001365 0.048435 0.095946
-0.037594 -0.038252 0.087788
-0.029622 0.001034 0.106800
-0.009299 0.044861 0.062051
-0.026117 0.011485 0.106800
0.009578 0.055745 0.065296
0.059901 0.013866 0.069955
0.013694 0.009685 0.106800
0.042753 0.003601 0.097590
0.023557 -0.020948 0.105801
0.015425 0.040068 0.097575
0.034294 0.041574 0.066075
0.074252 0.031161 0.084793
0.032762 -0.029350 0.096134
0.047186 -0.007616 0.065468
-0.035934 -0.025400 0.057800
-0.029487 -0.035519 0.083397
0.045815 -0.007424 0.093272
0.052306 0.071215 0.082083
0.055528 0.008198 0.072644
-0.009879 0.043792 0.061933
0.064537 0.019033 0.094596
0.041606 0.008104 0.097768
-0.028054 -0.024273 0.088141
0.008409 0.056222 0.091508
-0.036577 -0.037974 0.082356
0.000727 0.044979 0.060680
0.016597 -0.039279 0.097702
0.005510 0.049063 0.095755
0.020702 0.011775 0.106297
0.031208 0.074149 0.082162
0.043996 -0.013075 0.068419
-0.038067 -0.034870 0.089136
0.010481 0.058943 0.071392
-0.036925 -0.039005 0.083384
-0.039070 -0.036583 0.085100
0.025488 0.034776 0.097466
0.012254 0.057754 0.093697
0.011465 0.056952 0.093624
-0.036121 -0.038080 0.088795
-0.039162 -0.035039 0.084254
0.057963 0.009189 0.071956
0.048856 -0.000592 0.095426
0.039823 0.049189 0.069175
0.022309 0.067134 0.071444
-0.012818 0.044332 0.085811
0.038095 0.024213 0.063123
0.043258 -0.006819 0.096711
0.037994 0.040246 0.065112
-0.034584 -0.040256 0.085308
0.017266 0.062327 0.081175
-0.038789 -0.035793 0.088745
-0.019649 0.039173 0.058000
0.044019 -0.012168 0.064857
0.044860 0.004320 0.061001
0.008841 0.044300 0.061658
0.019191 0.020016 0.106332
0.061213 0.015632 0.068481
-0.032213 -0.032814 0.090669
-0.034956 -0.040566 0.086727
0.014418 0.041583 0.060550
-0.009934 0.044261 0.062134
-0.039208 -0.018484 0.097307
0.031087 0.075800 0.076087
0.072488 0.046388 0.094809
-0.031792 -0.027605 0.080960
-0.027995 -0.034968 0.085862
0.046119 -0.004447 0.060719
0.079683 0.035429 0.084200
-0.004020 0.048881 0.063910
0.039857 0.081117 0.084800
0.032420 0.047930 0.067124
0.060758 0.016502 0.067654
0.036222 0.050227 0.067242
-0.039191 -0.034002 0.086365
-0.013611 0.041949 0.078200
0.004371 0.043807 0.052199
0.000926 0.027876 0.098800
0.035164 0.079912 0.088270
0.031012 0.073949 0.089623
-0.008337 0.046963 0.078801
0.052344 0.002456 0.064751
0.015237 0.002101 0.098815
0.043686 -0.010317 0.091507
0.040022 0.048679 0.068165
0.034465 0.027303 0.096260
0.044116 -0.011683 0.089658
0.062946 0.015613 0.071817
0.035205 0.027734 0.060568
-0.020657 -0.016313 0.106799
0.074553 0.046785 0.092396
0.060659 0.015470 0.067854
-0.025867 -0.033530 0.087482
-0.005432 -0.043687 0.057801
0.008229 0.014604 0.106800
0.044017 -0.001015 0.057796
0.014361 0.059719 0.078569
0.043566 0.004751 0.058000
0.002808 0.043934 0.057801
-0.010184 -0.042546 0.096806
0.024053 0.065900 0.096751
0.029643 0.072570 0.075318
-0.036918 -0.036424 0.081726
0.080437 0.037025 0.084800
0.017583 -0.003418 0.106300
-0.029662 0.007203 0.106800
-0.037537 -0.036047 0.088927
-0.002196 -0.015575 0.099104
-0.015355 -0.002073 0.098853
0.054710 0.007072 0.087257
-0.039550 -0.035297 0.083039
0.045255 -0.008036 0.093033
-0.000796 0.027962 0.106774
0.030683 0.044697 0.067626
0.039728 0.034472 0.068007
0.008197 0.054730 0.073437
-0.035098 -0.039517 0.083664
0.028179 -0.007421 0.097300
-0.038972 -0.035240 0.083836
0.044298 -0.012577 0.078200
0.038367 0.049637 0.067286
-0.037198 -0.037472 0.087595
0.070486 0.028777 0.096736
0.029435 -0.031840 0.097275
0.052287 0.004816 0.063434
-0.034262 -0.039001 0.084691
-0.028327 0.011372 0.106800
0.044213 0.009123 0.061677
0.057498 0.010252 0.094603
0.035535 0.079690 0.084800
0.029900 0.074595 0.087115
0.055019 0.008979 0.092227
-0.008896 0.042756 0.096914
-0.002427 -0.015242 0.098814
0.007148 0.054856 0.088178
0.048832 0.035085 0.066407
-0.000420 0.044001 0.094300
-0.033448 -0.038722 0.084173
0.012018 0.060110 0.071156
-0.013336 0.042637 0.086328
0.013799 -0.007345 0.098962
-0.028740 0.004698 0.097300
0.058151 0.011551 0.094221
0.071481 0.028518 0.093317
0.010358 -0.011882 0.105800
0.046677 0.072676 0.077027
-0.000994 0.045709 0.094471
0.030633 0.074750 0.086152
-0.027794 0.008631 0.097300
0.054211 0.007790 0.089071
0.074012 0.029971 0.091264
0.035996 0.078417 0.095369
0.033829 0.078554 0.078231
0.036632 0.041341 0.065136
0.050258 0.000031 0.095069
0.041612 -0.008173 0.097763
0.029521 0.073977 0.093848
0.003776 0.043823 0.096134
-0.017591 -0.003377 0.106303
-0.009211 0.046002 0.091359
0.044082 0.009024 0.060711
0.074207 0.031274 0.082956
-0.026117 0.011485 0.106800
0.002797 0.023876 0.098797
0.003028 0.052236 0.095180
0.043608 0.005193 0.096407
0.001218 -0.031500 0.098800
-0.015323 -0.019178 0.097300
-0.000677 0.043326 0.097307
0.029329 0.032505 0.096728
0.062281 0.048166 0.096728
0.043991 -0.001276 0.058200
0.030756 0.073702 0.088781
0.018188 0.040080 0.094300
-0.038814 -0.033280 0.088701
0.040811 0.021185 0.094308
-0.003667 0.043751 0.096444
-0.011265 0.044845 0.089564
-0.011424 0.042516 0.058199
0.000408 0.015610 0.098944
0.059051 0.010653 0.071305
-0.023994 -0.028948 0.087720
-0.041777 -0.009868 0.097577
0.001014 0.031488 0.105800
0.028502 0.074569 0.090215
0.055067 0.007470 0.089528
0.038964 0.081006 0.080762
0.035393 0.041583 0.065708
0.042990 0.046470 0.070869
0.059220 0.014297 0.066972
-0.033872 -0.038291 0.088415
-0.003978 0.045387 0.094604
0.059516 0.011126 0.072410
0.079646 0.036315 0.093974
0.011535 0.043595 0.061951
0.071934 0.027425 0.095225
0.064736 0.019516 0.094279
-0.028944 -0.024023 0.083749
0.012512 0.058836 0.069922
0.059272 0.014406 0.070060
0.020191 -0.018894 0.097300
0.031009 0.045886 0.066555
0.031921 0.074507 0.080707
0.057392 0.007893 0.076308
-0.006906 -0.014182 0.105807
-0.020400 0.018295 0.106332
-0.004589 0.015092 0.105808
0.054591 0.007924 0.089444
0.011650 0.058183 0.070029
0.018382 0.041298 0.062742
0.030719 0.045456 0.067691
0.010412 0.057255 0.070452
-0.038642 -0.034304 0.088404
0.012131 0.042289 0.096094
0.031823 0.074354 0.090328
0.010760 0.057446 0.094059
0.034158 0.034826 0.094914
0.029220 0.073301 0.077122
-0.035319 -0.040207 0.083645
0.074012 0.029971 0.091264
0.030546 0.073601 0.089438
-0.034015 -0.033413 0.090672
0.023910 0.036965 0.058199
0.022606 0.067224 0.095469
0.001675 0.045029 0.060772
-0.015173 -0.018967 0.106335
0.056206 0.063606 0.095003
0.034925 0.078979 0.094216
0.037259 0.023450 0.094300
0.039800 -0.014457 0.097783
0.043099 -0.012862 0.065537
0.065542 0.020525 0.072199
-0.029900 -0.030911 0.091534
-0.019256 0.015362 0.097300
0.037417 0.078519 0.095195
-0.035552 -0.038435 0.082063
-0.029743 -0.031068 0.091415
0.032269 0.031368 0.060745
0.005109 0.044539 0.060571
0.012545 -0.008913 0.098814
-0.026871 0.010106 0.097300
-0.036505 -0.030929 0.088703
