0.008180 -0.017229 -0.106662
0.019908 -0.034867 -0.008198
0.033116 -0.061701 0.103706
0.005154 0.055217 -0.021078
0.044999 0.018513 0.023703
-0.053163 0.051292 -0.086847
-0.054027 -0.005376 0.043779
-0.032116 0.081839 -0.089429
-0.043526 0.067615 -0.046680
0.017430 -0.055488 0.014573
-0.047787 0.028158 0.039967
-0.013242 -0.085395 0.092946
-0.010563 0.030006 -0.002993
-0.027008 -0.020119 -0.029972
0.034460 0.026982 -0.001448
0.023902 -0.033184 -0.007640
0.052547 0.039868 -0.035848
-0.051453 0.004353 0.026115
-0.006269 -0.040355 -0.006100
0.052859 0.015421 -0.034723
0.029179 0.029934 -0.006091
-0.039808 0.074200 -0.052282
0.009688 -0.090051 0.081255
0.045453 0.034296 -0.123501
0.054058 0.034004 -0.035773
0.046692 0.021948 -0.003534
0.000176 -0.075007 0.110548
0.054922 0.021639 -0.028451
0.054614 0.036689 0.061890
-0.005762 0.031339 0.012593
-0.054485 0.029354 -0.063694
-0.034846 0.025743 0.002722
0.027411 -0.053548 0.110440
-0.045303 0.021385 0.000860
-0.018254 -0.061840 0.113273
-0.010790 -0.090846 0.075403
-0.019322 0.028671 -0.000677
-0.010111 0.043342 -0.016083
-0.027363 0.028806 -0.003083
0.002292 -0.072871 0.112547
-0.005197 0.089750 -0.050196
0.045751 0.018093 0.025785
0.016636 -0.063748 0.113453
0.015359 -0.054971 0.013216
0.046571 0.031257 0.038682
0.018400 -0.085568 0.048128
0.041791 -0.027183 0.104128
0.006042 -0.070197 0.114404
-0.018390 -0.087664 0.082212
-0.000745 -0.092002 0.063431
-0.015904 -0.057923 0.016004
0.023722 0.086122 -0.055538
-0.039438 -0.009365 -0.031743
0.043874 -0.060555 0.046563
0.022013 -0.086451 0.055252
-0.034235 -0.040171 0.013052
0.029670 0.036422 -0.015115
-0.041424 -0.070255 0.047869
0.008151 0.029537 0.011557
-0.054710 0.033550 -0.038371
-0.009046 -0.084729 0.096095
0.035352 0.066457 -0.036305
0.031886 0.025942 0.016754
-0.035561 -0.080048 0.075321
-0.048698 0.062749 -0.104575
-0.047624 -0.038534 0.038498
-0.050142 0.011407 0.011135
-0.051117 0.016569 -0.090101
-0.038844 -0.013929 -0.022038
0.054369 0.043096 -0.043520
0.041527 0.027230 0.029951
-0.007837 -0.090190 0.055113
0.046809 -0.045645 0.090268
-0.039214 0.072971 -0.047892
-0.003730 -0.073044 0.024711
0.042019 0.055714 -0.034041
-0.013240 0.087486 -0.048751
-0.014629 0.082648 -0.041517
0.052037 0.034701 -0.030883
-0.044928 -0.056595 0.046402
-0.005632 0.088914 -0.048322
-0.046231 0.033375 -0.020914
-0.001356 0.027787 0.005855
0.030196 0.073939 -0.039751
0.011595 0.034952 0.014636
-0.003746 -0.017726 -0.105144
0.044761 0.025244 -0.007403
0.034858 -0.061178 0.032372
-0.047691 0.064584 -0.114651
-0.054281 -0.002432 0.005857
-0.030442 0.082883 -0.057133
0.034311 -0.065135 0.101448
0.033243 -0.061630 0.030879
-0.036440 -0.034526 0.009127
0.043731 -0.026614 0.101822
-0.038311 0.076648 -0.080069
-0.052791 0.019514 -0.014597
-0.011594 0.090960 -0.112863
-0.009227 0.085669 -0.043527
-0.011231 0.085443 -0.043956
0.054453 0.001140 0.055441
-0.033639 0.032728 -0.012029
0.050850 0.015698 -0.082081
0.021637 -0.051616 0.013322
0.025599 -0.011557 -0.105952
0.027945 -0.031163 -0.006826
0.035695 -0.052550 0.027090
0.023339 -0.080694 0.095076
0.026560 0.073872 -0.037621
-0.018269 0.032978 0.016185
0.040812 0.037856 -0.021178
-0.037790 0.023584 0.013376
-0.020500 0.068013 -0.030755
-0.019809 -0.082489 0.042418
-0.018389 -0.084945 0.090429
-0.033303 0.031417 -0.010052
0.043057 0.002827 -0.103267
0.027726 -0.010568 -0.097405
0.006354 0.036844 -0.011421
-0.045504 -0.070608 0.075689
0.012647 -0.022235 -0.041903
-0.002022 -0.020338 -0.062466
-0.046769 0.066127 -0.103132
0.033967 -0.045411 0.107494
0.035175 -0.074343 0.092732
-0.049606 0.011395 -0.052162
0.033176 -0.080585 0.081116
-0.045102 -0.070567 0.078014
0.035368 0.077491 -0.050678
0.040588 -0.000090 -0.101840
-0.007487 -0.055444 0.011282
0.015359 -0.054971 0.013216
-0.044774 0.019824 0.026166
-0.009529 -0.024702 -0.035971
0.012964 0.031578 0.014078
-0.027260 0.084959 -0.081798
0.007325 -0.077654 0.106988
-0.029642 0.064198 -0.031836
0.021818 -0.024340 -0.026384
0.054054 -0.001698 0.016072
-0.045193 0.027692 -0.012203
0.022054 0.036689 0.018105
-0.009989 -0.052481 0.009032
-0.001294 0.030267 0.011326
-0.021255 -0.049029 0.010522
0.023384 -0.021862 -0.030666
0.054840 0.001939 0.000607
-0.047794 0.040559 -0.029340
-0.037233 0.024197 0.018453
-0.026657 -0.018650 -0.034544
-0.013494 0.029370 -0.001822
-0.027562 0.035579 -0.013663
0.050171 -0.019906 0.020747
0.051863 0.017837 -0.058662
-0.054228 0.018062 -0.028895
0.050045 0.008518 0.022350
0.031311 -0.061724 0.105318
0.041559 0.068051 -0.043897
0.053773 -0.030611 0.072853
0.054995 0.038303 -0.066288
-0.046749 0.005152 -0.048254
-0.043381 0.019548 0.017707
0.016140 -0.058282 0.016389
0.050836 -0.015200 0.014748
0.037153 -0.019759 -0.013495
-0.044049 -0.070204 0.054234
0.023204 -0.072998 0.031107
0.020102 0.042902 -0.017668
0.041175 0.021655 0.013073
-0.052782 0.018865 -0.045053
0.021507 0.087704 -0.057727
-0.006206 -0.028453 -0.027448
0.051344 0.056934 -0.113755
0.054303 0.026254 0.059264
-0.040163 0.035099 -0.017856
-0.024005 0.027786 0.001266
-0.051092 0.036854 -0.030941
-0.033213 -0.027983 -0.005299
-0.054915 0.040242 -0.103056
0.038564 -0.077303 0.077468
0.052338 0.053781 -0.049499
-0.010130 -0.020523 -0.052853
-0.028816 -0.084833 0.069508
0.027436 0.026536 0.006697
-0.050431 -0.025493 0.090406
0.013566 0.032951 0.014728
-0.040733 -0.046566 0.029701
-0.000030 -0.041005 -0.006024
-0.049906 0.060313 -0.113468
0.042253 0.047568 -0.029485
-0.003980 0.049770 -0.018450
-0.012758 -0.070255 0.023934
0.022296 0.049209 -0.021806
0.035695 -0.052550 0.027090
0.051633 0.010351 -0.031750
0.031466 -0.074227 0.039435
0.022182 0.081010 -0.043700
0.013574 -0.089907 0.059041
-0.002576 -0.020900 -0.057204
0.029349 -0.074869 0.038200
-0.044296 0.024487 0.031627
0.036164 0.029025 0.025263
0.014841 -0.046359 0.004227
0.042586 0.065557 -0.042299
0.004278 0.091923 -0.057767
0.008937 0.082389 -0.039120
0.010945 -0.076346 0.029369
-0.030887 0.082698 -0.104305
-0.047683 0.013889 0.023931
0.042103 -0.038934 0.024647
-0.053388 0.021263 -0.044812
-0.000015 -0.032322 -0.020268
0.039131 -0.074635 0.084887
0.023850 -0.025277 -0.022083
0.006721 -0.084305 0.097504
0.000057 -0.051947 0.007024
-0.040289 0.072263 -0.048614
0.043114 -0.053678 0.093916
-0.051224 0.016712 -0.083783
0.020712 -0.077520 0.101940
0.018718 0.028099 0.001478
0.036271 -0.033933 0.008075
-0.047787 0.028158 0.039967
-0.034284 0.024942 0.011313
0.047854 0.014514 0.027255
0.050778 0.047863 -0.037826
0.036970 0.023972 0.012407
-0.046525 -0.002565 -0.025626
-0.052883 -0.032579 0.058798
0.037985 -0.076558 0.054720
-0.047825 0.032297 -0.021586
0.033320 -0.058948 0.029109
0.052303 -0.040152 0.072301
-0.051253 -0.040878 0.079389
0.001992 -0.029088 -0.026962
-0.033484 0.049011 -0.025720
-0.054162 0.017801 -0.017753
-0.049173 -0.029175 0.032152
-0.052350 -0.025324 0.085112
0.010945 0.091092 -0.101858
-0.046462 -0.061271 0.082178
-0.050715 -0.034974 0.047034
0.025065 0.079091 -0.042902
0.047172 -0.018583 0.007983
0.027379 -0.053187 0.018918
-0.032298 -0.015357 -0.033062
0.053215 0.022483 -0.057752
0.053342 0.010208 -0.021312
-0.007883 0.078532 -0.035172
-0.045705 -0.034300 0.027771
0.044783 0.002155 -0.048993
-0.053059 0.044353 -0.039837
0.014055 0.077558 -0.035867
-0.009373 0.030421 0.012611
-0.019830 0.086111 -0.050934
-0.019490 0.088621 -0.074073
0.053384 0.025475 -0.024795
-0.047977 0.014075 0.014490
-0.045722 -0.034664 0.096491
-0.035802 0.037447 -0.018210
0.042161 0.020712 0.017195
-0.045972 -0.055187 0.048217
-0.004364 -0.091035 0.057396
0.044238 -0.069949 0.054386
-0.006170 -0.090001 0.083460
0.046050 0.036689 0.098590
0.042089 0.029199 0.031716
0.039856 -0.070175 0.092118
-0.053262 0.023084 -0.081483
-0.003519 -0.019126 -0.074884
0.028565 -0.042777 0.112242
-0.005621 -0.030918 -0.022194
-0.044733 -0.053009 0.091231
-0.035134 0.026708 0.022256
-0.022101 0.087555 -0.081772
-0.025335 0.036910 -0.014420
-0.042682 0.035606 -0.020149
0.032190 -0.015433 -0.033116
-0.029709 0.068734 -0.034798
0.008204 -0.091642 0.067119
0.008207 -0.075922 0.028236
-0.052350 -0.025324 0.085112
-0.054591 0.030217 -0.053946
0.020029 0.066911 -0.029947
0.051595 0.012316 -0.036981
-0.041805 -0.061531 0.092834
-0.019805 -0.073214 0.107548
0.016106 -0.053620 0.115993
-0.053350 0.023176 -0.061861
-0.004346 0.091947 -0.057980
-0.009144 0.028376 0.009966
0.048226 0.005527 -0.039607
0.001301 -0.077509 0.029174
0.040333 0.022619 0.009123
0.006495 0.039001 -0.013076
-0.012773 -0.018599 -0.064597
-0.017857 -0.017072 -0.064550
-0.020535 -0.015728 -0.067956
-0.054432 0.030350 -0.034233
-0.050022 -0.027237 0.032696
0.016755 -0.084687 0.092297
0.050436 0.059185 -0.052763
-0.001620 0.042988 -0.015254
0.027118 0.080922 -0.047296
-0.039114 -0.076541 0.058338
0.049834 0.060488 -0.101778
-0.046327 0.028907 0.037673
0.032957 0.027296 0.021111
-0.045233 0.031006 -0.016871
0.050610 0.007752 0.029787
0.016414 -0.027313 0.120977
0.028276 0.038591 -0.016737
0.039333 -0.048914 0.029342
-0.048527 0.052881 -0.038417
0.025114 0.086129 -0.104368
0.045895 0.034184 0.038059
-0.048698 0.011257 -0.090638
0.003745 -0.075570 0.109802
0.002798 -0.091594 0.076734
-0.041062 0.073776 -0.082187
-0.040477 -0.039923 0.022562
0.050350 0.026939 -0.019006
0.045667 0.006312 -0.098982
-0.045633 0.017764 0.024501
0.044513 0.030373 0.035351
-0.012103 0.039714 -0.014111
0.016132 -0.042894 0.118241
-0.006709 -0.080370 0.033352
0.039072 0.025633 -0.001577
-0.018389 -0.082104 0.096285
-0.040260 -0.070821 0.090553
0.037017 -0.059825 0.034174
0.030196 0.073939 -0.039751
0.049123 0.003294 -0.028713
-0.001554 -0.027714 0.123402
0.039174 0.025885 0.025742
-0.001620 0.042988 -0.015254
-0.031376 0.048271 -0.024454
-0.013533 -0.053662 0.116791
0.007033 -0.031921 -0.019796
-0.047933 -0.034708 0.092416
-0.005375 0.077820 -0.034228
-0.033262 -0.070537 0.036562
-0.044676 0.043677 -0.028704
0.039583 0.037191 -0.019768
-0.053147 0.014141 -0.029764
0.030997 -0.070344 0.034162
-0.049626 0.016269 0.002010
-0.034651 -0.079049 0.054199
0.055003 0.037897 -0.100341
0.036758 0.024102 0.015398
-0.018386 -0.089324 0.069334
-0.037717 -0.070453 0.095108
-0.034796 -0.042378 0.016299
0.043675 0.025082 -0.005644
-0.032769 0.077490 -0.046886
0.046968 0.065829 -0.102757
-0.050431 -0.025493 0.090406
-0.035924 0.075185 -0.046763
0.044777 -0.069595 0.081299
0.041350 0.030039 -0.012198
0.013916 0.075012 -0.033741
-0.035054 -0.005349 -0.101327
0.040995 -0.064141 0.042999
0.053450 0.015315 -0.010401
0.013497 -0.028743 -0.023444
-0.013127 -0.061833 0.115054
0.053657 0.006047 -0.012463
0.019343 0.084854 -0.047886
-0.006813 0.085866 -0.043109
0.032687 -0.054128 0.106292
-0.051050 0.011452 0.006973
0.000749 -0.092203 0.069858
0.053759 -0.005160 0.033698
-0.046765 0.015958 0.014212
0.039859 0.074172 -0.052317
-0.050727 0.058436 -0.090240
0.047611 0.014027 0.023841
-0.053646 0.025097 -0.113445
0.021379 -0.055692 0.016839
-0.054645 0.025054 0.061929
0.053265 -0.002248 0.026779
0.002242 0.088370 -0.046576
0.043792 0.049771 -0.031868
-0.034393 -0.072871 0.096098
0.051614 -0.040932 0.060390
0.026460 0.063513 -0.030166
-0.010130 -0.020523 -0.052853
-0.002975 -0.081517 0.102570
-0.046142 0.025494 -0.009780
0.053069 0.036689 0.054017
0.050642 0.036689 0.090005
-0.054776 0.036689 0.073645
-0.016199 -0.027250 0.121048
0.046261 0.023549 -0.006224
0.027021 -0.062882 0.026135
-0.051100 0.016827 -0.123501
0.033251 -0.007216 -0.087841
0.030093 0.059592 -0.029566
-0.011144 -0.085107 0.094536
-0.054309 0.045936 -0.047506
-0.052365 -0.024729 0.040721
0.051035 -0.021921 0.028165
-0.048273 -0.026032 0.094795
0.054425 0.038717 -0.040329
-0.027779 -0.066738 0.029242
0.030302 0.028161 0.020030
0.036700 0.032877 -0.013434
0.028179 0.036689 0.115743
0.035627 -0.077527 0.051845
-0.006490 -0.077170 0.107681
-0.002589 0.033049 0.013074
-0.039859 0.027062 -0.005829
0.002254 -0.082797 0.036313
0.051138 0.024048 0.045936
0.032687 0.032940 -0.011983
-0.038416 0.076463 -0.056094
0.024980 -0.049088 0.013160
0.047244 -0.022810 0.015424
-0.006512 -0.020689 -0.055902
-0.050857 0.058127 -0.062639
-0.033151 -0.031208 -0.000328
-0.037816 0.024834 0.021949
-0.009681 -0.072921 0.111482
-0.041189 0.034257 0.031924
-0.049274 0.011459 -0.058882
0.022593 0.084257 -0.049502
-0.041468 0.073312 -0.098699
-0.022497 -0.069498 0.109279
0.006041 0.028363 0.001758
0.021923 -0.086357 0.082253
-0.033040 0.030665 0.023544
-0.039644 -0.073266 0.049977
0.042577 0.025830 0.030220
0.051572 0.018104 -0.116227
0.023494 -0.012529 -0.114013
-0.031908 -0.080854 0.083179
0.019311 0.077160 -0.037460
-0.023150 0.040661 -0.016934
-0.042409 0.022077 0.024497
-0.053661 0.031881 0.056347
0.042911 -0.014775 -0.010537
0.034465 0.025164 0.006953
0.018402 -0.086748 0.051533
0.046564 -0.054005 0.086672
-0.045472 0.067223 -0.051447
-0.007832 -0.019042 -0.070448
-0.040771 0.037521 -0.020832
0.041175 0.021655 0.013073
0.031489 -0.010454 -0.057518
-0.018900 -0.031349 -0.014746
-0.006512 -0.020689 -0.055902
-0.020354 -0.020585 -0.038451
0.037462 -0.007542 -0.044518
0.046943 0.003599 -0.040862
0.019040 -0.017930 -0.052603
0.053683 0.030003 0.056248
-0.043488 -0.070604 0.053317
-0.022335 -0.013166 -0.102972
-0.006490 -0.077170 0.107681
-0.048633 0.036689 0.042792
0.050730 0.041771 -0.033910
0.026139 -0.038738 0.002328
-0.009886 -0.017106 -0.098098
0.047854 0.014514 0.027255
-0.006708 -0.091139 0.077641
-0.051604 0.004182 0.029957
-0.053572 0.024637 -0.099987
-0.001526 -0.041109 0.121131
0.041229 -0.074830 0.077612
-0.048237 -0.052605 0.082558
-0.047842 0.050263 -0.035742
-0.034184 0.063161 -0.033441
-0.044104 -0.051044 0.040291
-0.000460 -0.017822 -0.123501
0.013359 -0.053134 0.116962
-0.054997 0.036689 0.068905
-0.051202 -0.016344 0.018534
-0.015518 -0.089999 0.073016
-0.014766 0.029043 0.012635
-0.048249 0.019482 -0.001392
0.007385 -0.026723 -0.031354
0.047585 0.040181 -0.028819
-0.036769 -0.072727 0.093093
-0.048823 0.062501 -0.064444
-0.040183 -0.004401 -0.045733
0.053926 0.045777 -0.044331
-0.040827 0.030902 -0.013059
-0.047765 -0.000957 -0.024566
-0.027363 0.028806 -0.003083
-0.016199 -0.027250 0.121048
-0.003519 -0.019126 -0.074884
-0.048639 0.061400 -0.049217
-0.044845 0.004365 -0.074432
-0.002421 -0.051553 0.006764
-0.041894 -0.053202 0.096043
0.018710 0.082208 -0.043159
-0.044049 -0.070204 0.054234
-0.023331 0.031728 -0.007785
-0.045889 -0.070580 0.064263
-0.034323 -0.053474 0.104975
-0.006269 -0.040355 -0.006100
0.002472 -0.069619 0.114987
0.008830 -0.020772 -0.052846
-0.018540 -0.055093 0.014768
-0.035004 0.070980 -0.039985
-0.029700 -0.061635 0.027476
-0.053030 0.032794 0.053820
0.050258 0.010541 0.012721
-0.041894 -0.053202 0.096043
0.021139 0.040523 -0.016311
-0.054309 0.045936 -0.047506
0.051699 0.004137 0.031171
0.018616 0.027391 0.005906
0.019326 -0.074954 0.031083
-0.031495 0.029664 0.021965
-0.032959 0.032251 0.023981
0.046449 0.029241 -0.015923
-0.050840 0.041852 -0.034147
0.027736 -0.013365 -0.054157
-0.054997 0.036689 0.068905
-0.044848 -0.072041 0.067323
-0.018963 -0.017342 -0.057631
-0.038988 -0.077734 0.065998
-0.010550 -0.016843 -0.104927
0.046708 -0.054771 0.050092
-0.046110 -0.041665 0.037123
0.010239 -0.065471 0.020018
-0.034549 -0.079422 0.081766
-0.034145 0.080306 -0.102693
-0.000944 -0.091541 0.077434
-0.033218 0.025297 0.013963
-0.054592 -0.009184 0.050967
0.000123 -0.025064 -0.038138
0.022687 -0.038673 -0.000651
-0.031223 -0.070924 0.102037
-0.037269 -0.011758 -0.031195
-0.049685 0.021370 0.040376
-0.008693 0.032757 -0.007354
0.054995 0.038303 -0.066288
-0.047249 0.008413 -0.082361
0.039746 0.022509 0.015780
0.030891 -0.012841 -0.045432
-0.014068 -0.089227 0.056173
0.045453 0.034296 -0.123501
0.027018 0.036689 0.020582
0.035686 -0.046780 0.021977
0.000015 -0.027838 -0.030239
0.041637 0.028207 -0.009514
-0.015904 -0.057923 0.016004
0.011356 -0.070769 0.113020
0.024048 -0.086544 0.076891
-0.054031 0.031182 -0.033313
0.030513 0.034925 -0.013762
0.033728 -0.065505 0.033860
-0.031979 0.070472 -0.037403
0.041171 0.023709 0.001706
-0.010624 0.034121 0.014332
-0.054518 0.029846 -0.101299
-0.024899 -0.016401 -0.046153
-0.021087 0.031670 0.016859
-0.044580 0.026215 -0.009024
-0.053559 0.016139 -0.012328
-0.051938 0.017568 -0.053028
0.008236 -0.027716 0.122805
0.003834 -0.018323 -0.086945
0.019913 -0.014071 -0.113749
0.054995 0.035528 -0.081872
-0.018390 -0.078195 0.102356
0.024208 -0.036280 -0.002737
-0.005223 -0.076686 0.028565
0.014628 0.036689 0.121525
-0.038903 -0.033960 0.105645
-0.039142 -0.008235 -0.035919
0.046026 -0.066038 0.057254
-0.006760 0.044438 -0.016285
0.021228 -0.076254 0.033718
0.017892 0.086468 -0.049991
0.033354 0.033250 0.024479
-0.053032 0.010528 -0.023626
-0.030235 0.034599 -0.013315
-0.043915 0.023493 0.029765
-0.048581 -0.033747 0.036186
-0.009108 0.031999 0.013449
0.053518 0.006055 0.048439
-0.054467 0.015855 -0.016558
-0.053066 -0.001757 0.030588
-0.043427 0.059733 -0.037943
0.041347 -0.036381 0.020101
0.019463 0.031868 -0.007316
-0.046155 -0.069731 0.062819
-0.008434 0.036689 0.014146
-0.005342 -0.017568 -0.123501
-0.039258 -0.070907 0.092136
-0.049027 0.011698 -0.082173
-0.048035 0.010399 -0.123501
-0.031579 -0.007970 -0.102306
-0.019978 0.030854 -0.005738
-0.038608 0.075256 -0.052035
0.022954 -0.014789 -0.066488
-0.006509 0.028877 0.010345
0.039599 0.023477 0.006024
0.004787 -0.085379 0.041078
-0.049898 0.053476 -0.041130
-0.049261 0.032908 0.043833
0.042345 0.036689 0.033379
0.000642 0.070881 -0.029391
-0.046332 0.019223 0.029675
-0.043445 -0.073411 0.064915
0.044155 -0.051841 0.040974
-0.051061 0.033955 -0.028325
-0.053896 0.025989 -0.089582
-0.036473 -0.070557 0.096669
0.049861 0.013077 -0.070251
-0.023349 -0.015454 -0.057179
0.017153 0.087326 -0.051371
-0.054645 0.025054 0.061929
-0.019877 0.075107 -0.035753
0.029389 0.042408 -0.020076
0.039671 -0.037962 0.018823
0.018178 -0.040524 -0.001216
-0.040340 -0.020615 -0.005493
-0.022808 0.086378 -0.055025
0.050875 0.029787 0.046987
-0.009886 -0.017106 -0.098098
0.021943 0.027044 0.010212
-0.049906 -0.039260 0.048167
0.054580 -0.023496 0.075205
0.006723 -0.082497 0.036465
-0.047842 -0.062830 0.064389
0.040288 0.034011 -0.016675
0.039492 -0.006167 -0.041757
-0.045348 -0.030748 0.022096
0.054051 0.003810 0.051909
0.008756 0.091414 -0.057988
0.000005 -0.034683 -0.015907
-0.007855 0.067974 -0.028101
0.034153 -0.077410 0.088255
0.019621 -0.046842 0.007213
0.005809 0.091885 -0.112921
-0.007947 0.028023 0.008646
-0.039246 -0.070689 0.044505
0.051016 0.034990 -0.029169
0.042855 0.031649 0.033458
-0.025592 -0.015267 -0.049999
0.029065 0.032117 0.021280
-0.022835 0.027258 0.004513
0.035585 -0.016721 -0.022866
0.015531 -0.086866 0.049202
-0.046110 -0.041665 0.037123
0.043343 -0.034449 0.100166
0.051825 0.014858 -0.002836
-0.038975 0.023106 0.011155
-0.034110 -0.024756 -0.009492
0.023182 -0.080624 0.041660
-0.049840 0.058600 -0.047970
0.017515 -0.043360 0.002001
-0.013674 0.086358 -0.046765
0.047201 0.016963 0.029076
0.054999 0.038186 -0.118503
0.022997 0.028336 0.015204
0.042311 0.002084 -0.116125
0.007390 0.032009 -0.006244
-0.054897 0.027376 -0.033802
0.054516 0.007920 -0.004398
0.043331 -0.004040 -0.033796
-0.041911 -0.019949 -0.003243
-0.027008 -0.020119 -0.029972
-0.040250 -0.031696 0.011870
0.008860 -0.023089 -0.041826
-0.052575 0.037672 -0.034452
0.018178 -0.040524 -0.001216
0.036029 -0.042063 0.106470
-0.039517 0.067835 -0.041073
0.049284 0.012206 0.013358
-0.046829 0.020998 -0.001578
-0.012216 -0.067615 0.022029
0.029621 0.031036 -0.008203
0.025407 -0.069904 0.029489
0.001665 -0.032752 -0.019301
0.033654 0.078717 -0.050652
-0.039555 0.052408 -0.030576
0.017040 0.031192 -0.005885
0.002292 -0.072871 0.112547
0.000749 -0.092203 0.069858
0.030643 -0.082014 0.055053
0.036818 -0.076821 0.084447
-0.031460 0.082324 -0.123501
0.012502 0.090645 -0.057826
-0.051146 -0.028361 0.039837
0.042495 -0.069685 0.049503
-0.015848 -0.043084 0.000829
-0.033917 -0.058755 0.029649
0.009685 -0.080037 0.033590
0.043159 -0.069719 0.051095
-0.042000 -0.047589 0.032983
-0.052626 0.014623 -0.005653
0.046236 -0.070083 0.064847
0.004618 0.059085 -0.022961
0.004360 0.027807 0.006546
0.054936 0.010082 0.064542
-0.005438 -0.075203 0.109979
-0.000013 -0.059949 0.014436
-0.027562 0.035579 -0.013663
0.051065 0.055071 -0.046138
0.037379 -0.069740 0.040741
0.042495 -0.069685 0.049503
-0.049987 0.059307 -0.050153
0.044100 0.004336 -0.123501
0.031045 -0.008196 -0.113858
0.011356 -0.070769 0.113020
0.006581 0.043500 -0.015788
0.048292 0.059521 -0.044871
-0.031203 0.030534 0.022184
-0.046210 -0.070155 0.071948
-0.000972 -0.063931 0.116403
0.051243 0.053228 -0.044011
0.015536 -0.079029 0.034334
0.054995 0.038303 -0.066288
0.034084 -0.073226 0.041003
0.024911 0.027217 0.014163
-0.045752 0.006698 -0.114090
-0.038647 -0.021333 -0.007654
0.037153 -0.019759 -0.013495
0.046571 0.031257 0.038682
-0.037407 0.026844 0.024786
-0.054345 0.028244 -0.053886
-0.043635 -0.070183 0.084056
0.022615 -0.087728 0.065808
0.054609 -0.011430 0.041436
-0.006306 -0.070105 0.114412
-0.054123 0.040580 -0.040350
-0.012804 0.027703 0.008700
0.008088 -0.017574 -0.093462
0.053932 -0.015435 0.031586
0.028276 0.038591 -0.016737
0.009990 -0.053218 0.117758
0.011396 0.091001 -0.058906
0.039737 0.045205 -0.026443
0.029739 -0.011771 -0.056672
0.033068 0.025334 0.009293
-0.036552 -0.061566 0.034715
-0.047611 0.024406 -0.010130
0.027726 -0.010568 -0.097405
-0.019703 -0.022658 -0.033005
-0.035376 0.044727 -0.023968
0.049409 0.055170 -0.041929
-0.023979 -0.082716 0.090264
0.045662 0.067864 -0.111905
-0.028264 -0.011300 -0.074745
-0.002839 -0.021861 -0.050743
0.054921 0.034067 -0.109324
0.024861 -0.086828 0.067972
-0.042587 -0.026540 0.103283
-0.013236 -0.042189 -0.001470
-0.023215 -0.074692 0.033056
0.021679 -0.013346 -0.114132
-0.050142 0.011407 0.011135
0.037786 -0.004946 -0.058784
0.016721 0.061223 -0.026017
-0.028552 -0.070440 0.032193
0.050412 0.059015 -0.051627
-0.052793 -0.026753 0.047659
-0.018595 -0.019100 -0.047086
-0.051342 -0.025676 0.088008
-0.026689 -0.085905 0.070644
-0.033096 -0.022857 -0.014541
0.039174 0.025885 0.025742
-0.009484 0.082155 -0.039005
0.029849 -0.069770 0.032719
-0.027260 0.084959 -0.081798
-0.043440 -0.072606 0.077377
-0.045348 -0.030748 0.022096
0.047849 0.031382 0.040904
-0.051003 0.056860 -0.049364
-0.041482 0.066821 -0.042292
0.051397 0.056568 -0.050762
-0.011188 -0.018476 -0.070028
-0.008089 0.088692 -0.048687
0.016192 -0.068073 0.023637
0.043138 0.020897 0.008668
-0.034353 -0.070198 0.099538
-0.046749 0.005152 -0.048254
0.026834 0.082396 -0.049851
0.006084 -0.039554 -0.007319
-0.000073 -0.038535 -0.009613
-0.005315 -0.087499 0.045760
0.037706 0.024157 0.019482
-0.049108 0.014274 0.008673
-0.032172 -0.057589 0.026922
-0.016689 0.089601 -0.078809
-0.054980 -0.018444 0.053588
-0.053238 -0.034732 0.069543
0.045453 0.034296 -0.123501
0.035627 -0.077527 0.051845
-0.035582 0.047069 -0.025534
0.052373 -0.024119 0.039588
0.048603 0.010369 -0.067532
0.010015 -0.043723 0.119691
-0.008341 -0.017228 -0.104164
-0.016242 -0.089580 0.061693
-0.045412 -0.069868 0.058729
0.034775 -0.070215 0.037892
0.025093 -0.011734 -0.116996
0.002184 -0.040190 -0.007011
0.050091 -0.000914 -0.015450
-0.027809 -0.034488 -0.001888
-0.050025 0.022515 -0.011611
0.010267 0.086748 -0.045713
-0.044639 -0.069600 0.081718
0.041091 -0.000696 -0.070064
0.001790 -0.030956 -0.022878
-0.039053 -0.075800 0.081700
-0.036294 0.053496 -0.029383
0.046629 0.018415 0.006232
-0.045596 -0.070178 0.076716
-0.044480 0.069538 -0.067155
-0.035924 0.075185 -0.046763
0.030367 -0.082852 0.057833
0.032586 0.047875 -0.024717
-0.010790 -0.090846 0.075403
0.016541 0.027658 0.010258
0.012517 -0.018398 -0.067369
0.053940 0.024602 0.056817
-0.036800 -0.070855 0.095873
-0.012575 -0.073098 0.110565
0.040870 -0.033841 0.015950
-0.046668 0.066097 -0.053471
0.038612 0.031918 -0.013098
-0.052837 0.052470 -0.062381
-0.047511 -0.019410 0.010538
0.025159 -0.070331 0.107294
-0.027278 0.027863 0.017324
-0.012346 -0.089646 0.080789
0.043225 0.030422 0.033597
0.037379 -0.069740 0.040741
0.054487 0.016245 -0.024171
-0.018201 0.027417 0.009981
-0.042836 -0.072262 0.055832
0.031526 -0.069793 0.034220
-0.033292 0.073735 -0.041707
0.031933 -0.065278 0.031889
-0.014967 0.057032 -0.023563
0.045687 0.002248 -0.043409
0.046242 -0.070183 0.071517
-0.012226 0.030434 0.013247
-0.053732 0.048926 -0.123501
-0.046312 0.043860 -0.030232
0.030643 -0.082014 0.055053
0.035223 -0.042045 0.016498
0.040866 0.034319 0.031559
-0.050321 -0.041223 0.083028
-0.000944 -0.091541 0.077434
0.026706 -0.085311 0.076727
0.007257 0.091047 -0.055193
0.030737 -0.060268 0.027440
-0.027171 0.073036 -0.037139
0.025098 -0.053734 0.017610
-0.049325 0.057760 -0.044979
0.022469 0.068941 -0.031970
-0.050317 -0.030276 0.088743
-0.042272 0.071976 -0.053827
-0.011525 0.073630 -0.032184
0.044280 -0.055170 0.043746
-0.044334 0.030293 -0.015040
0.003656 -0.088178 0.047129
0.015532 -0.088300 0.083119
0.043111 0.000513 -0.053064
0.009292 -0.032647 -0.017644
0.038741 0.042885 -0.024308
0.025356 -0.084715 0.054326
-0.010756 -0.070767 0.113161
-0.034705 -0.069982 0.037633
0.046015 -0.070694 0.067533
-0.036803 -0.076399 0.085566
0.023188 0.087082 -0.123501
-0.050191 0.035503 -0.028273
0.006724 -0.091796 0.070886
0.024262 -0.059674 0.110860
-0.034306 0.080177 -0.083756
-0.035479 0.069044 -0.038503
-0.000668 -0.018436 -0.087211
-0.039819 0.075124 -0.081819
0.051159 0.036689 0.048274
-0.029034 0.077086 -0.042868
-0.034371 0.060567 -0.032067
0.028388 -0.069938 0.031645
0.004178 -0.087797 0.090745
-0.034849 -0.062489 0.033232
-0.007228 0.058076 -0.022706
-0.024368 -0.019753 -0.035071
-0.041420 -0.069682 0.089688
0.023582 -0.012499 -0.123501
-0.030977 -0.065550 0.031182
0.039492 -0.006167 -0.041757
0.042939 0.022370 0.003024
0.006782 -0.040842 0.120759
-0.034977 0.078707 -0.053275
-0.054338 -0.027238 0.069035
-0.051634 0.019912 0.045445
0.054979 0.039145 -0.123501
0.023366 0.072209 -0.034687
0.039131 -0.077390 0.073749
-0.036648 0.024121 0.011642
0.054354 0.041147 -0.041613
-0.031994 -0.011699 -0.046852
-0.044104 -0.051044 0.040291
0.031489 -0.010454 -0.057518
0.053276 0.023493 -0.111265
0.045647 -0.016125 -0.000804
-0.037535 0.024537 0.020587
-0.010680 -0.039287 -0.006374
-0.053165 -0.001266 0.037300
-0.046517 0.006593 -0.066062
0.045939 -0.069587 0.076131
0.032687 0.032940 -0.011983
0.049352 -0.055745 0.065036
0.044306 0.031294 -0.016325
-0.005602 -0.059308 0.117136
-0.046567 0.015886 0.023426
0.050054 0.013281 0.035301
0.052111 0.004481 -0.017151
0.001262 0.036689 0.013507
-0.031858 0.082027 -0.111851
0.000176 -0.075007 0.110548
0.009052 0.069014 -0.028858
-0.030625 -0.058246 0.025899
-0.026555 0.080524 -0.046147
0.032785 -0.070215 0.101185
-0.054971 0.035774 -0.048943
0.005825 -0.090340 0.082259
-0.045200 0.068521 -0.114084
0.046520 -0.069714 0.068823
-0.051961 0.014998 0.044349
-0.052911 0.022099 -0.103740
-0.049325 0.057760 -0.044979
0.035686 -0.046780 0.021977
0.047402 0.020061 0.033430
-0.002528 0.031501 0.012349
-0.016851 0.035598 0.016104
0.054914 0.002633 0.001083
0.016264 -0.069546 0.112138
-0.022602 -0.082074 0.093040
-0.030629 -0.083478 0.062753
0.023239 0.073795 -0.035978
0.054954 0.034647 -0.089682
-0.039137 -0.011403 -0.027267
-0.054828 0.002500 -0.000354
0.018418 -0.028465 -0.020577
0.008860 -0.023089 -0.041826
-0.047418 -0.052749 0.085047
0.013773 -0.067207 0.022215
0.044400 -0.072086 0.074680
-0.049112 0.041859 -0.031809
0.048629 0.037212 -0.027604
-0.044928 -0.056595 0.046402
-0.016077 -0.053662 0.115989
0.013464 -0.085897 0.091704
0.010610 -0.017444 -0.086636
-0.051224 0.016712 -0.083783
0.011356 -0.070769 0.113020
-0.031520 0.074741 -0.041616
-0.020051 0.077159 -0.037794
-0.005632 0.088914 -0.048322
0.031277 -0.023862 -0.015398
-0.016806 -0.032069 -0.014906
0.006856 -0.020441 -0.057784
-0.038627 0.076342 -0.100601
0.048114 0.010581 -0.115427
0.023117 -0.046621 0.009244
0.033282 0.030457 -0.008479
0.019820 -0.087812 0.079292
-0.042935 0.020300 0.013132
-0.035519 0.026094 0.021690
0.043897 0.060570 -0.039089
-0.053793 0.004372 0.006220
-0.024803 -0.084898 0.054024
-0.002221 0.077404 -0.033644
0.025065 0.079091 -0.042902
-0.052169 0.043454 -0.037269
-0.026785 -0.050996 0.016465
-0.002709 0.080207 -0.035982
-0.034516 -0.070664 0.038067
-0.032115 0.081839 -0.074059
-0.053173 -0.007334 0.009894
-0.005222 -0.079118 0.031460
-0.040827 0.030902 -0.013059
-0.019749 0.083888 -0.046488
-0.043983 0.002346 -0.058235
0.029283 -0.035269 0.000780
0.043747 0.023000 0.028787
0.027571 0.035251 0.020857
0.048806 0.012046 0.026703
0.045692 -0.070653 0.062777
-0.038565 -0.066120 0.040284
-0.032827 -0.049371 0.020868
0.014443 -0.016813 -0.081869
-0.033300 -0.006557 -0.113975
-0.049468 0.014559 0.034351
-0.031908 -0.077503 0.091515
-0.054486 0.003103 0.003782
0.005466 -0.025427 -0.035734
-0.052955 0.011001 -0.000635
-0.046567 0.015886 0.023426
0.005234 -0.078162 0.030282
-0.033160 -0.080894 0.079873
0.001939 0.041114 -0.014205
0.040649 0.067531 -0.042037
-0.054759 -0.013085 0.041585
0.027807 -0.028578 -0.011300
-0.035965 0.067095 -0.037218
-0.043775 0.057482 -0.036628
-0.002194 0.034291 -0.008860
-0.007513 0.039160 -0.013254
-0.032659 -0.007324 -0.097285
-0.024342 -0.039674 0.001992
-0.008934 -0.086858 0.091636
-0.012907 -0.033718 0.120878
0.026675 -0.018639 -0.034569
0.051224 0.004271 -0.020968
0.054998 0.031691 0.069496
-0.036045 -0.069672 0.097895
-0.051857 -0.036906 0.056671
-0.054123 0.040580 -0.040350
-0.002640 0.070302 -0.029085
-0.033024 0.068062 -0.036045
0.045232 -0.063391 0.052164
0.054596 0.030352 -0.100755
0.029478 0.031919 -0.009555
-0.016307 -0.015383 -0.105987
-0.024480 -0.043138 0.006375
-0.037001 0.071539 -0.042553
0.013566 0.032951 0.014728
-0.010219 0.037528 -0.012291
0.052625 0.003998 0.040201
-0.037073 -0.078882 0.075363
0.026707 -0.085877 0.071333
0.043566 -0.048398 0.036906
-0.017598 -0.069535 0.111623
0.040559 -0.001656 -0.063950
-0.041475 0.039954 -0.023543
0.051358 0.014145 -0.044845
0.054904 0.038479 -0.042546
-0.039983 0.038635 -0.021435
0.049686 -0.036300 0.043711
-0.012666 0.027597 0.007609
0.037269 -0.030573 0.004920
0.012653 0.090718 -0.105750
-0.045899 -0.069663 0.076189
-0.044972 -0.070270 0.057614
-0.027779 -0.066738 0.029242
0.001015 -0.051989 0.119032
-0.044556 0.024616 -0.005882
0.032226 0.070088 -0.037213
-0.044535 0.067355 -0.048643
0.034583 -0.080748 0.061491
-0.048239 0.033773 -0.023765
0.001225 0.048627 -0.017790
-0.002640 0.070302 -0.029085
0.037153 -0.019759 -0.013495
-0.035919 0.039327 -0.020035
0.035585 -0.016721 -0.022866
0.018503 0.088877 -0.057756
-0.030571 0.025863 0.009917
0.027660 0.033824 0.020739
0.031593 -0.038503 0.007687
-0.050400 0.013938 -0.057871
-0.032988 0.025330 0.009610
0.032326 0.076499 -0.044736
0.003959 -0.048736 0.003926
-0.048536 0.063055 -0.095870
-0.003470 -0.019745 -0.067727
0.000549 0.035162 0.013474
-0.046178 0.067064 -0.082648
0.050160 0.034061 -0.026854
0.051257 -0.037559 0.081990
0.045232 -0.063391 0.052164
0.045392 0.068260 -0.055425
0.032413 -0.081661 0.078771
-0.032372 0.041876 -0.020723
-0.048652 -0.005154 -0.012377
0.045948 -0.047588 0.042094
-0.018742 -0.020342 -0.041616
0.021228 -0.076254 0.033718
-0.050278 0.018314 0.040152
-0.053038 -0.002293 -0.000377
-0.033484 0.049011 -0.025720
0.043225 0.030422 0.033597
-0.054584 0.038536 -0.040953
-0.033096 -0.022857 -0.014541
0.052899 0.032873 -0.031271
0.047159 -0.012993 -0.002188
0.017861 0.064750 -0.028138
-0.053799 0.048611 -0.113795
0.023592 0.086883 -0.111959
0.051952 0.002750 0.028511
0.023498 0.032052 0.018109
-0.051023 0.039378 -0.032749
0.001067 -0.041419 0.121090
-0.042816 0.071712 -0.111729
-0.005977 0.028828 0.000205
-0.036440 -0.034526 0.009127
0.028718 -0.070212 0.104809
-0.049840 0.058600 -0.047970
0.012070 0.030113 0.012956
0.046484 0.020833 -0.000310
-0.037931 0.023598 0.016601
-0.007947 0.028023 0.008646
-0.027495 -0.084648 0.078237
0.036523 -0.070738 0.040577
0.014932 0.029896 0.013559
-0.008548 -0.080228 0.103444
0.011762 -0.024203 -0.036012
-0.054673 0.019552 0.061153
0.004675 0.086458 -0.043574
0.021246 0.027325 0.005021
-0.032615 -0.070199 0.101356
0.032532 0.077637 -0.046862
-0.051239 0.030996 -0.025675
0.050121 0.008573 0.026978
-0.006709 -0.080370 0.033352
0.037383 -0.049180 0.026555
0.052638 0.036689 0.084594
-0.018047 -0.042307 0.001010
-0.016520 0.028842 0.012967
0.026483 0.026946 0.004297
0.045628 0.023057 0.032494
-0.002926 -0.028718 -0.027651
-0.016520 0.028842 0.012967
0.028544 -0.080946 0.088783
-0.006110 -0.088323 0.088884
-0.035997 0.078771 -0.107212
-0.029450 0.081510 -0.051029
-0.010538 0.091057 -0.057788
-0.037269 -0.011758 -0.031195
0.034969 -0.021595 -0.013898
-0.012574 -0.049250 0.006536
0.033508 -0.018179 -0.023579
-0.001974 -0.046377 0.001024
-0.015630 -0.061244 0.018551
0.018214 -0.014707 -0.111794
0.034855 -0.070769 0.038558
0.034587 -0.011907 -0.037988
-0.054645 0.025054 0.061929
-0.034951 -0.072209 0.040608
-0.042419 0.000244 -0.058137
0.001167 0.029338 -0.001044
-0.011572 -0.017010 -0.091434
-0.011461 -0.019604 -0.057875
-0.036961 0.036689 0.027767
0.046236 -0.070083 0.064847
-0.024005 0.027786 0.001266
0.023850 -0.025277 -0.022083
0.010733 -0.053646 0.010386
-0.045947 -0.069777 0.061453
-0.037681 0.036689 0.108590
0.054788 -0.009942 0.056103
0.002937 0.070936 -0.029483
0.048353 0.036689 0.094778
0.038428 0.039176 -0.021075
0.004500 -0.017647 -0.123501
-0.043775 0.057482 -0.036628
-0.045218 0.004145 -0.057903
0.022995 -0.056844 0.018810
-0.048730 -0.017897 0.011851
-0.031858 0.082027 -0.111851
0.004161 0.085024 -0.041421
0.053612 0.018625 -0.035371
0.033967 -0.045411 0.107494
0.027246 -0.083124 0.052163
-0.022033 0.087585 -0.058645
-0.041237 0.065276 -0.040377
0.019040 -0.017930 -0.052603
-0.039277 -0.069986 0.043752
-0.047685 0.017208 0.031101
-0.037124 0.036055 -0.017350
-0.026374 0.085453 -0.100751
0.033184 -0.079961 0.053659
-0.032449 0.026443 0.019297
-0.019809 -0.082489 0.042418
0.033889 0.079544 -0.053346
-0.054993 0.037828 -0.100175
-0.018389 -0.076578 0.032551
-0.016199 -0.027250 0.121048
0.044959 0.020124 0.005870
0.043604 -0.069420 0.084966
-0.000728 -0.085012 0.040003
0.011371 -0.090980 0.072717
0.032687 -0.054128 0.106292
0.000176 -0.075007 0.110548
-0.051470 0.006213 -0.023596
0.028029 0.084521 -0.058337
0.032216 -0.077324 0.045529
-0.043551 0.034709 0.034823
0.051397 0.056568 -0.050762
-0.031047 -0.071081 0.034983
0.048812 0.030526 -0.020893
-0.037115 -0.043293 0.020568
-0.031231 -0.008955 -0.081875
0.050697 0.010338 -0.037983
0.023491 -0.075431 0.102849
0.018399 -0.081015 0.098157
-0.041610 -0.000067 -0.070099
-0.024781 0.086291 -0.090021
-0.013371 -0.052921 0.010545
-0.050910 0.051061 -0.040749
0.039208 -0.018336 -0.012120
0.013464 -0.085897 0.091704
-0.050602 -0.016156 0.015677
-0.014039 0.081164 -0.039445
0.044568 -0.059701 0.088344
-0.030998 0.026186 0.004938
0.034716 -0.053460 0.104620
-0.002124 0.041183 -0.014248
0.020525 -0.080335 0.039116
-0.042013 0.022338 0.005327
-0.037081 -0.031519 0.006017
-0.006715 0.030725 0.012349
-0.008089 0.088692 -0.048687
0.034475 0.037428 -0.017665
-0.019807 -0.087945 0.078589
0.003744 -0.086272 0.094266
-0.053985 -0.006602 0.035967
-0.028188 -0.020820 -0.026409
0.014950 -0.086584 0.089030
0.040800 -0.075795 0.074409
0.002982 -0.092021 0.064480
0.054951 -0.013814 0.037989
0.001664 0.035791 -0.010335
-0.053054 0.021883 -0.057531
0.037814 0.026889 0.025280
0.046499 -0.069608 0.066315
-0.045270 0.020532 0.003529
-0.040163 0.035099 -0.017856
-0.053388 0.021263 -0.044812
0.042089 0.029199 0.031716
0.051427 -0.044636 0.065284
-0.051050 0.011452 0.006973
-0.028813 0.083129 -0.054413
-0.037973 -0.074380 0.087950
-0.003731 -0.078574 0.106392
-0.027711 -0.063418 0.027033
-0.026358 0.084313 -0.053962
-0.038346 0.076615 -0.065221
-0.028485 0.027021 0.016740
-0.041331 -0.074816 0.059861
-0.019010 -0.086541 0.051515
-0.054911 0.038762 -0.042922
-0.054027 -0.005376 0.043779
0.044026 0.019102 0.014638
0.044219 0.034145 0.035654
-0.042663 -0.000921 -0.048065
-0.033069 -0.065009 0.032867
-0.054510 0.027254 -0.031368
0.029416 0.049591 -0.024393
-0.046198 0.006387 -0.073539
-0.035183 -0.006565 -0.070147
0.034382 -0.073254 0.095587
-0.026796 0.059062 -0.028031
0.048226 0.005527 -0.039607
-0.019235 0.028532 0.013624
-0.020349 0.045916 -0.019516
-0.028282 -0.026667 0.115687
0.014702 0.088774 -0.053066
-0.015356 0.033519 0.015371
-0.053500 0.028050 0.055290
-0.036175 0.034625 -0.015374
-0.054872 0.040876 -0.112009
-0.026617 0.052981 -0.025077
0.043343 -0.034449 0.100166
0.039116 -0.021002 -0.007347
-0.049757 0.060618 -0.100699
0.003516 -0.070179 0.114674
-0.030726 0.036689 0.022865
0.031933 -0.065278 0.031889
0.043138 0.020897 0.008668
0.037955 -0.069460 0.095502
0.045969 0.061181 -0.042425
0.036091 -0.012692 -0.031702
-0.054673 0.019552 0.061153
-0.038615 -0.069652 0.094456
-0.020655 0.033938 0.017297
0.000128 -0.054893 0.009919
0.054999 0.036027 -0.101363
-0.021214 -0.086862 0.081285
-0.040248 -0.076693 0.069130
0.045392 0.068260 -0.055425
-0.051690 0.011892 0.041346
-0.053721 0.020201 -0.037512
0.046952 0.056765 -0.039542
0.042290 0.064287 -0.040597
-0.052142 0.004645 0.037174
-0.032511 0.040488 -0.019689
-0.033082 -0.009094 -0.059101
-0.034300 0.036689 0.025498
0.041586 -0.053535 0.096401
0.045915 0.066244 -0.050403
0.032057 -0.035249 0.004012
-0.008197 -0.077911 0.030493
0.042114 0.025658 -0.005022
-0.044803 -0.070085 0.056544
-0.007329 -0.042761 -0.002633
-0.016958 -0.078693 0.034573
-0.034705 -0.069982 0.037633
0.045920 -0.041630 0.036543
0.013029 0.033812 0.014790
0.001262 0.036689 0.013507
-0.054987 0.036057 -0.099448
-0.041998 0.021281 0.011224
-0.040556 -0.053277 0.097943
-0.048830 0.010063 -0.054290
-0.004249 0.085974 -0.042782
0.044440 0.018760 0.021758
-0.054035 0.037368 -0.038177
0.021863 0.027544 0.012939
-0.025562 0.035253 0.019750
0.028845 0.076462 -0.041890
0.039321 0.073522 -0.049265
-0.053922 0.048054 -0.074074
0.024829 -0.033748 0.116340
0.015872 0.080659 -0.039658
-0.038006 0.023729 0.009158
-0.038542 -0.041940 0.021384
0.049123 0.003294 -0.028713
0.022604 -0.013356 -0.092704
0.031808 -0.044761 0.015165
-0.048568 0.030150 -0.020055
-0.052073 0.002337 0.025295
-0.014601 0.031258 0.014378
-0.006762 -0.053273 0.009085
-0.022054 0.028469 0.014891
-0.016657 -0.064367 0.021290
0.053952 -0.000192 0.048532
-0.054309 0.030298 0.059716
-0.009128 -0.050252 0.006554
-0.019083 0.029233 0.014442
-0.047688 0.064589 -0.063953
0.044164 0.020010 0.008964
0.030891 -0.012841 -0.045432
-0.013242 -0.085395 0.092946
0.025014 0.051296 -0.023706
0.027475 0.027143 0.016112
0.045628 0.023057 0.032494
0.052258 0.017245 -0.046123
-0.054468 0.036483 -0.039250
-0.026200 -0.085360 0.059044
0.020745 0.031666 0.016709
-0.034849 -0.062489 0.033232
-0.033024 0.068062 -0.036045
-0.016970 -0.073018 0.027927
0.050040 -0.049827 0.060784
0.044761 0.025244 -0.007403
-0.017752 -0.016448 -0.072287
0.054514 -0.018112 0.043764
-0.030442 0.082883 -0.057133
0.020183 0.033478 -0.009663
0.016721 0.061223 -0.026017
-0.046982 0.035540 -0.024079
-0.023030 0.043651 -0.018911
-0.000942 0.088956 -0.047687
-0.036805 -0.079588 0.068003
0.038131 0.030265 0.027768
0.034361 0.069590 -0.038157
0.010283 -0.076338 0.107832
0.042062 0.035665 -0.019749
-0.010076 -0.017521 -0.087107
0.049704 0.011838 0.031884
0.002012 -0.020934 -0.057127
-0.039118 -0.075811 0.055556
0.006721 -0.084305 0.097504
-0.054925 -0.012614 0.034603
-0.050009 -0.049766 0.060571
0.052947 0.022240 -0.108428
-0.053077 0.022775 -0.111304
0.046873 0.053214 -0.036697
0.054128 0.024751 -0.026697
-0.051723 0.054713 -0.048280
0.024235 0.084069 -0.050728
-0.015520 -0.085727 0.090755
-0.053132 0.022796 -0.094874
-0.003014 0.039583 -0.013284
-0.048119 0.060558 -0.046027
-0.043404 -0.072674 0.059726
-0.014072 -0.083284 0.040332
0.035319 0.027256 -0.002812
-0.028287 0.084357 -0.101255
0.027373 -0.074325 0.035680
0.020140 -0.044164 0.004483
-0.052171 0.026319 -0.022343
0.036846 0.029372 -0.008260
0.033693 0.025896 0.003390
0.002664 -0.026748 0.123441
0.033346 -0.020448 -0.018962
-0.049108 0.014274 0.008673
-0.006447 -0.049435 0.119135
0.051884 0.031405 -0.027426
-0.051428 0.056676 -0.077708
0.034191 -0.006180 -0.096648
-0.006361 -0.019635 -0.066002
0.019401 0.030688 -0.005340
-0.042029 -0.023982 0.003863
-0.034293 0.080188 -0.075959
-0.054511 0.029484 -0.058567
0.005234 -0.078162 0.030282
-0.049517 -0.036463 0.043226
0.047605 -0.045821 0.088351
-0.047138 0.064468 -0.050626
0.006807 0.046369 -0.017199
0.023206 -0.053977 0.112828
-0.044119 -0.070574 0.055190
-0.042609 0.025901 -0.006121
0.002982 -0.092021 0.064480
-0.036805 -0.005919 -0.058346
0.039856 -0.070175 0.092118
0.044214 0.028092 -0.011742
-0.025335 0.036910 -0.014420
-0.031403 -0.080963 0.053107
0.047936 0.016558 0.031125
-0.052926 0.021580 -0.065946
-0.008196 -0.088507 0.049413
-0.022852 0.081971 -0.045630
0.054805 0.031199 -0.043908
-0.041328 -0.070653 0.048247
-0.014766 0.029043 0.012635
-0.015848 -0.043084 0.000829
0.040463 -0.000035 -0.114581
0.052361 0.019563 -0.065276
-0.042692 0.069629 -0.048572
-0.001554 -0.027714 0.123402
-0.053618 0.049151 -0.047908
0.010652 -0.029443 -0.023458
0.038616 -0.055499 0.033419
0.044100 0.004336 -0.123501
0.031745 0.025861 0.006460
-0.040409 -0.070724 0.046575
-0.039455 0.030576 0.029249
-0.037269 -0.011758 -0.031195
0.043057 0.002827 -0.103267
0.039473 -0.070229 0.044300
0.001120 0.031580 0.012321
-0.003730 -0.091923 0.073162
0.053002 0.045758 -0.040787
-0.045682 0.064076 -0.045634
0.054895 0.033602 -0.054159
0.050460 0.054096 -0.042998
-0.032001 0.062689 -0.032045
-0.019596 -0.014294 -0.102949
0.018097 0.089135 -0.058791
0.022593 0.084257 -0.049502
0.054601 -0.009764 0.049989
0.004378 -0.089821 0.052238
0.012818 0.085243 -0.044359
0.021349 0.086280 -0.052905
0.021632 -0.019201 -0.041346
0.035509 0.079204 -0.113933
0.003626 -0.070454 0.022426
0.041070 -0.069617 0.090415
-0.029593 0.083548 -0.098193
0.005558 -0.052967 0.008580
-0.002761 0.084296 -0.040338
0.042586 0.065557 -0.042299
0.025356 -0.082680 0.088751
-0.054905 0.040358 -0.044738
0.035491 0.036689 0.110553
-0.003470 -0.019745 -0.067727
0.050481 0.059049 -0.113788
-0.053908 0.035362 -0.036344
0.046015 -0.070694 0.067533
0.038965 -0.069907 0.093779
-0.031979 0.070472 -0.037403
-0.043175 0.023393 -0.000767
-0.009046 -0.084729 0.096095
-0.035936 0.024622 0.017223
0.024994 0.026712 0.009235
0.003248 0.092098 -0.058976
0.046629 0.018415 0.006232
0.012819 0.082131 -0.040081
-0.027936 0.030587 0.020032
-0.000306 0.086704 -0.043595
0.024831 0.033488 -0.010583
0.047688 -0.063032 0.074351
0.004057 -0.027717 0.123277
0.034810 0.079702 -0.056751
-0.011479 0.075662 -0.033639
-0.047355 0.019857 0.033146
-0.039308 0.071328 -0.045256
-0.001187 0.091403 -0.054512
0.039506 0.022755 0.017588
0.051550 -0.025603 0.087481
0.020686 -0.031938 -0.012410
-0.019807 -0.087945 0.078589
0.054403 0.028694 -0.032332
-0.034069 -0.070734 0.099348
-0.046916 0.062846 -0.046599
-0.028664 0.031196 -0.008202
0.055008 0.037635 -0.111433
-0.046110 -0.041665 0.037123
-0.040293 -0.069678 0.045192
0.045647 -0.016125 -0.000804
0.038040 -0.070529 0.042405
-0.048252 0.017246 0.032983
-0.009859 0.066506 -0.027520
0.053426 0.001668 0.013627
-0.042375 -0.072378 0.082229
0.046261 0.023549 -0.006224
0.016510 0.027474 0.009149
0.036280 -0.004120 -0.115092
-0.034300 0.036689 0.025498
0.043792 0.049771 -0.031868
-0.021194 0.080454 -0.042307
0.025570 -0.050831 0.112240
-0.023842 -0.069562 0.108482
-0.048239 0.033773 -0.023765
-0.007116 -0.062681 0.017316
0.054153 0.014678 -0.012946
-0.043505 0.021221 0.025412
-0.031398 -0.069745 0.034078
0.005154 0.055217 -0.021078
0.051006 0.009404 0.011582
-0.007998 0.073806 -0.031718
0.046329 -0.069709 0.072802
-0.049403 0.024701 -0.013849
-0.009840 0.080460 -0.037317
0.030230 -0.021680 -0.021381
-0.044204 -0.003162 -0.032889
0.053276 0.023493 -0.111265
-0.014075 0.085034 -0.044690
-0.053929 0.048020 -0.090086
-0.013526 0.090511 -0.081870
-0.023910 0.028355 -0.000733
0.041347 -0.036381 0.020101
-0.041424 -0.070255 0.047869
-0.039142 -0.008235 -0.035919
-0.047792 -0.047722 0.047953
0.045360 0.059484 -0.039873
0.032876 -0.027489 0.112516
-0.006877 -0.025199 -0.035849
0.025297 0.030633 0.018461
0.003077 -0.033670 0.122372
-0.046413 -0.063502 0.056454
-0.039143 -0.070147 0.093276
-0.054911 0.038762 -0.042922
0.008506 0.028917 0.010822
0.045782 -0.008036 -0.016092
-0.044262 0.033746 0.035683
-0.046392 0.051732 -0.035254
0.044761 0.025244 -0.007403
0.012024 -0.027297 -0.027565
0.050488 0.014176 -0.058914
-0.041390 0.028583 0.030586
0.023993 -0.074493 0.033347
0.048777 -0.017960 0.012079
-0.043179 0.041566 -0.026025
0.008090 0.076756 -0.033798
0.049620 0.040464 -0.031465
0.040866 0.034319 0.031559
-0.015264 -0.090205 0.066047
0.041807 -0.062010 0.092656
-0.036897 -0.003953 -0.094016
-0.029035 -0.049571 0.017125
0.004429 0.034706 0.013556
-0.040946 0.022945 0.005245
0.037405 -0.077868 0.057709
0.039116 -0.021002 -0.007347
0.035395 0.028221 0.024016
-0.028944 0.032799 0.021364
0.035611 0.068566 -0.038161
0.019901 -0.062425 0.021362
-0.044644 0.045749 -0.030058
-0.023382 -0.079518 0.039936
-0.027973 -0.016307 -0.039486
0.029166 -0.040500 0.007491
0.005809 0.091885 -0.112921
0.005061 0.034143 -0.008801
-0.002603 0.028429 0.001651
0.054998 0.031691 0.069496
0.043860 -0.070055 0.053391
0.014135 0.066363 -0.028168
-0.008337 0.030745 -0.004273
-0.005602 -0.059308 0.117136
-0.034396 -0.080381 0.058728
0.023779 -0.070573 0.028995
0.043604 -0.069420 0.084966
0.042457 -0.070214 0.050019
0.043481 0.034415 -0.019442
-0.006110 -0.088323 0.088884
0.039492 -0.006167 -0.041757
-0.054911 0.038762 -0.042922
-0.019006 -0.026986 -0.023159
-0.033487 -0.051800 0.023778
-0.052043 -0.041561 0.072293
0.018391 -0.069516 0.111294
-0.040984 -0.011222 -0.022836
-0.042393 0.036689 0.033451
0.018776 0.045865 -0.019077
-0.037001 0.071539 -0.042553
-0.045931 -0.070356 0.063296
0.039119 0.062449 -0.036157
0.053862 0.011309 -0.020233
0.043151 0.071307 -0.058854
-0.030260 -0.051258 0.019842
0.014097 0.036104 -0.011519
-0.047766 0.021944 -0.005746
0.009688 -0.090051 0.081255
-0.048890 0.038828 -0.029301
-0.026184 -0.035346 -0.002272
-0.030868 0.025887 0.007872
0.009738 -0.026685 0.122653
-0.002846 -0.017927 -0.098200
-0.042899 0.001872 -0.077708
0.008042 0.072990 -0.031182
0.020059 0.088413 -0.100187
-0.049449 -0.055476 0.065956
0.022099 0.087562 -0.058627
0.041559 0.068051 -0.043897
0.054251 0.046303 -0.112521
-0.017314 0.084424 -0.045678
-0.024671 -0.082934 0.048013
-0.037643 0.064405 -0.036428
-0.013550 0.090502 -0.066207
-0.041840 0.023145 0.002509
-0.003907 -0.041331 0.120967
-0.034898 -0.005716 -0.092896
-0.040098 -0.001571 -0.074350
0.051363 0.023735 -0.016731
-0.023030 0.043651 -0.018911
0.053112 0.009194 0.001823
-0.014997 -0.082011 0.038577
-0.033024 0.068062 -0.036045
0.012257 0.035001 -0.010243
-0.047800 -0.056420 0.055671
0.030391 0.025928 0.008872
0.054625 0.030376 -0.062738
-0.054902 0.032627 -0.042450
0.034406 0.073803 -0.042808
0.028821 -0.061607 0.026688
0.052005 0.024283 0.048736
-0.000942 0.088956 -0.047687
-0.044654 0.018246 0.020102
0.044896 0.038466 -0.024782
-0.007954 -0.048013 0.003847
-0.045681 -0.069477 0.059423
0.031947 -0.034884 0.111633
-0.036801 -0.079458 0.065013
-0.009022 0.071487 -0.030358
-0.045899 -0.069663 0.076189
-0.054558 -0.010965 0.043340
0.051317 -0.043164 0.076760
-0.044198 0.020214 0.007900
-0.021267 0.030639 0.016454
0.052655 0.028391 -0.026011
0.045760 -0.021565 0.009043
0.044440 0.018760 0.021758
-0.032857 -0.013109 -0.038650
0.022099 0.087562 -0.058627
0.044521 -0.070937 0.057695
-0.010563 0.030006 -0.002993
-0.043297 0.030536 0.033751
-0.023466 0.034047 -0.010985
0.019167 0.080139 -0.040711
-0.050750 0.016035 -0.115623
-0.035653 -0.070660 0.097594
-0.042829 -0.070325 0.085958
-0.050803 0.048443 -0.038308
0.037874 -0.070679 0.094635
0.021224 -0.078631 0.100032
0.015594 0.076238 -0.035205
-0.053132 0.022796 -0.094874
0.034084 -0.073226 0.041003
0.013045 0.034171 -0.009441
0.014218 0.035150 0.015295
-0.040901 0.023530 0.024326
-0.054045 0.044664 -0.043642
0.005274 -0.084173 0.038959
-0.008548 -0.080228 0.103444
-0.044774 0.019824 0.026166
-0.016970 -0.073018 0.027927
0.022740 -0.031837 -0.010841
0.011279 0.064000 -0.026346
-0.054147 0.046247 -0.046352
-0.017871 -0.088034 0.055637
-0.016449 0.089681 -0.058838
-0.036473 -0.070557 0.096669
-0.049661 0.060835 -0.053264
-0.045348 -0.030748 0.022096
