-0.024820 -0.055186 0.011241
-0.000826 0.064481 0.038447
-0.053388 -0.081080 -0.069118
-0.080356 -0.043932 0.000720
-0.009056 0.036215 0.003202
-0.021547 -0.061626 0.005205
0.025986 0.032680 -0.015197
0.065737 0.062243 -0.002267
0.076766 0.071269 0.033420
0.025356 -0.002910 -0.026324
-0.026729 0.002220 0.017207
-0.017178 -0.005216 0.033364
-0.030913 0.010896 0.008981
0.002142 -0.046275 -0.009061
-0.076655 0.003616 -0.015700
-0.010238 -0.018881 0.052363
0.070278 0.059274 0.066526
0.061969 0.063455 -0.003798
0.004617 0.072913 0.031682
0.095802 -0.010554 0.036193
0.074665 0.059502 0.062016
0.088966 0.047153 0.015691
-0.024420 0.021029 -0.031108
0.025523 0.059317 0.074435
0.027369 0.068445 -0.002874
-0.050889 -0.000885 0.012945
-0.049122 0.024080 -0.048610
-0.078382 -0.063687 -0.039054
0.075750 0.035924 -0.005075
-0.016432 0.044618 0.022520
0.089460 -0.014278 0.059028
0.025591 0.008062 -0.024296
0.078909 0.061905 0.012020
0.082669 0.036994 0.065477
0.033586 0.009978 0.085584
-0.003783 -0.056702 -0.014198
0.028422 0.066551 0.070982
-0.088141 -0.007406 -0.037183
-0.033401 0.020791 -0.022313
-0.072338 0.017141 -0.078559
0.084995 0.054893 0.046504
-0.016937 0.042634 0.003921
0.037368 -0.027526 -0.022209
0.004551 -0.056839 -0.064015
-0.063714 -0.070558 -0.018777
-0.016198 0.023062 -0.004059
0.088685 0.017194 0.055127
0.033685 0.067990 0.071146
0.009175 -0.049642 -0.079191
-0.094602 -0.017311 -0.069121
-0.019585 0.042810 0.017759
-0.085821 -0.005188 -0.029762
0.000324 -0.063807 -0.079051
-0.066309 -0.072750 -0.037479
0.030922 0.004246 -0.022766
-0.025506 0.037336 0.022081
0.012903 -0.014681 -0.052199
0.008014 0.072215 0.024131
-0.052563 0.016582 -0.008861
-0.023869 0.023719 -0.072193
0.013472 -0.033810 -0.088001
0.030128 -0.004483 -0.023746
0.012427 0.037820 -0.023947
0.020039 -0.004940 0.083022
-0.044754 -0.080569 -0.048296
-0.032012 -0.044630 0.018582
-0.082262 0.006256 -0.056121
0.055655 0.070153 0.066835
-0.081161 -0.009656 -0.002530
0.013650 -0.027525 -0.061240
0.088685 0.017194 0.055127
0.090733 -0.006712 0.055715
0.007285 -0.001630 -0.054036
-0.002916 0.028488 -0.010365
-0.022401 -0.067521 -0.002119
0.068822 0.014222 -0.011892
-0.017496 0.036953 0.007154
0.048593 0.065283 -0.007376
0.062145 0.005499 -0.016327
0.024725 0.024785 -0.017397
0.061756 0.035004 0.078733
-0.019338 0.028967 0.014533
0.034874 0.023284 -0.018446
-0.051102 -0.034027 0.019186
-0.021854 0.022667 0.012936
-0.081025 -0.054152 -0.016253
0.027658 0.063168 0.073163
0.003165 -0.052004 -0.032183
0.042528 -0.018057 -0.021880
-0.081843 0.008679 -0.075456
-0.077430 -0.003110 -0.002534
-0.059080 -0.039945 0.016356
-0.021010 0.020368 -0.006201
0.090132 0.034989 0.021951
0.094105 -0.010557 0.019136
-0.060658 -0.065550 0.000681
-0.004238 0.039266 -0.012607
-0.000510 0.043090 -0.014143
0.005065 -0.050633 -0.039318
-0.014933 -0.076256 -0.082599
-0.053246 0.007637 0.006613
0.031229 0.044799 0.083203
-0.088665 -0.024733 -0.015962
0.002058 0.068212 0.029533
0.022599 0.062893 -0.005244
0.052409 0.072900 0.068000
0.040945 0.037389 -0.016328
-0.018963 0.035545 0.020082
0.047438 -0.021418 -0.021621
-0.029486 0.022395 -0.039775
0.022781 0.068052 -0.001167
0.043826 0.035043 0.083101
-0.019335 -0.021497 0.028436
-0.028493 -0.051243 0.014149
-0.021417 0.007298 0.022774
0.039996 0.019777 -0.019036
0.066120 -0.014458 0.081823
0.044869 0.000136 -0.020876
-0.082007 -0.057956 -0.032782
0.081760 0.062891 0.046047
-0.046628 0.010643 0.005104
-0.030645 0.016051 0.000483
0.073357 0.039602 -0.003924
0.076221 0.072906 0.043949
0.011940 0.055401 0.067995
0.029933 0.079355 0.050318
-0.016532 0.036929 0.037423
0.027832 -0.037429 -0.023824
-0.051355 -0.072951 -0.008983
0.010704 -0.028159 -0.042430
0.011878 -0.044357 -0.052620
-0.046120 0.021173 -0.025997
-0.060669 -0.069571 -0.008176
-0.017065 0.028184 0.006345
-0.000162 0.018316 0.064756
0.052234 0.038096 -0.014960
0.071592 0.057011 -0.000466
-0.029729 0.024426 -0.058849
-0.018793 -0.067908 -0.007793
-0.025180 0.018733 -0.001221
0.010597 0.036790 0.075627
0.028500 -0.029682 -0.025079
-0.014954 0.019039 -0.035424
0.000255 -0.046941 -0.007175
-0.095733 -0.026264 -0.070873
-0.008800 0.036895 0.052276
0.015192 -0.027525 -0.047311
-0.012207 0.017266 -0.045643
0.008081 -0.052223 -0.082701
-0.036398 -0.070238 0.000277
0.007853 0.009978 0.074329
0.082590 0.055400 0.052390
0.000003 -0.063490 -0.068622
-0.019663 0.042788 0.009157
-0.020529 -0.068840 -0.007817
0.025515 0.040363 -0.013310
0.007267 -0.027526 -0.018250
-0.017178 0.020244 -0.061805
0.085214 0.003743 0.002127
0.041255 -0.027526 0.088001
0.080638 0.056755 0.010686
-0.072002 0.010710 -0.026127
0.064952 0.074001 0.011975
-0.021821 0.020862 -0.041939
0.016786 0.021273 -0.019192
-0.065852 -0.076472 -0.067587
-0.004205 0.017607 -0.029419
-0.089534 -0.020760 -0.022632
0.072926 0.073331 0.024742
-0.084784 -0.009930 -0.014076
-0.085847 -0.050715 -0.029546
-0.006172 0.026401 -0.011544
-0.020355 0.016600 0.024033
0.001646 0.025560 -0.012436
-0.028428 -0.078135 -0.040731
-0.041874 -0.051193 0.015656
0.066506 0.069860 0.005822
0.081760 0.062891 0.046047
0.012217 -0.041754 -0.055818
-0.037084 -0.076531 -0.021819
0.075861 0.071594 0.038984
0.027323 0.055045 -0.010563
0.021624 0.046584 0.079917
-0.002646 0.042386 -0.020997
-0.049532 -0.063241 0.007959
-0.012064 0.043041 -0.001136
0.067519 0.060076 0.068286
0.013258 -0.028026 -0.085968
0.094176 0.011967 0.031663
0.004275 0.069333 0.040728
0.022991 -0.017992 -0.029284
0.049185 0.009918 0.085555
-0.004383 -0.014108 0.063288
-0.026395 -0.080948 -0.084484
0.002430 0.066260 0.017802
0.004636 0.031180 -0.009142
0.031646 0.025295 -0.017809
0.094963 0.003757 0.033483
-0.063066 0.022418 -0.084215
0.024622 0.016828 0.082672
-0.025494 0.017224 0.008274
0.083079 0.056888 0.015834
0.011659 -0.046310 -0.050122
0.074290 -0.012409 0.076622
-0.017250 0.042802 0.003837
-0.025807 -0.046261 0.020069
0.030300 0.064799 -0.006890
0.066529 0.075437 0.018322
0.018242 0.046400 0.078384
0.003502 0.069275 0.027295
0.072782 0.035022 -0.006015
-0.072977 -0.037332 0.010378
-0.089685 -0.053042 -0.070925
0.089368 0.020209 0.013384
0.004203 -0.030919 -0.088001
-0.014856 0.023974 0.039246
-0.030645 0.016051 0.000483
-0.020293 -0.001305 0.025540
0.044023 0.073198 0.000192
0.013700 -0.020304 -0.054413
0.023256 0.059499 -0.007409
-0.030388 -0.041281 0.017814
-0.006962 0.046961 0.008361
-0.033768 0.003987 0.012359
0.078987 0.036874 -0.003668
-0.030344 0.020833 -0.023128
0.018921 -0.039706 -0.035069
0.065268 0.068305 0.063226
0.008220 0.072912 0.017021
0.079863 0.000268 -0.004748
-0.024077 0.006152 0.018881
0.008830 -0.004647 -0.054752
0.047267 0.068202 -0.005229
0.006492 -0.001558 -0.071627
0.090866 0.034241 0.027928
-0.063436 -0.074490 -0.039047
-0.085530 -0.012351 -0.013295
0.010868 0.035938 -0.009437
-0.004247 0.060101 0.037493
0.049996 0.037569 0.081518
0.004947 0.023210 -0.016140
-0.005437 0.056431 0.040524
-0.032731 0.002365 0.013623
0.020039 -0.004940 0.083022
-0.019658 0.036215 0.015482
0.046385 0.059967 -0.010747
-0.042861 0.017333 -0.006398
0.084888 -0.021759 0.066437
-0.036401 0.012070 0.004433
-0.010011 -0.072770 -0.071704
0.051112 0.061847 -0.008991
0.014815 0.029021 -0.013750
0.015979 0.029599 -0.015744
-0.003136 0.061556 0.020834
0.033792 0.079702 0.051293
-0.051904 0.011774 0.002301
-0.006517 0.037890 -0.020354
-0.091255 -0.011473 -0.048489
-0.047973 0.021593 -0.029721
-0.017673 0.035600 0.012912
0.014469 0.036787 0.078167
0.032289 0.056830 0.077339
0.002494 0.058934 -0.003329
-0.052711 -0.078956 -0.044456
-0.036547 0.021631 -0.027651
0.077930 0.069000 0.042746
0.063556 0.007832 0.081467
0.065442 0.037757 0.075914
0.058168 0.080601 0.032635
-0.085139 -0.014819 -0.008114
0.024362 0.066330 -0.003540
0.093083 0.010706 0.044368
-0.074822 -0.067718 -0.042796
-0.075409 0.010110 -0.037018
-0.032492 0.009702 0.008937
-0.010612 0.020803 -0.019876
0.079597 0.068371 0.029015
-0.072637 -0.071479 -0.057821
0.025846 -0.039556 -0.025976
-0.013418 -0.072962 -0.050040
0.010811 -0.045661 -0.056998
-0.032241 -0.029126 0.019830
0.007021 -0.047198 -0.042315
-0.020293 -0.001305 0.025540
0.030728 0.067981 0.070432
0.015010 -0.003880 -0.036529
0.090733 -0.006712 0.055715
0.089112 0.044974 0.051171
0.089927 0.036791 0.052796
-0.040100 0.004971 0.010434
-0.070680 -0.072609 -0.055768
0.088050 0.048509 0.026971
0.046662 0.045232 -0.014540
0.010594 0.031703 -0.011161
0.052789 0.017404 -0.018026
0.047691 0.063408 0.074765
-0.085098 -0.016271 -0.006468
0.010780 -0.030691 -0.043559
0.092064 -0.027525 0.011892
0.070512 0.075040 0.026703
0.006935 0.064839 0.056051
0.064803 -0.010559 -0.016301
-0.054975 0.023936 -0.059372
-0.095312 -0.038204 -0.088001
-0.020888 0.020236 -0.012321
0.016385 -0.000953 -0.033316
-0.034435 -0.004989 0.016267
0.007959 0.037197 -0.027369
-0.019787 0.028204 0.015984
0.092457 0.010708 0.019075
-0.063780 -0.019240 0.015218
0.010270 0.058727 -0.000233
-0.037027 -0.079969 -0.043754
-0.090920 -0.013459 -0.041097
-0.058304 0.010625 0.000681
-0.021977 -0.032591 0.025631
0.006201 -0.049147 -0.042322
-0.015484 0.028928 0.036197
0.002851 0.003889 -0.061140
0.018159 0.075258 0.014569
-0.091758 -0.041234 -0.044540
0.006008 0.070793 0.024084
-0.054282 0.020286 -0.029535
0.038919 0.066836 -0.006801
0.066854 0.024830 -0.011491
-0.005239 0.023952 -0.011707
-0.021869 0.018020 0.019496
0.018773 0.022624 -0.018161
-0.084321 -0.036661 -0.002534
0.032410 0.036903 0.084846
0.014563 -0.033542 -0.050034
-0.063365 0.018221 -0.037416
0.022458 0.015413 -0.022526
0.072523 -0.017917 0.078118
0.044169 0.057927 -0.011760
-0.016400 0.015857 0.036691
-0.013181 0.042788 -0.001439
0.073281 0.048808 -0.001563
0.085310 0.044938 0.051845
-0.033801 -0.017370 0.019847
-0.027822 -0.042093 0.017070
0.093657 -0.006771 0.018227
0.084862 0.058416 0.023236
0.041255 -0.027526 0.088001
-0.042333 -0.011792 0.018056
0.015158 0.035132 0.075546
0.041221 -0.012349 0.087710
0.008360 0.059246 0.001553
0.013094 -0.035960 -0.058029
-0.019622 0.020467 -0.010842
-0.079583 0.005955 -0.037165
0.042081 0.032216 -0.017648
-0.017647 -0.061519 0.002649
0.039207 0.031459 -0.018854
-0.000206 0.038986 -0.017951
-0.005322 0.052961 0.011301
-0.016091 -0.027526 0.034816
-0.014186 0.043328 0.036861
0.061562 0.045282 -0.010318
-0.033530 -0.041389 0.018290
0.035321 0.019645 -0.019370
-0.003777 0.062084 0.031254
-0.078805 -0.061992 -0.033283
-0.072597 -0.054051 0.002962
-0.058151 -0.022548 0.017617
-0.003136 0.061556 0.020834
-0.034094 -0.059449 0.010927
0.020842 0.003889 -0.027832
0.089955 0.055687 0.037314
-0.031718 0.016782 -0.002525
0.002920 0.003765 -0.067603
-0.018454 0.029187 0.011125
0.018314 0.076951 0.045908
0.086978 0.043277 0.017642
-0.032315 0.025947 -0.074895
0.012329 -0.036732 -0.066569
0.025986 0.032680 -0.015197
-0.062347 0.022229 -0.070563
-0.063008 0.003023 0.006312
0.005505 0.054971 0.061555
0.063174 0.065164 -0.001802
0.073748 0.072935 0.041997
-0.079692 0.010892 -0.075010
0.012133 -0.003914 -0.041552
0.082021 0.065649 0.032876
-0.086589 -0.046170 -0.022641
-0.077191 0.000482 -0.008283
0.076880 0.069329 0.045145
0.009726 -0.003224 -0.046919
0.007853 0.009978 0.074329
0.012814 0.075683 0.037390
-0.053153 0.001852 0.010967
0.045874 0.058448 0.077432
-0.016841 0.035601 0.015720
-0.053262 0.022292 -0.040811
0.026032 0.078266 0.015152
-0.044630 -0.082850 -0.082086
0.001660 0.005976 -0.075686
0.028067 -0.036245 -0.024667
0.086886 0.049216 0.044424
0.031395 0.016829 0.084446
0.025549 0.061359 -0.007450
-0.066741 -0.031473 0.014525
0.032150 0.029587 -0.016938
-0.091941 -0.019028 -0.039052
0.008861 -0.036122 -0.033968
-0.006421 0.060479 0.040746
-0.004210 -0.068006 -0.070428
0.028702 -0.027526 -0.024591
0.095606 -0.014280 0.026114
-0.069185 -0.022969 0.013165
-0.028896 -0.075325 -0.022888
0.039329 0.059187 -0.011330
0.011680 0.012670 -0.028137
0.073006 0.068269 0.010983
-0.015479 0.041216 0.021513
0.069443 0.058445 -0.001659
0.010577 -0.019923 0.078580
-0.006200 -0.057182 -0.007068
-0.075548 -0.006036 0.002962
-0.083637 -0.007826 -0.013178
0.007491 0.008393 -0.035607
0.033685 0.067990 0.071146
-0.042480 0.005280 0.010199
0.013051 -0.019995 -0.062579
-0.018440 0.009140 0.030438
0.068815 0.035110 0.074624
0.011935 0.014259 -0.026582
0.012150 -0.034958 -0.060543
-0.001732 0.026009 -0.010574
0.085720 0.063287 0.046130
-0.060934 -0.061825 0.005003
0.045720 0.068608 0.071063
0.005467 0.035213 -0.007351
-0.068902 -0.051210 0.008048
-0.012673 0.018210 -0.037014
-0.030609 -0.048234 0.015805
-0.014835 -0.049532 0.009675
0.069061 -0.003085 0.079552
0.085574 -0.023968 0.000435
-0.035901 -0.014688 0.019045
-0.024070 -0.044979 0.021485
0.009418 0.073860 0.034332
0.020220 0.077614 0.019586
-0.074822 -0.067718 -0.042796
-0.029643 -0.080423 -0.058411
-0.004923 -0.053109 -0.002986
0.007252 0.061388 0.059930
-0.035323 -0.079052 -0.038194
-0.054428 -0.079834 -0.056113
-0.023376 0.037153 0.003549
-0.021322 -0.033859 0.016612
0.044335 0.027164 0.083898
0.018062 0.042780 -0.027336
-0.020688 0.042636 0.016719
0.016389 0.073276 0.011523
-0.058040 -0.069473 -0.004435
-0.025679 -0.009924 0.020770
-0.065122 -0.062879 0.000681
0.043010 0.057494 0.077980
0.031395 0.016829 0.084446
-0.041479 -0.061850 0.009842
0.012211 -0.013770 -0.055718
-0.014702 0.039563 0.032422
0.087261 0.060170 0.045115
0.086281 0.056893 0.037098
-0.063276 -0.047072 0.012773
0.087024 0.035012 0.053574
-0.073118 -0.072565 -0.076670
-0.074559 -0.002045 0.000681
0.032899 0.055080 0.077962
0.011903 -0.042063 -0.057894
0.053375 0.062992 0.073733
0.017472 0.077121 0.043478
0.027830 0.064787 -0.006130
-0.083162 -0.061745 -0.060029
0.083247 0.034239 0.006092
0.081577 0.060459 0.050173
0.083510 0.061037 0.022475
0.012211 -0.013770 -0.055718
0.020048 0.071062 0.004219
-0.026873 -0.080856 -0.076125
-0.036359 -0.072730 -0.005089
0.088338 0.041720 0.044774
0.056284 0.048916 -0.011628
0.017156 0.056305 -0.015164
0.068131 0.070534 0.057498
0.061920 -0.027524 -0.017991
-0.042199 -0.080211 -0.044382
0.007924 -0.004379 -0.068856
-0.063166 0.004919 0.004484
-0.000046 0.066083 0.034559
-0.002038 0.066637 0.023056
-0.000758 0.068190 0.031812
0.010971 -0.010677 -0.088001
-0.084428 -0.049316 -0.018993
-0.013040 -0.006841 0.045706
-0.014472 -0.071338 -0.035106
-0.025957 0.013328 0.013131
0.013245 -0.022696 -0.073828
-0.079251 -0.006019 -0.002478
-0.030166 -0.076819 -0.029446
0.092737 0.023645 0.031729
-0.021051 0.037445 0.007278
0.093166 0.020188 0.030670
-0.026891 0.037450 0.015552
0.016643 -0.027526 -0.041388
-0.036203 0.025153 -0.055694
-0.008868 0.015894 -0.071734
0.026345 -0.041929 -0.024517
-0.021654 -0.005285 0.023638
0.017908 0.056067 0.075832
-0.001400 0.008968 -0.068197
0.088256 0.023665 0.054043
0.030681 0.080231 0.047757
-0.019113 0.042863 0.022728
-0.000709 0.031605 0.060830
0.089377 0.037011 0.054318
-0.008975 -0.053577 0.002370
0.011823 0.022693 -0.017627
-0.012563 -0.046211 0.009751
-0.060368 0.020553 -0.044504
0.065480 -0.021446 0.082343
-0.002996 0.040092 0.000280
0.095802 -0.010554 0.036193
-0.022085 0.025964 0.015518
0.013050 0.070858 0.055363
-0.035512 -0.006844 0.016776
-0.076993 -0.069765 -0.083287
-0.044740 -0.060656 0.010543
0.014226 -0.044576 -0.043037
-0.083364 -0.037299 -0.000872
0.052467 0.054873 -0.011387
-0.063008 0.003023 0.006312
-0.058238 0.014075 -0.006463
0.018314 0.076227 0.048627
0.043096 -0.007199 -0.021439
0.043547 0.073225 0.065801
0.042570 0.007225 -0.020384
-0.015978 -0.043768 0.027112
0.025685 -0.032055 -0.022523
-0.015007 0.034626 0.009814
0.046355 0.067376 0.072085
0.093182 -0.010737 0.015978
-0.001060 0.010367 -0.045608
-0.014666 0.035522 0.039127
-0.074177 -0.028265 0.010462
0.002739 0.070766 0.038851
-0.053024 -0.059809 0.009796
0.087176 0.034177 0.013518
0.006281 0.050438 -0.013109
0.094176 0.011967 0.031663
0.008589 0.037445 -0.029600
0.013501 -0.024002 -0.062224
0.001160 -0.062953 -0.082606
0.001839 0.039256 -0.017063
0.026463 -0.029422 -0.026448
0.017507 -0.043112 -0.019494
-0.027955 0.016659 0.002571
-0.019972 0.021917 -0.000282
-0.004824 0.039169 -0.013954
-0.069621 0.015246 -0.040925
-0.073774 -0.013268 0.008367
0.093459 0.010708 0.023499
-0.052236 0.010640 0.003684
0.003898 -0.019996 0.073292
-0.001301 0.064343 0.023974
-0.048361 0.019622 -0.019173
-0.017488 0.021220 -0.008718
0.095047 -0.008673 0.042037
-0.045886 -0.076628 -0.022583
0.011940 0.055401 0.067995
0.070928 0.072901 0.054536
0.011823 0.022693 -0.017627
-0.095853 -0.028266 -0.072897
0.002468 0.063069 0.002965
0.087176 0.034177 0.013518
-0.093003 -0.010112 -0.076668
0.035361 0.063481 -0.008797
-0.002996 0.040092 0.000280
-0.034271 -0.082427 -0.079038
0.012031 -0.006769 -0.044847
-0.045375 -0.066159 0.005842
-0.006592 0.057974 0.032806
0.036573 0.066159 0.073130
-0.005182 0.036834 -0.004209
0.073807 0.060002 0.003351
-0.073780 -0.010544 0.007275
-0.023958 -0.069870 -0.006038
-0.014499 0.021133 -0.014597
-0.013804 0.017903 -0.053915
-0.074051 0.009047 -0.026347
0.018642 0.071624 0.006183
-0.001684 0.035213 -0.003383
0.062058 0.078988 0.039141
-0.031718 0.016782 -0.002525
-0.004648 -0.062574 -0.031239
0.007289 0.011858 -0.031792
0.004465 -0.024851 -0.088001
0.017725 0.069190 0.003409
0.021396 0.073181 0.059295
-0.024856 0.015884 0.012977
0.070137 0.073840 0.046618
-0.075763 -0.064296 -0.029721
-0.005757 -0.066218 -0.043932
-0.038238 0.026019 -0.064477
-0.075045 -0.056093 -0.002534
0.088984 -0.003272 0.058769
0.044485 0.014241 0.085580
-0.009938 0.040847 0.043096
-0.076289 -0.045004 0.005213
-0.011473 -0.042601 0.010320
0.084075 -0.010446 0.066928
0.074733 0.036787 0.073513
0.040490 0.082227 0.023220
-0.066270 -0.067741 -0.013123
-0.039756 -0.078431 -0.031865
-0.010823 -0.073623 -0.077761
0.003581 0.065109 0.012989
-0.033006 0.018955 -0.012275
0.014582 0.076790 0.033524
0.001908 0.063313 0.048703
-0.009716 0.052571 0.021110
0.029623 -0.008636 -0.024159
-0.042694 -0.068717 0.003007
0.061546 0.057414 -0.007218
-0.023386 -0.007337 0.021983
0.033681 0.027147 -0.017586
-0.028949 -0.027525 0.021878
0.094313 0.007604 0.038751
0.005414 0.000175 -0.062815
-0.021935 0.021478 0.005170
-0.067565 0.014576 -0.029716
-0.009835 0.037154 0.050733
-0.033749 -0.074651 -0.014445
0.024362 0.066330 -0.003540
0.010898 -0.044921 -0.057657
0.053408 0.037927 0.080709
-0.080072 -0.001724 -0.012905
-0.031842 0.012433 0.006373
0.007761 0.064351 0.006502
-0.090224 -0.011407 -0.040759
-0.091386 -0.005604 -0.082081
0.045514 0.043075 -0.019921
-0.068500 0.010143 -0.012914
0.072641 0.060564 0.068570
0.040594 0.072598 0.066779
0.014523 -0.013652 -0.043762
-0.029090 -0.009099 0.018971
-0.002085 0.042767 -0.020866
-0.007089 0.056518 0.020951
0.018746 -0.046405 -0.031497
0.037464 0.079804 0.013947
0.027327 -0.039624 -0.023981
0.035214 -0.007753 -0.022128
0.062720 0.061901 0.070379
-0.039714 -0.016425 0.019193
0.016326 -0.046373 -0.036216
-0.043077 0.020830 -0.022916
-0.023762 -0.079385 -0.066249
0.001488 0.061702 0.057540
0.005830 -0.027526 -0.011568
-0.061482 -0.072433 -0.022460
0.047674 -0.003097 -0.020840
0.012468 -0.031720 -0.058044
-0.001648 -0.062410 -0.046431
0.064820 -0.027526 0.082702
0.013437 -0.021435 -0.059068
-0.082152 -0.009959 -0.004435
0.082002 -0.010493 -0.003400
-0.032232 -0.032323 0.020797
0.076867 -0.016149 0.074713
-0.084605 -0.059781 -0.059372
0.003493 0.069525 0.032945
-0.077343 -0.054422 -0.004435
-0.056446 0.006425 0.006569
0.056789 0.023346 0.082139
0.011940 0.055401 0.067995
-0.068527 0.002850 0.002301
-0.042480 0.005280 0.010199
-0.022978 -0.036460 0.024379
0.038463 -0.011743 -0.021804
0.042737 0.079054 0.054467
0.008355 -0.004234 -0.088001
0.001954 0.063494 0.012972
0.058170 0.076881 0.053384
0.081144 -0.015167 -0.004603
0.070499 0.074542 0.023411
0.004203 -0.030919 -0.088001
-0.058217 -0.073124 -0.019208
0.045440 -0.021665 0.087811
-0.013930 0.043370 0.004067
-0.085781 -0.032149 -0.004432
0.079311 0.034674 0.065121
-0.091063 -0.050185 -0.071009
-0.012656 -0.074517 -0.072025
0.013867 0.042877 -0.022643
0.010057 0.026996 -0.013713
0.000707 0.064612 0.017786
0.084352 0.061510 0.014057
0.093211 -0.027526 0.051092
-0.020807 0.036445 0.016471
0.007166 0.068328 0.013225
-0.024910 -0.027525 0.023633
-0.017203 0.021393 -0.083317
-0.033399 -0.077402 -0.029249
0.065639 0.035546 -0.011641
-0.015679 0.040403 0.020269
0.068815 0.035110 0.074624
0.083612 -0.010423 -0.001502
-0.075873 -0.000957 -0.002577
0.005824 0.066542 0.051779
0.092805 0.023173 0.034075
-0.009291 0.053852 0.023180
-0.017478 -0.033395 0.030466
0.073876 0.070089 0.050147
0.015590 0.036114 -0.011184
0.013089 -0.003935 -0.039700
-0.008804 -0.072466 -0.088001
-0.025651 0.018253 0.001562
-0.086839 -0.043571 -0.019174
0.013675 -0.027526 0.080590
0.028762 0.010180 -0.022733
-0.026754 0.017578 0.001617
0.026463 -0.029422 -0.026448
-0.010838 -0.046221 0.008856
-0.009498 0.021134 -0.018204
0.043229 0.058445 -0.015698
-0.026728 -0.071246 -0.007083
-0.035934 -0.078279 -0.032534
-0.016553 -0.069987 -0.021868
0.022845 0.069197 0.065968
-0.086801 -0.000174 -0.055409
-0.079881 -0.040967 0.002962
0.048111 -0.021412 0.087532
-0.022857 -0.077882 -0.052798
-0.084233 0.002394 -0.048371
0.013557 0.066807 0.003823
0.090169 0.039598 0.034100
-0.031870 -0.065472 0.005590
0.012927 0.032372 -0.011670
0.024031 0.076263 0.011297
0.086219 0.064801 0.024821
-0.025891 0.015318 0.011073
-0.064543 0.010943 -0.006468
-0.022369 -0.074326 -0.029240
-0.064627 0.020396 -0.059703
-0.016760 0.037796 -0.009320
-0.025366 0.012945 0.014493
0.032745 0.070360 0.068536
-0.013041 0.035767 0.004681
-0.068849 0.018991 -0.071010
0.011216 0.037049 0.076210
0.075285 0.004213 -0.008510
0.065751 0.077535 0.038606
0.043497 0.082559 0.040200
-0.044616 0.026886 -0.088000
0.003098 -0.041155 -0.009882
-0.066072 0.004862 0.002306
0.026463 -0.029422 -0.026448
-0.010673 -0.053561 0.004157
0.019266 -0.017704 -0.034281
-0.015676 -0.022334 0.035934
0.068425 0.071238 0.010079
0.029355 0.023648 -0.018152
0.013704 0.035905 0.076160
-0.077842 0.011788 -0.063686
-0.012820 0.024931 -0.004373
-0.070024 -0.067083 -0.020919
0.039018 0.029775 -0.017541
-0.020932 -0.046413 0.022984
-0.092928 -0.040191 -0.052362
-0.009383 0.035864 0.000706
0.002148 0.002526 0.069970
0.026443 0.054974 0.076290
-0.083926 -0.001879 -0.029587
-0.030157 0.014884 0.003944
0.012403 0.042751 -0.024224
0.038748 -0.019841 0.087877
-0.015793 0.044143 0.029995
-0.061315 -0.026642 0.016839
-0.004811 0.025115 -0.010148
-0.005376 0.019131 -0.025304
0.039507 0.001454 -0.020944
0.093166 0.020188 0.030670
-0.045947 -0.075361 -0.016141
0.041954 0.021046 -0.018841
0.008966 -0.047293 -0.059759
0.037736 -0.001476 -0.021333
-0.083691 -0.056698 -0.037186
-0.014165 -0.040812 0.017627
0.054875 0.057812 0.075784
0.021059 -0.027525 -0.031873
0.012629 0.070999 0.010986
-0.026724 0.021016 -0.027052
-0.052406 0.021427 -0.033621
-0.017188 0.043779 0.022463
-0.016447 -0.043741 0.027832
0.089916 -0.018090 0.007566
-0.033197 -0.072346 -0.005305
0.058965 0.056890 -0.008595
-0.084698 -0.058824 -0.054057
-0.079251 -0.006019 -0.002478
-0.096078 -0.031503 -0.082392
0.019633 0.070627 0.062099
0.006870 -0.012413 0.075547
-0.002037 0.037277 -0.001963
-0.022857 -0.077882 -0.052798
-0.032186 -0.082240 -0.084479
0.093807 0.003575 0.044191
0.075417 -0.021852 0.076068
0.070110 0.035915 -0.007322
0.094963 0.003757 0.033483
0.054763 0.081240 0.038511
-0.057675 -0.080444 -0.082451
0.004908 -0.046423 -0.026230
-0.093213 -0.043773 -0.067059
-0.020586 0.006892 0.024519
-0.024383 0.022687 -0.055938
-0.038588 -0.026219 0.020334
-0.014301 -0.027526 0.018453
0.033431 0.072098 -0.000553
0.022080 -0.033326 -0.021415
-0.007667 -0.067851 -0.043558
-0.004570 -0.054132 -0.005237
0.017955 0.077122 0.021536
0.053644 0.070217 0.067561
-0.019376 -0.046400 0.024503
-0.013205 0.019657 -0.026603
-0.055533 -0.065244 0.004107
-0.019696 0.026935 0.022849
0.064426 0.071874 0.058895
0.072812 0.071641 0.017729
-0.032583 -0.079018 -0.040752
0.023904 0.042865 -0.012242
0.036573 0.066159 0.073130
0.052372 0.081901 0.029636
-0.075319 -0.048959 0.003954
0.002128 0.056508 0.055883
-0.015239 0.042928 0.004784
0.011137 -0.000798 -0.040430
0.055080 -0.010411 0.085853
-0.047535 0.023585 -0.042791
-0.009585 0.055884 0.036814
0.093017 0.037068 0.042426
0.067252 0.065591 0.001532
0.030650 0.035025 0.081972
-0.019949 -0.077308 -0.058638
-0.013139 0.022653 0.043311
0.013758 -0.030699 -0.057907
-0.008193 0.027455 -0.005050
-0.062409 0.017354 -0.029717
0.085595 0.059261 0.032140
0.092737 0.023645 0.031729
0.063326 0.037639 -0.011067
-0.015742 0.036241 0.036391
0.047411 0.080742 0.048257
-0.088141 -0.007406 -0.037183
0.034220 0.082038 0.024704
0.068637 0.072022 0.054104
0.043219 0.082939 0.036035
0.007853 0.009978 0.074329
0.007426 0.000071 -0.048233
0.026032 0.078266 0.015152
0.077206 0.055023 0.061290
-0.000033 0.035954 0.062917
-0.080405 0.010619 -0.088001
0.066431 0.055836 0.070930
-0.047554 0.022868 -0.037556
-0.083281 -0.015253 -0.002534
-0.036398 -0.070238 0.000277
0.007167 0.014884 -0.028243
0.083079 0.056888 0.015834
0.011451 -0.043669 -0.084491
-0.027493 0.015012 0.008009
0.006156 -0.053966 -0.063023
0.091855 0.003813 0.014983
-0.024077 0.006152 0.018881
-0.001156 0.022234 -0.016599
-0.041449 0.025394 -0.055656
0.010486 0.072935 0.046771
0.001957 0.052615 0.002858
0.022230 -0.032894 -0.030887
0.084895 0.010880 0.002851
-0.001168 0.062651 0.017787
-0.020385 -0.059342 0.006599
-0.065852 -0.076472 -0.067587
-0.090390 -0.006423 -0.058587
0.049717 0.061292 -0.013265
0.035549 0.024842 0.084024
0.012657 0.037125 -0.030302
0.056730 0.079581 0.020225
-0.041238 -0.083032 -0.088001
0.029200 0.064943 0.072470
0.007166 0.068328 0.013225
-0.000908 -0.065050 -0.076124
-0.000184 0.066529 0.043531
0.073120 0.057024 0.069630
0.038919 0.066836 -0.006801
0.035951 0.078658 0.054863
0.056599 0.035022 0.080765
0.003398 -0.027526 -0.009493
0.008617 0.063569 0.004834
0.000986 0.056822 0.053633
-0.086117 -0.059861 -0.088001
0.033645 0.039322 0.081395
-0.038127 -0.081202 -0.054077
0.017068 0.059189 0.070202
0.039592 0.067856 0.071971
-0.016274 0.038623 0.026097
0.053871 -0.022540 0.086519
0.076890 0.014043 -0.005828
0.086281 0.056893 0.037098
0.058256 0.070636 0.000980
-0.091758 -0.041234 -0.044540
-0.021381 -0.068409 -0.005199
0.014851 0.076812 0.036415
-0.015351 0.019510 -0.030568
0.070679 0.055271 -0.001960
-0.086241 -0.014820 -0.012895
0.007731 -0.003922 -0.064489
0.089112 0.044974 0.051171
0.022927 0.064968 -0.003950
0.010307 0.072334 0.018131
0.063100 0.073288 0.008535
0.009338 -0.047851 -0.067543
0.062845 0.059278 -0.009539
-0.022774 -0.078448 -0.058848
0.017612 0.027245 -0.015252
0.080466 0.028523 0.065269
0.090301 0.010708 0.012746
-0.074750 0.001593 -0.004435
0.026479 0.005852 -0.024415
0.077411 0.035171 0.067404
-0.072161 -0.002342 0.003679
0.011518 0.064441 0.062111
0.089460 -0.014278 0.059028
0.038273 0.016918 0.085286
-0.072002 0.010710 -0.026127
-0.083471 -0.026122 0.000645
-0.034737 -0.066001 0.005656
-0.020555 0.028228 0.010620
0.070152 0.063711 0.002426
-0.020374 0.020578 -0.021888
0.078987 0.036874 -0.003668
0.083181 0.059502 0.047159
-0.014773 -0.028604 0.014145
-0.026278 0.019317 -0.010723
0.038272 0.007365 -0.020571
-0.053045 -0.077262 -0.033202
-0.020778 -0.079040 -0.084490
-0.072446 -0.011105 0.008547
0.003293 0.063062 0.051994
0.093182 -0.010737 0.015978
-0.002528 -0.066819 -0.077597
0.065480 -0.021446 0.082343
-0.081072 0.002383 -0.029945
-0.021056 0.022110 0.019760
0.083953 0.064169 0.050090
-0.012098 -0.027526 0.047150
-0.014975 0.038378 -0.002804
-0.068958 -0.007556 0.009373
0.005838 0.071396 0.032887
0.000997 -0.046354 -0.008070
-0.021821 0.020862 -0.041939
-0.077289 -0.062327 -0.027852
0.091892 0.045588 0.026480
0.063556 0.007832 0.081467
0.079212 0.067110 0.044456
0.036696 0.067982 0.071616
-0.047085 -0.059761 0.010899
-0.063486 0.011827 -0.007261
0.006929 0.070717 0.044315
-0.014720 -0.046409 0.019387
0.062263 0.055520 0.073492
-0.090005 -0.036360 -0.026158
0.000018 -0.019754 0.069315
0.062108 -0.010557 0.083498
-0.078260 -0.010985 0.002964
0.053599 -0.010751 -0.020229
-0.002613 0.056588 0.011034
-0.060533 -0.076027 -0.040814
0.057668 0.078422 0.049261
-0.048002 -0.061327 0.009722
0.068504 0.060756 0.071715
0.082401 0.041589 0.007217
0.000683 -0.056179 -0.032359
0.039472 0.035185 0.082860
0.081036 0.034996 0.002510
0.035361 0.063481 -0.008797
0.022831 0.077518 0.015864
0.034569 -0.012410 0.087309
-0.009221 0.045055 0.009872
0.049890 0.067374 -0.005457
-0.003655 0.012870 -0.043053
0.039018 0.029775 -0.017541
0.044911 -0.027526 0.087883
-0.004297 0.026598 -0.008591
0.037929 0.070825 0.068880
-0.040158 0.010044 0.006160
0.026110 0.027496 -0.016592
0.014823 0.020283 -0.020189
0.021501 0.000724 -0.028313
0.020048 0.071062 0.004219
0.003186 0.042779 -0.023969
0.007573 0.070376 0.047118
-0.015789 -0.046282 0.026118
-0.081454 -0.049564 -0.007160
-0.015250 0.030136 0.005563
0.091921 -0.007200 0.053002
-0.020547 0.042787 0.017035
0.071608 0.072578 0.047913
-0.025506 0.037336 0.022081
0.040687 0.056849 0.078215
0.053832 0.080711 0.043742
-0.046453 -0.030682 0.020024
0.021840 0.026635 -0.016267
0.008767 -0.041306 -0.014483
-0.064485 -0.075241 -0.047986
0.046264 -0.010738 -0.021416
-0.038120 -0.011209 0.017976
-0.071004 0.012821 -0.032580
-0.001384 0.064771 0.027793
0.062367 0.071238 0.061596
-0.062931 -0.064283 0.000681
0.011251 -0.008692 -0.050821
-0.069281 0.006825 -0.004432
0.084857 0.050591 0.049816
-0.032853 0.001111 0.014169
0.078617 0.048374 0.004142
-0.032349 -0.079887 -0.047946
-0.031318 -0.009392 0.018375
-0.016553 -0.069987 -0.021868
0.082018 0.030898 0.003323
-0.060746 -0.079129 -0.074784
-0.086211 -0.034295 -0.006468
-0.065648 0.021189 -0.082449
0.011211 -0.011558 -0.084402
-0.026713 -0.006803 0.019476
-0.018551 0.021391 -0.005736
0.027423 0.069835 -0.001433
-0.093907 -0.012388 -0.082648
0.064616 -0.017922 -0.016675
0.005830 -0.027526 -0.011568
-0.094735 -0.033615 -0.059838
0.028500 0.074479 0.004876
0.018822 0.035829 -0.012377
-0.028056 -0.073526 -0.015124
-0.090944 -0.033638 -0.029371
0.069443 0.058445 -0.001659
0.010483 0.062644 0.067979
0.028306 -0.027526 -0.025084
-0.044883 -0.061729 0.009794
0.050905 0.080637 0.019217
0.010891 -0.043085 -0.066436
0.010662 -0.046229 -0.056072
-0.026870 -0.032058 0.018434
-0.019113 0.042863 0.022728
0.026230 0.079783 0.045442
-0.084883 -0.060151 -0.065352
-0.018370 -0.036376 0.015166
0.077469 0.041122 0.065480
0.078506 0.063580 0.005632
0.081249 0.064971 0.022877
-0.025008 -0.033983 0.017771
0.080355 0.065165 0.045755
-0.052349 0.006479 0.007902
0.007126 0.055484 0.063285
-0.043113 -0.022174 0.019994
0.025176 0.072885 0.065977
-0.058213 0.003497 0.008301
-0.034798 0.026074 -0.070255
-0.003303 -0.066566 -0.063687
0.075978 0.069001 0.017693
-0.084790 -0.054976 -0.037069
0.030579 0.070861 0.067373
-0.040169 0.013008 0.002562
-0.069806 -0.003356 0.006488
-0.085324 -0.035563 -0.004435
0.059422 0.003581 -0.017562
0.046493 0.057295 0.081184
-0.060285 -0.024418 0.017100
0.009034 -0.006587 -0.073226
0.051500 0.059463 -0.010065
-0.032905 -0.027526 0.020225
0.004193 -0.025147 -0.088001
-0.017086 0.021188 -0.009669
-0.025655 0.000119 0.018614
0.040323 0.025889 -0.018165
-0.075548 -0.006036 0.002962
0.046662 0.045232 -0.014540
0.056730 0.080949 0.035572
-0.006172 0.026401 -0.011544
0.013502 0.068645 0.059394
0.012642 0.059714 0.066621
0.020813 0.023205 -0.017890
0.003410 0.057960 0.057066
0.041255 -0.027526 0.088001
-0.081718 -0.042989 -0.000930
-0.088105 -0.045660 -0.029676
-0.031870 -0.065472 0.005590
0.030681 0.080231 0.047757
-0.074438 -0.000453 -0.000930
-0.088603 -0.000201 -0.082259
0.012670 -0.015003 -0.054568
-0.046095 0.026277 -0.070873
0.066267 0.063799 -0.000753
-0.024921 0.006467 0.017781
0.001047 0.006325 -0.057394
0.057204 0.035168 0.080277
0.011484 0.069360 0.009290
0.088018 0.045465 0.042920
0.047241 0.073382 0.000898
0.019010 0.078661 0.036541
0.027407 0.045116 0.082243
-0.026870 -0.032058 0.018434
0.012031 -0.006769 -0.044847
0.090866 0.034241 0.027928
-0.021821 0.020862 -0.041939
0.047022 0.030744 -0.017113
-0.088141 -0.007406 -0.037183
-0.015927 0.036305 0.030924
-0.009047 0.027660 0.049360
0.091855 0.003813 0.014983
-0.016937 0.023454 -0.001982
0.071778 0.073836 0.042360
0.007480 0.055445 -0.010496
-0.069842 -0.020022 0.012453
0.095433 -0.006775 0.027597
-0.066855 -0.068878 -0.019355
0.037463 0.082817 0.029580
0.013469 0.016374 -0.024125
0.022924 0.059880 -0.014661
0.028447 0.079480 0.017192
-0.021241 -0.022060 0.026214
-0.012687 0.045153 0.016775
-0.032125 -0.036157 0.020524
-0.091384 -0.050533 -0.084217
-0.072857 -0.060625 -0.006466
0.016615 0.005258 -0.030062
-0.045827 -0.005485 0.015740
-0.018248 0.035572 0.014841
-0.066072 0.004862 0.002306
-0.012704 -0.063790 -0.007759
0.010891 -0.043085 -0.066436
0.015295 0.071593 0.009171
-0.093740 -0.040875 -0.063297
-0.002940 0.044141 0.002428
0.008617 0.001269 -0.042816
-0.069183 0.014580 -0.035316
0.091309 0.035001 0.029599
0.036916 0.077530 0.008256
0.021732 -0.005996 -0.029509
-0.002308 -0.063771 -0.050086
-0.002837 0.044072 0.053531
-0.003995 0.042777 -0.013264
-0.037751 -0.005369 0.015988
0.054758 0.078193 0.013607
0.045998 0.022249 0.084473
-0.049336 0.011911 0.002962
-0.015857 0.027134 0.002805
0.013557 0.056711 0.072970
-0.078946 0.009860 -0.055937
0.085107 0.054883 0.019857
-0.026570 0.018371 -0.003274
-0.035941 0.001914 0.012851
0.014197 -0.021074 -0.051241
-0.040883 0.026988 -0.088000
0.030594 0.073137 0.001768
-0.028949 -0.027525 0.021878
0.076241 0.059430 0.005856
-0.031483 -0.081646 -0.070424
-0.005014 -0.064417 -0.038028
-0.011618 -0.064766 -0.014308
-0.058150 -0.027665 0.017877
-0.092734 -0.043530 -0.059703
-0.005678 0.059709 0.028766
-0.069281 0.006825 -0.004432
-0.012754 0.018834 -0.031982
-0.082275 -0.024219 0.002306
-0.017196 -0.027526 0.032301
0.025380 0.044061 -0.022288
0.079232 0.063496 0.051427
0.015003 -0.027526 -0.048294
-0.073774 -0.013268 0.008367
-0.008913 0.015088 -0.052103
0.003014 0.038193 -0.022225
0.012031 -0.006769 -0.044847
0.068568 0.048973 -0.005352
0.010147 -0.008642 -0.082056
-0.021125 0.037241 -0.001210
0.037653 -0.027525 0.087886
-0.049452 0.022260 -0.035312
0.012302 0.035099 0.074020
0.089972 0.035156 0.022227
0.079539 -0.017796 0.072337
-0.082275 -0.024219 0.002306
-0.029154 -0.080851 -0.065373
-0.024241 -0.057566 0.009655
-0.018784 0.042890 0.017797
-0.002365 -0.060890 -0.035015
-0.043571 -0.015541 0.018964
0.072143 0.026527 0.073697
0.061960 -0.003326 0.083133
0.007989 0.039309 0.068952
0.013739 -0.028026 -0.085994
-0.010582 -0.055568 0.002296
-0.033614 -0.070038 -0.000081
-0.068272 -0.040490 0.012418
0.032932 0.081309 0.044613
-0.015721 0.011820 0.038953
0.077198 0.037058 0.071421
0.000218 0.022707 -0.015948
0.078441 -0.006881 -0.006783
0.072142 0.018356 0.075074
0.009418 0.073860 0.034332
0.023572 0.059092 0.073737
-0.014944 0.018477 -0.045723
-0.080356 -0.043932 0.000720
0.007240 -0.051179 -0.059213
0.088685 0.017194 0.055127
-0.017596 -0.006527 0.031951
0.030706 0.000604 -0.023156
0.015149 0.059502 -0.012302
0.077169 0.021649 0.070291
0.076455 0.067379 0.015243
-0.019338 0.028967 0.014533
-0.012098 -0.027526 0.047150
0.044162 -0.027526 -0.021938
0.086535 0.035037 0.054704
0.053912 -0.003102 0.085723
-0.028348 0.009797 0.012455
0.079681 -0.012411 -0.005947
0.076695 0.030484 -0.002953
0.044501 -0.022212 -0.021880
-0.032390 -0.006228 0.017141
0.032150 0.029587 -0.016938
0.037968 0.070941 -0.002752
0.013704 0.035905 0.076160
0.006806 -0.036836 -0.022673
-0.025780 -0.059746 0.008726
-0.028878 -0.065810 0.004240
0.031060 0.018994 -0.019869
0.062150 -0.010683 -0.017493
0.084324 0.064405 0.017203
-0.017900 0.020394 -0.023480
-0.005437 0.056431 0.040524
-0.021998 0.025931 0.012518
-0.012055 0.017014 -0.057045
0.011544 0.008944 -0.031417
0.018749 0.005742 -0.028409
-0.004686 0.045859 0.049834
-0.044964 -0.001941 0.014216
0.007749 0.072768 0.032820
0.005032 0.006445 -0.041679
-0.034043 0.019741 -0.016418
0.019850 0.063406 0.074086
-0.047133 -0.081115 -0.055610
-0.011008 0.017939 -0.034967
-0.005530 0.059816 0.026789
-0.006312 0.016429 -0.034959
-0.010597 -0.027526 0.009521
0.087152 0.034992 0.012859
-0.036771 0.023823 -0.043183
0.011878 -0.044357 -0.052620
-0.015565 0.042450 -0.007994
0.095087 -0.024006 0.021750
-0.026691 0.021664 -0.035947
0.011982 -0.046408 -0.048001
-0.058390 -0.055493 0.010823
-0.012558 0.052675 0.017708
0.005613 0.016304 -0.027087
-0.019874 0.020319 -0.044355
0.003459 0.003493 -0.074945
0.019729 0.016838 0.080765
0.011538 0.074687 0.039987
0.022050 0.072914 0.001731
0.066835 0.072914 0.059324
0.011903 -0.042063 -0.057894
0.009509 -0.004939 0.077097
-0.019113 0.042863 0.022728
0.023563 0.055390 -0.009080
-0.017925 0.026529 0.005643
-0.032853 0.001111 0.014169
0.002583 0.020963 -0.019612
-0.084621 -0.038932 -0.004432
-0.005239 0.039581 0.001830
-0.051205 0.013962 -0.000930
0.063747 0.075771 0.050722
-0.084761 -0.000952 -0.037375
0.000707 0.064612 0.017786
-0.009918 0.016033 -0.046653
0.078277 -0.021744 -0.007634
-0.023821 0.019407 -0.002512
-0.019358 0.025419 0.024532
-0.087527 -0.051174 -0.040895
0.067018 0.059111 -0.007332
0.013741 0.070067 0.008041
0.077843 0.067293 0.047873
-0.035362 0.014469 0.001082
-0.037377 -0.081554 -0.058466
0.043504 0.080782 0.049133
0.016430 0.002874 -0.031439
0.002784 -0.028297 -0.008969
0.090301 0.010708 0.012746
0.041242 -0.016072 -0.021838
0.080464 0.047991 0.064914
-0.003996 0.057995 0.015306
0.073329 0.072905 0.015234
0.009184 -0.032365 -0.033056
-0.005138 0.012171 -0.058879
-0.007003 0.053365 0.047215
0.092812 -0.014103 0.051517
0.004602 0.002219 -0.081813
-0.085324 -0.035563 -0.004435
-0.045827 -0.005485 0.015740
0.007448 -0.048389 -0.049404
-0.003136 0.061556 0.020834
-0.014074 0.038342 -0.002213
0.010577 -0.019923 0.078580
0.050893 0.017314 0.084425
0.047438 -0.021418 -0.021621
0.092462 0.044778 0.034291
-0.073456 -0.067833 -0.037054
-0.035393 0.016677 -0.003741
0.020599 -0.008091 -0.030992
0.072964 0.072596 0.044691
-0.017086 0.021188 -0.009669
-0.004923 -0.053109 -0.002986
0.066506 0.069860 0.005822
-0.072338 0.017141 -0.078559
0.006200 -0.039800 -0.022895
0.001869 0.067199 0.039704
-0.025561 0.014598 0.012728
0.072641 0.060564 0.068570
0.081119 0.034275 0.062957
-0.007625 -0.053938 0.000365
0.062513 -0.017920 0.083608
0.032604 0.015050 -0.020783
-0.019220 0.042627 0.008017
0.034981 0.082446 0.027377
-0.092289 -0.048292 -0.082074
-0.093933 -0.025924 -0.048954
-0.021880 0.016043 0.020203
0.069594 0.065630 0.062339
-0.091286 -0.048541 -0.063780
0.077424 0.061489 0.056851
0.086043 0.048428 0.047889
0.005117 0.066565 0.013088
0.073245 0.063028 -0.000694
0.091296 0.035007 0.036601
0.090616 0.030496 0.043570
-0.013771 -0.075696 -0.088001
0.090601 -0.001480 0.055216
0.069181 0.074526 0.020000
0.036705 0.082794 0.036036
-0.034271 -0.082427 -0.079038
-0.025010 -0.051342 0.013166
-0.002405 0.026840 0.059709
0.011925 -0.009148 -0.048423
0.017748 -0.040685 -0.036987
0.000034 -0.060356 -0.046357
-0.020587 -0.045022 0.024113
-0.083993 0.005275 -0.065352
-0.062392 -0.063387 0.002301
-0.013080 0.031825 0.004174
-0.021265 0.028055 0.014424
0.071354 0.048807 0.069252
-0.018181 0.035602 0.028111
-0.014071 0.042746 -0.002484
0.065268 0.068305 0.063226
-0.017758 -0.044921 0.027403
0.029660 0.081898 0.034493
0.060396 0.071924 0.004066
-0.069171 -0.066388 -0.015527
0.084895 0.010880 0.002851
0.074532 0.067716 0.012397
-0.092782 -0.032673 -0.040927
-0.005823 0.012860 -0.053959
-0.024934 -0.080112 -0.072011
-0.005989 0.042800 -0.013635
0.023579 0.004775 -0.026035
0.014493 0.037366 -0.030359
-0.015494 0.018772 -0.043776
-0.063785 -0.031209 0.015830
0.081459 0.010710 0.067633
-0.058316 -0.060948 0.007146
-0.088306 -0.042996 -0.025683
0.040403 0.072904 -0.003698
-0.044679 0.016564 -0.004436
0.001573 0.067370 0.037436
-0.056079 0.024896 -0.084208
0.071482 0.068210 0.008839
0.092351 0.014042 0.045908
0.006081 -0.032172 -0.015773
0.014223 -0.036559 -0.049978
0.065442 0.037757 0.075914
-0.055944 -0.073923 -0.019276
0.087750 0.035152 0.014781
0.040687 0.056849 0.078215
0.083540 0.061449 0.042487
0.083881 0.039593 0.057013
0.079606 -0.018238 -0.006286
-0.059538 0.022204 -0.056113
-0.024599 0.018583 0.006830
-0.036883 0.026647 -0.079038
-0.049988 0.021337 -0.030068
0.016869 0.036887 -0.029565
0.045720 0.068608 0.071063
-0.003995 0.042777 -0.013264
0.054782 0.081078 0.025959
0.051608 0.072309 0.000408
-0.019056 -0.078374 -0.088001
-0.056457 -0.003068 0.012724
-0.031787 0.017203 -0.003914
-0.093216 -0.010283 -0.081875
-0.014835 -0.049532 0.009675
0.074086 0.071179 0.046822
0.032153 0.064833 0.073320
0.056325 0.068679 -0.002171
0.064252 0.064298 0.067788
0.045753 0.072929 -0.000425
-0.006798 0.048810 0.044545
-0.010797 0.016279 -0.050495
-0.044966 -0.057481 0.012451
-0.024376 0.018632 0.008384
0.036860 0.068445 -0.005217
0.032342 0.017618 -0.020184
-0.046449 -0.027647 0.020082
0.076171 0.065653 0.054060
-0.013253 0.018379 -0.065268
-0.012469 0.037605 0.039623
0.065751 0.077535 0.038606
0.090072 0.037753 0.039629
-0.002992 0.010385 -0.065194
0.059601 0.054687 0.075000
0.065531 0.036858 0.079650
-0.063439 -0.067897 -0.007238
0.020926 0.055637 -0.016568
-0.037023 -0.018117 0.019631
0.077885 0.044519 0.068843
-0.044966 -0.024605 0.020096
0.090046 0.055981 0.030936
0.088984 -0.003272 0.058769
-0.034578 0.012993 0.003821
-0.015377 -0.046224 0.023407
0.035849 0.069198 0.070372
0.015314 0.016909 -0.023167
0.057261 0.002135 -0.018418
-0.066561 -0.066249 -0.008111
-0.037027 -0.079969 -0.043754
-0.015438 -0.034417 0.023092
-0.009047 0.027660 0.049360
-0.062919 -0.077563 -0.063651
-0.081718 -0.042989 -0.000930
-0.028896 -0.075325 -0.022888
-0.056133 -0.044040 0.016190
0.007761 0.064351 0.006502
0.014372 0.004926 -0.032036
-0.010801 0.045956 0.038072
0.086978 0.043277 0.017642
-0.039494 0.013669 0.001621
-0.063741 0.009692 -0.002494
-0.050533 -0.041897 0.017951
0.074199 -0.018093 -0.010913
-0.067223 0.019060 -0.059688
-0.063532 -0.078127 -0.078559
-0.066855 -0.068878 -0.019355
-0.007223 0.057491 0.026803
-0.054333 0.011043 0.002301
-0.037758 -0.020748 0.019967
-0.031805 0.026097 -0.082702
0.005820 -0.053273 -0.055473
-0.016198 0.023062 -0.004059
0.001954 0.063494 0.012972
0.056730 0.079581 0.020225
-0.095568 -0.021755 -0.074480
0.000462 0.033238 -0.008077
0.083901 0.027116 0.060970
0.028694 -0.030808 -0.023787
-0.066308 -0.044391 0.012322
0.032387 0.080585 0.018508
-0.078683 0.000298 -0.013124
0.076496 0.070578 0.024275
0.070632 0.007070 -0.011616
0.002871 -0.046424 -0.016170
0.038914 0.036852 -0.022529
-0.014472 -0.071338 -0.035106
-0.022356 0.021141 -0.045578
-0.073118 -0.072565 -0.076670
0.018060 0.054671 -0.006778
0.071060 0.015546 -0.010264
-0.030344 0.020833 -0.023128
-0.051102 -0.034027 0.019186
0.080729 0.067307 0.033391
-0.084354 -0.026745 -0.000872
0.082571 0.034984 0.004648
-0.093705 -0.023485 -0.048290
-0.095065 -0.020666 -0.067365
-0.042968 -0.082612 -0.072906
0.005884 0.056891 0.061146
-0.044620 0.015780 -0.002534
0.005638 -0.051879 -0.047758
-0.009153 -0.049563 0.005539
-0.003101 -0.002951 0.064164
0.072013 0.000084 -0.011387
0.080860 0.054883 0.010039
-0.020981 0.026084 0.007281
0.088685 0.017194 0.055127
0.070646 0.035569 -0.008548
0.073006 0.068269 0.010983
0.035321 0.019645 -0.019370
0.060302 0.077529 0.016614
-0.015007 0.034626 0.009814
0.037243 0.072898 0.069503
0.040490 0.080945 0.017320
0.025047 -0.044052 -0.022301
-0.015377 -0.046224 0.023407
0.071060 0.015546 -0.010264
0.059576 0.028531 -0.014365
-0.056513 0.020208 -0.032947
0.007426 0.000071 -0.048233
-0.058116 0.011729 -0.000977
0.070313 0.003767 0.078175
-0.027329 -0.079990 -0.059963
0.029435 0.061334 -0.008754
-0.001054 0.036925 0.064301
-0.001054 0.036925 0.064301
0.045452 0.063918 0.074727
-0.036180 0.022726 -0.035571
0.013499 -0.027525 -0.066272
-0.030923 0.006828 0.012155
0.038740 0.078963 0.054592
0.058999 0.071344 0.063658
0.055960 -0.003275 -0.019201
-0.059576 -0.043424 0.015326
0.053540 0.023650 -0.017009
0.037243 0.072898 0.069503
-0.019141 0.021160 -0.061683
-0.091386 -0.005604 -0.082081
-0.022015 0.020636 -0.030018
-0.012580 -0.028566 0.013026
0.060051 0.061819 0.071845
0.093499 0.013850 0.025867
0.026964 0.078955 0.049421
0.081606 0.035015 0.062462
0.010413 0.072159 0.048177
-0.050807 0.015669 -0.004432
-0.024910 -0.027525 0.023633
-0.072703 -0.071988 -0.063470
0.066529 0.075437 0.018322
-0.013869 -0.046405 0.016319
-0.015851 -0.065800 -0.006845
0.025370 -0.044843 -0.023153
-0.000873 0.009278 -0.084510
0.006200 -0.039800 -0.022895
-0.040949 0.024395 -0.046291
0.032068 0.078204 0.054759
-0.094594 -0.024687 -0.056075
0.017400 0.046929 -0.008724
0.088196 0.035157 0.016086
-0.074671 0.014917 -0.069124
0.066405 0.048260 -0.006980
0.026314 -0.004937 0.085249
0.035753 0.052711 -0.018621
0.092737 0.023645 0.031729
0.050057 0.047166 0.082966
-0.023968 0.020714 -0.025451
-0.060855 -0.068974 -0.006468
-0.093740 -0.040875 -0.063297
0.019266 -0.017704 -0.034281
0.041221 -0.012349 0.087710
0.050411 0.044635 0.080088
-0.001156 0.022234 -0.016599
-0.076723 -0.053909 -0.002494
-0.039575 -0.082915 -0.081365
-0.054407 -0.031654 0.018742
-0.089259 -0.031169 -0.018894
0.008830 -0.004647 -0.054752
0.039531 0.071882 -0.001699
0.017614 0.074980 0.051538
-0.002135 0.013862 -0.037310
0.073329 0.072905 0.015234
0.072298 0.035168 -0.006064
0.086107 -0.027526 0.064844
0.010775 -0.038413 -0.051841
-0.017123 0.019564 -0.054181
-0.061708 0.022858 -0.078929
-0.094908 -0.037041 -0.069125
-0.000300 0.023386 -0.014654
0.079291 0.063519 0.014738
0.053605 0.068205 -0.003681
-0.059967 -0.071792 -0.016274
0.031221 0.075124 0.004934
-0.014694 -0.046251 0.019974
0.038518 0.064580 0.078714
-0.012542 0.026939 0.043405
-0.092262 -0.046967 -0.069122
0.039302 0.068490 -0.005383
0.076509 -0.006582 -0.008478
-0.071404 -0.046082 0.008832
0.008942 0.026240 -0.016620
-0.016460 0.037308 0.004522
-0.032807 0.012863 0.005034
0.069311 0.067374 0.005315
-0.089450 -0.022674 -0.020837
-0.019113 0.042863 0.022728
0.019259 0.036863 0.080761
-0.085246 -0.057045 -0.048750
0.074290 -0.012409 0.076622
0.061334 0.078680 0.043048
0.006934 0.069265 0.048562
0.066243 0.065804 0.070680
-0.010151 0.015813 -0.054179
0.092487 -0.017910 0.013282
0.012967 -0.020542 -0.070279
0.031647 0.066547 -0.005930
-0.087944 -0.032587 -0.013020
-0.015792 0.038446 0.029251
-0.014285 0.028217 0.039380
0.046336 0.060954 0.076280
0.012133 -0.003914 -0.041552
-0.058304 0.010625 0.000681
0.014021 0.036908 -0.030119
-0.018551 0.021391 -0.005736
-0.081422 -0.026781 0.003684
-0.023157 -0.037661 0.016709
-0.014552 0.023958 -0.004215
0.064182 0.000560 0.081853
0.011538 0.074687 0.039987
0.073329 0.072905 0.015234
-0.093409 -0.013830 -0.063469
-0.035934 -0.078279 -0.032534
-0.023386 -0.007337 0.021983
-0.018218 0.020230 -0.026089
0.022781 0.068052 -0.001167
-0.054540 -0.071964 -0.008367
-0.001346 0.060624 0.045016
0.000210 0.067583 0.018462
0.011894 -0.014246 -0.080877
-0.017717 -0.032828 0.015303
0.028361 -0.027526 -0.025055
-0.007197 0.042794 -0.016685
-0.080064 -0.003575 -0.008283
-0.094858 -0.035201 -0.063896
0.012986 -0.046395 -0.017170
-0.022457 0.036831 0.015505
-0.020865 0.012092 0.023401
-0.063741 0.009692 -0.002494
-0.066309 -0.072750 -0.037479
-0.012388 -0.055951 0.003745
0.036902 0.055078 -0.012526
0.034397 0.071422 0.067645
-0.026279 0.016789 0.006783
-0.024254 0.008428 0.018089
-0.006060 0.018354 -0.028176
-0.023106 -0.040450 0.023484
0.013030 -0.037255 -0.057847
-0.008789 0.037055 -0.001991
-0.031642 0.003686 0.013456
-0.084043 -0.011580 -0.008123
0.007570 -0.036237 -0.026327
-0.011604 0.054446 0.029879
-0.055269 -0.028394 0.018646
0.029307 0.007174 -0.023053
-0.003655 0.012870 -0.043053
-0.003653 0.012035 -0.047057
-0.089328 -0.052649 -0.062945
0.000609 0.036286 0.064610
0.002430 0.066260 0.017802
0.010662 -0.046229 -0.056072
0.015920 0.018965 -0.021321
-0.020385 -0.059342 0.006599
0.029388 -0.016614 -0.024454
0.067522 0.035138 -0.009445
0.021857 0.067985 0.066703
0.004821 -0.039158 -0.015220
-0.084605 -0.059781 -0.059372
0.068425 0.071238 0.010079
0.020520 0.036261 0.080426
-0.076789 -0.013615 0.005842
-0.085072 -0.050180 -0.024107
0.044997 0.071988 0.067409
-0.053325 -0.074780 -0.019736
0.052409 0.072900 0.068000
0.066528 0.076265 0.044311
0.039535 0.035030 0.083125
-0.023466 -0.079981 -0.081192
0.022585 0.079869 0.028294
-0.088315 -0.000934 -0.067240
0.076192 0.014046 0.072457
-0.037479 0.004733 0.010872
0.044923 0.041644 0.081408
