0.009729 0.038170 -0.042948
0.041073 -0.011139 -0.041389
0.065882 0.025439 0.017183
0.062716 0.019537 0.001961
0.016938 -0.058750 -0.029071
-0.055026 -0.003501 -0.037217
-0.018464 0.004814 -0.047901
0.004560 0.012213 -0.048415
0.030684 0.054011 -0.018548
0.050257 0.028585 -0.033412
-0.023105 -0.054575 -0.026898
-0.020257 0.034222 -0.042948
-0.038546 -0.038047 -0.033863
0.021523 -0.053166 -0.029357
0.055087 -0.014894 -0.029357
-0.055813 0.036005 -0.015875
0.009656 -0.062814 -0.024314
-0.055016 -0.044308 0.034691
0.053308 0.000000 -0.033863
-0.026987 0.063122 0.020125
0.001595 -0.065291 -0.019090
0.041294 0.050518 0.000029
-0.000499 0.000000 -0.048875
-0.035630 -0.055358 0.000029
0.073900 0.024625 0.003814
0.064549 -0.008217 0.000029
0.064060 0.023685 0.020192
0.030889 0.040905 -0.035927
-0.059883 -0.015912 -0.021509
0.062113 -0.019908 0.000904
-0.063137 0.020797 -0.015875
0.053585 0.046906 0.051875
0.043949 0.011656 -0.043271
0.064987 0.025084 0.010413
0.031725 0.000000 -0.045361
0.040230 -0.051072 -0.019090
0.019070 -0.002523 -0.050786
0.007382 -0.059865 -0.024287
-0.028441 0.027942 -0.042948
-0.042291 0.050518 0.000029
0.021768 0.017086 -0.046362
-0.066641 -0.034714 0.048125
-0.000496 -0.065898 -0.015875
-0.061358 0.016305 -0.015366
0.065646 0.024722 0.018149
0.064135 -0.018577 0.002796
0.065106 0.024722 0.022636
-0.028441 -0.027942 -0.042948
0.064187 -0.023848 0.020365
-0.024582 -0.058136 -0.015366
0.046427 0.045445 -0.019090
-0.024034 0.000000 -0.047213
0.053461 0.046803 0.046203
-0.060880 0.000000 -0.024287
0.072982 -0.024163 0.004809
0.027443 -0.020853 -0.047731
-0.016127 0.058324 -0.024287
0.063840 -0.023584 0.020125
-0.068607 -0.016787 0.010410
-0.007616 0.017183 -0.047901
-0.023105 -0.054575 -0.026898
-0.028844 -0.054333 -0.029071
-0.023789 -0.015160 -0.049485
0.072042 0.024163 0.005628
-0.034721 0.006665 -0.047731
-0.061978 0.000000 -0.021509
0.057121 -0.023867 -0.018548
0.051050 0.021352 -0.031675
0.066652 -0.003661 0.002796
0.041935 -0.061476 0.048125
0.021020 0.037272 -0.041389
0.020625 -0.065003 0.020125
0.017378 -0.072528 0.048125
-0.001004 0.072440 0.051875
0.031818 -0.013084 -0.047731
-0.002393 -0.019639 -0.050786
0.062198 -0.021823 0.003796
-0.037872 0.053577 -0.019090
0.045550 0.055922 0.051875
-0.002865 -0.010367 -0.051592
0.027417 -0.059325 0.000029
-0.035171 -0.034672 -0.037870
-0.047364 0.035961 -0.026898
-0.011821 0.014756 -0.047901
-0.008954 0.069635 0.010410
-0.005695 -0.005196 -0.048743
-0.045602 -0.008784 -0.043271
-0.023918 0.044890 -0.040415
-0.036531 0.000000 -0.044220
0.010047 0.001360 -0.051592
-0.034644 -0.026200 -0.041389
-0.001028 -0.071433 0.046203
0.071883 0.020396 0.003466
-0.037010 -0.017583 -0.045776
-0.019171 -0.014327 -0.047213
-0.027906 -0.066031 0.046203
-0.001004 0.072440 0.051875
0.064289 0.008353 -0.019090
-0.010591 0.003351 -0.051592
0.043601 -0.044100 -0.018548
0.003165 0.027827 -0.046362
0.054534 0.047108 0.051875
-0.005745 0.054387 -0.037217
0.075198 0.019800 0.000125
-0.005361 -0.050398 -0.040415
0.033365 -0.055861 -0.019090
-0.021435 -0.064434 0.014910
-0.056284 0.023107 -0.024287
0.068839 -0.024163 0.009232
-0.000499 -0.062919 -0.015366
0.016938 -0.058750 -0.029071
-0.028844 -0.054333 -0.029071
-0.054131 0.010445 -0.037217
0.060462 -0.024136 0.000029
0.065080 -0.024737 0.022786
-0.002865 0.010367 -0.051592
0.003618 -0.065435 0.000029
0.057231 0.039848 0.010410
0.058886 0.015912 -0.021509
0.055414 -0.049534 0.048125
0.065646 -0.024722 0.018149
-0.037257 0.047904 -0.024287
-0.007616 -0.017183 -0.047901
0.065356 -0.021798 0.012123
-0.028566 0.000000 -0.046362
-0.047364 0.035961 -0.026898
-0.037981 0.054300 -0.015875
-0.051859 0.033432 -0.029071
-0.060067 -0.037241 0.034691
0.052898 -0.030073 -0.029071
-0.031704 0.018016 -0.044220
0.025943 -0.059733 -0.019090
-0.044416 -0.048358 -0.019090
0.049036 -0.055913 0.048125
-0.006329 0.004473 -0.048743
-0.011239 0.025930 -0.046362
0.014528 0.066785 0.020125
0.017517 -0.031205 -0.044220
0.031978 -0.024238 -0.045776
0.003936 0.027434 -0.049485
0.045831 -0.052809 0.034691
-0.056184 0.046335 0.051875
-0.023105 0.054575 -0.026898
0.005013 0.009093 -0.051592
0.010949 0.006610 -0.048415
-0.049727 -0.023707 -0.037217
-0.060741 0.016142 -0.018548
-0.045151 0.025780 -0.035927
-0.013605 0.001725 -0.048415
0.027628 0.036656 -0.039692
-0.057827 0.027608 -0.024314
0.025748 0.043297 -0.040415
-0.037155 0.028127 -0.039692
0.005969 0.040005 -0.045776
0.062608 0.019897 0.002057
-0.009503 0.074154 0.048125
-0.068284 -0.008563 0.020125
-0.004972 -0.005830 -0.048743
0.016693 0.009682 -0.050786
-0.073027 0.017877 0.048125
0.073978 -0.024549 0.003636
-0.055713 -0.026590 -0.029071
0.003805 -0.009723 -0.051592
0.061848 -0.020990 0.001459
-0.057553 -0.007511 -0.029357
-0.013605 -0.001725 -0.048415
-0.020759 -0.062356 0.000029
-0.006582 -0.008721 -0.051592
-0.031850 -0.024056 -0.042948
0.071647 0.023550 0.005198
-0.050209 -0.020591 -0.033863
0.016938 -0.058750 -0.029071
0.039349 -0.057729 0.010410
0.071996 0.020250 0.003354
0.052847 0.007023 -0.033863
0.046912 0.045915 -0.015875
-0.059065 0.007710 -0.026898
0.064639 0.022296 0.014249
-0.049886 0.046378 0.014910
0.075028 0.022235 0.000758
-0.040276 0.007747 -0.045776
0.054943 0.031224 -0.024314
-0.022474 -0.059714 -0.024314
-0.013605 -0.001725 -0.048415
0.036136 0.057721 0.020125
-0.061452 -0.008025 -0.021509
0.064135 -0.018577 0.002796
-0.057954 -0.031586 0.000029
-0.045151 0.025780 -0.035927
0.012192 -0.047364 -0.037870
-0.026508 0.068579 0.035347
-0.020759 0.062356 0.000029
0.064124 -0.010902 0.000584
0.026404 -0.046598 -0.033863
0.034306 -0.009326 -0.044220
0.045452 0.000000 -0.043271
0.049338 -0.028773 -0.029357
0.061593 -0.022317 0.002731
0.007582 -0.049983 -0.040415
-0.000499 0.018599 -0.047901
0.046185 -0.034841 -0.033412
-0.031356 -0.026269 -0.045776
-0.060363 0.007881 -0.024287
0.066116 0.024305 0.014586
-0.048402 -0.036758 -0.024287
-0.068556 -0.021896 0.046203
-0.043195 0.042696 -0.024287
0.047822 0.027898 -0.031675
-0.000499 0.057546 -0.029357
-0.037872 -0.053577 -0.019090
0.063204 0.023009 0.012974
-0.018738 -0.065980 0.020125
0.033226 -0.008844 -0.047731
-0.007784 0.000959 -0.048743
-0.060363 -0.007881 -0.024287
0.062493 0.024940 0.014910
0.060735 0.032613 0.027331
0.065186 0.022106 0.012763
0.025943 0.059733 -0.019090
0.041347 -0.040525 -0.033412
0.048477 -0.012843 -0.040415
-0.009411 0.005801 -0.051592
0.005119 -0.042670 -0.041389
0.038733 0.058277 0.034691
0.027417 -0.059325 0.000029
0.056305 0.022997 -0.029071
0.065303 0.022065 0.012444
-0.034584 0.064944 0.035347
0.012196 0.066550 0.014910
-0.023939 0.025810 -0.047731
-0.019224 0.006217 -0.050786
0.006784 0.055318 -0.031675
-0.009505 -0.021744 -0.047213
0.048980 0.037966 -0.018548
-0.026873 -0.008757 -0.049485
-0.012830 0.029771 -0.045361
-0.049319 -0.031779 -0.033412
-0.012784 -0.064403 0.000029
-0.024805 -0.014033 -0.046362
0.029272 0.012331 -0.045361
0.064344 -0.023550 0.017861
-0.016641 -0.060242 -0.018548
-0.053845 -0.007023 -0.033863
0.057355 -0.039852 0.034691
-0.031026 -0.058516 -0.015875
0.053639 -0.046598 0.046203
0.073987 0.024556 0.003646
0.064226 -0.023900 0.020457
-0.008010 0.057054 -0.029357
0.064181 0.022327 0.012883
-0.023683 -0.033237 -0.045776
0.059743 0.016142 -0.018548
0.012270 -0.003421 -0.048415
-0.037233 0.040449 -0.037217
-0.006530 0.045808 -0.039692
0.034080 0.004458 -0.047731
-0.035469 0.060929 0.034691
-0.000499 0.039517 -0.042948
0.046185 -0.034841 -0.033412
-0.010724 -0.044799 -0.043271
0.011459 0.044629 -0.039692
0.031449 0.004206 -0.045361
-0.055777 0.040163 0.020125
-0.068607 -0.016787 0.010410
0.062689 0.016570 -0.019090
-0.009846 0.009347 -0.048415
0.018266 -0.045302 -0.037870
-0.063803 -0.036560 0.048125
-0.042269 0.041770 -0.026898
0.067133 -0.027748 0.048125
0.048809 -0.043687 -0.015875
0.010949 -0.006610 -0.048415
-0.049727 -0.023707 -0.037217
0.046366 0.035961 -0.026898
-0.003571 0.023334 -0.047213
0.046366 -0.035961 -0.026898
-0.002367 0.071468 0.046203
0.058780 0.015545 -0.029071
0.068098 0.025079 0.010321
0.028612 0.028192 -0.045776
-0.027402 -0.046598 -0.033863
-0.008257 -0.033991 -0.047731
-0.037872 -0.053577 -0.019090
-0.049978 0.037966 -0.018548
-0.007763 -0.027110 -0.046362
0.064215 -0.024379 0.023052
-0.074653 0.009004 0.048125
-0.063363 0.035997 0.051875
0.000134 -0.019720 -0.050786
-0.012830 0.029771 -0.045361
0.065106 0.024722 0.022631
-0.004616 -0.065435 0.000029
-0.033254 0.042687 -0.033863
0.048980 -0.037966 -0.018548
0.001541 0.063597 -0.024314
0.062564 -0.036975 0.048125
0.016684 0.007118 -0.047901
0.064365 0.021701 0.005494
0.039349 -0.057729 0.010410
0.028274 -0.049837 -0.029357
-0.026987 -0.069845 0.048125
-0.007522 -0.053346 -0.033863
-0.070343 -0.026489 0.048125
0.063292 -0.022764 0.012967
0.047110 0.026813 -0.037217
0.032172 0.032671 -0.039692
0.032486 -0.054412 -0.024314
-0.008712 0.062381 -0.015366
-0.058823 0.015628 -0.024287
-0.067374 -0.021516 0.034691
0.012653 0.013152 -0.047901
-0.039052 0.032821 -0.040415
0.061586 -0.023288 0.004907
-0.014940 -0.053895 -0.031675
-0.045128 -0.011958 -0.039692
-0.064618 -0.012487 -0.019090
0.027417 0.059325 0.000029
0.060051 0.024514 -0.019090
-0.035303 0.009326 -0.044220
0.007488 0.018042 -0.050786
0.043179 0.049305 -0.015875
0.036157 -0.028127 -0.039692
0.064959 0.008440 -0.015875
-0.054305 0.000000 -0.033863
-0.042269 -0.041770 -0.026898
-0.046116 0.021968 -0.040415
-0.055744 0.030371 -0.015366
0.025281 0.044652 -0.035927
0.042094 0.017244 -0.043271
0.024547 0.024255 -0.047731
0.068754 0.027998 0.048125
-0.052047 0.021352 -0.031675
0.074629 0.022785 0.002247
0.033587 0.064944 0.035347
0.043767 0.033966 -0.031675
0.060462 0.024136 0.000029
0.028612 -0.028192 -0.045776
-0.045801 -0.018765 -0.037870
0.012270 -0.003421 -0.048415
0.006171 0.068129 0.020125
-0.000499 0.000000 -0.048875
0.075198 0.019800 0.000125
-0.021851 0.051549 -0.031675
-0.030689 0.052292 -0.024287
0.065385 -0.028010 0.051875
0.001617 0.065966 -0.015875
0.003707 -0.031948 -0.045361
0.032172 0.032671 -0.039692
-0.053845 0.007023 -0.033863
-0.012784 0.064403 0.000029
0.060172 -0.032495 0.020224
-0.003167 -0.027661 -0.049485
0.064278 0.027059 0.034697
-0.000499 0.059072 -0.026898
0.004315 -0.017965 -0.047901
-0.007648 0.007872 -0.051592
0.018173 -0.014327 -0.047213
-0.007784 0.000959 -0.048743
-0.021664 0.057512 -0.029071
0.048477 -0.012843 -0.040415
0.007212 0.058566 -0.026898
0.065912 0.022000 0.011198
-0.025978 0.025479 -0.044220
-0.072521 0.012520 0.048125
0.062318 -0.022386 0.005743
-0.066641 -0.034714 0.048125
-0.073601 -0.000135 0.048125
-0.033588 0.010986 -0.047731
-0.066641 -0.034714 0.048125
-0.040261 -0.016470 -0.041389
-0.009825 -0.034805 -0.044220
0.047405 0.036758 -0.024287
-0.014826 -0.018672 -0.047213
-0.042164 0.060362 0.035347
0.060340 0.032419 0.020369
-0.028844 0.054333 -0.029071
-0.047324 0.055274 0.051875
-0.059115 -0.023208 -0.015366
0.012720 0.000000 -0.048415
0.066416 -0.024168 0.013454
-0.047015 0.052505 0.010410
-0.000499 0.013219 -0.048415
0.060281 -0.007837 -0.029071
-0.064618 0.012487 -0.019090
0.054746 -0.030371 -0.015366
0.054824 0.040190 0.020125
0.058780 -0.015545 -0.029071
0.064533 -0.022198 0.000800
-0.008380 0.059865 -0.024287
0.011314 -0.061927 -0.015366
0.054824 0.040190 0.020125
0.036327 0.027484 -0.043271
0.016143 -0.016642 -0.047213
0.064653 0.024497 0.022879
0.064657 0.020410 0.003451
-0.047162 -0.039725 -0.029071
0.018101 -0.042018 -0.043271
-0.030270 0.012331 -0.045361
0.037468 0.049479 -0.018548
0.015268 -0.063960 -0.015875
0.064339 -0.021102 0.004346
0.030110 -0.058320 -0.015875
0.019232 0.047635 -0.035927
-0.026788 -0.037687 -0.043271
0.071647 0.023550 0.005198
0.011787 0.064403 0.000029
0.062231 -0.022309 0.005068
-0.008839 -0.031126 -0.045361
0.062608 0.019897 0.002057
0.035821 -0.045543 -0.033412
-0.062332 -0.008140 -0.018548
0.047136 -0.019731 -0.035927
-0.050033 0.055913 0.048125
0.045458 -0.043156 -0.015366
-0.022766 -0.017086 -0.046362
0.043767 -0.033966 -0.031675
-0.005202 0.035724 -0.044220
0.017606 -0.061000 -0.024314
0.064278 0.027059 0.034697
-0.038259 -0.054131 -0.015875
0.021020 0.037272 -0.041389
-0.000499 0.036032 -0.044220
-0.026064 -0.019616 -0.045361
-0.029930 -0.056414 -0.024314
0.027443 -0.020853 -0.047731
-0.004889 -0.019236 -0.050786
0.026382 0.007049 -0.049485
0.035501 0.063624 0.048125
-0.034462 -0.022107 -0.045776
-0.009846 0.009347 -0.048415
0.042189 0.032755 -0.033863
0.043617 0.024846 -0.040415
-0.004173 -0.006364 -0.048743
0.065897 -0.023550 0.013171
0.014257 -0.011322 -0.047901
-0.033254 0.042687 -0.033863
-0.019547 -0.068908 0.046203
-0.037150 -0.063251 0.048125
0.023945 -0.067184 0.046203
0.020853 0.051549 -0.031675
-0.049131 -0.050697 0.034691
0.064634 -0.008228 0.000584
-0.004911 -0.045738 -0.043271
0.043601 0.044100 -0.018548
0.000134 -0.019720 -0.050786
-0.063137 -0.020797 -0.015875
-0.035303 -0.009326 -0.044220
0.043617 -0.024846 -0.040415
-0.055783 -0.018356 -0.033412
0.022603 -0.040013 -0.039692
0.072916 0.024793 0.004863
0.007012 -0.057054 -0.029357
0.023557 0.031351 -0.042948
-0.062955 0.012163 -0.024314
0.012310 -0.067134 0.020125
0.060281 0.007837 -0.029071
-0.054510 0.031183 -0.018548
-0.000499 0.000000 -0.048875
-0.023601 -0.040013 -0.039692
0.062229 0.028181 0.020188
0.046427 -0.045445 -0.019090
0.032510 0.031967 -0.043271
-0.046902 0.054517 0.051875
0.025990 -0.069845 0.048125
-0.068645 0.024573 0.051875
-0.067753 -0.012763 0.020125
0.015413 -0.059385 -0.021509
-0.005695 0.005196 -0.048743
-0.008954 -0.069635 0.010410
0.065646 -0.024722 0.018149
-0.001520 -0.010584 -0.051592
-0.012657 0.053270 -0.037217
-0.062332 0.008140 -0.018548
-0.026064 0.019616 -0.045361
0.025510 0.068579 0.035347
-0.041899 0.019937 -0.043271
-0.029719 0.019020 -0.047731
-0.036560 -0.061846 0.051875
0.032791 -0.013789 -0.044220
0.008801 -0.016107 -0.047901
0.053725 -0.037432 -0.015875
-0.046292 -0.029808 -0.037217
0.016288 -0.068108 0.010410
0.060977 -0.042434 0.048125
0.018101 -0.042018 -0.043271
0.074877 -0.020250 0.001322
-0.038817 0.049933 -0.015366
-0.003847 -0.034704 -0.047731
-0.021659 0.018014 -0.049485
-0.024805 0.014033 -0.046362
-0.052790 0.030191 -0.024287
-0.000499 0.000000 -0.051875
-0.042291 -0.050518 0.000029
-0.049978 -0.037966 -0.018548
0.023715 0.013637 -0.049485
0.031449 -0.004206 -0.045361
-0.064457 -0.015762 -0.015875
0.062608 0.019897 0.002057
0.023521 -0.066018 0.034691
-0.004753 -0.067616 0.014910
-0.059354 -0.028343 -0.019090
-0.007288 -0.002812 -0.048743
0.063103 0.021434 0.004039
0.074344 0.023533 0.003038
0.064829 0.021066 0.000288
-0.022474 -0.059714 -0.024314
0.015268 -0.063960 -0.015875
0.015195 0.069749 0.046203
-0.018939 0.002428 -0.047901
0.011031 0.038849 -0.045776
0.029880 0.017109 -0.047731
-0.009505 0.021744 -0.047213
-0.046292 -0.029808 -0.037217
0.066524 0.025230 0.013201
0.030889 0.040905 -0.035927
-0.046456 -0.043156 -0.015366
0.064181 0.022327 0.012883
0.036916 0.054206 -0.015875
-0.024366 -0.057619 -0.018548
-0.036801 -0.057203 0.014910
-0.027443 -0.051646 -0.033412
-0.027430 -0.064884 0.034691
0.058780 -0.015545 -0.029071
0.064606 -0.024993 0.023125
-0.059571 0.000000 -0.026898
0.011787 -0.064403 0.000029
0.050659 0.029536 -0.026898
-0.054510 0.031183 -0.018548
-0.031165 -0.058431 -0.015875
0.034537 -0.062181 0.046203
0.021772 -0.016621 -0.049485
-0.022434 0.028586 -0.044220
0.063605 0.026549 0.027401
0.064189 0.023850 0.020363
0.000460 0.007286 -0.048743
0.003460 0.062919 -0.015366
0.015190 -0.068477 0.034691
0.023028 0.056800 -0.021509
0.071050 0.021294 0.004318
-0.051618 0.006730 -0.035927
-0.047364 -0.035961 -0.026898
0.055875 -0.038833 0.020125
0.042094 -0.017244 -0.043271
-0.044236 0.049365 -0.015875
-0.003571 0.023334 -0.047213
-0.000496 0.065898 -0.015875
-0.046695 -0.054692 0.051875
0.049212 -0.020591 -0.033863
0.010824 0.014756 -0.047901
0.050620 -0.006730 -0.035927
0.053725 -0.037432 -0.015875
-0.031759 -0.044814 -0.037217
0.062689 -0.016570 -0.019090
-0.023232 -0.006091 -0.047213
0.064289 0.008353 -0.019090
-0.055074 -0.022606 -0.026898
0.013534 -0.024306 -0.046362
0.041073 -0.011139 -0.041389
-0.057558 0.015289 -0.026898
-0.031704 0.018016 -0.044220
-0.023683 -0.033237 -0.045776
-0.055074 -0.022606 -0.026898
0.025257 -0.058184 -0.024314
-0.000499 -0.062919 -0.015366
-0.054510 0.031183 -0.018548
0.049036 -0.055913 0.048125
0.035803 -0.057203 0.014910
-0.008546 -0.010488 -0.048415
-0.036902 0.052187 -0.024314
0.004560 -0.012213 -0.048415
-0.035531 -0.045655 -0.029357
-0.053665 -0.022022 -0.029357
-0.049978 0.037966 -0.018548
-0.042933 -0.061476 0.048125
-0.007784 0.000959 -0.048743
0.004560 0.012213 -0.048415
-0.055188 0.044095 0.034691
0.067702 -0.026855 0.035352
-0.021664 -0.057512 -0.029071
0.041073 -0.011139 -0.041389
-0.050451 -0.038326 -0.015366
0.062493 0.024940 0.014910
-0.071713 0.017553 0.035347
0.019996 -0.046298 -0.040415
-0.028626 -0.036656 -0.039692
0.013907 0.048539 -0.040415
-0.007108 0.011448 -0.048415
-0.063998 -0.004077 -0.024314
-0.062099 0.023359 -0.015875
0.025260 0.010429 -0.049485
-0.012457 -0.044629 -0.039692
-0.012312 -0.061927 -0.015366
-0.070893 0.012203 0.046203
0.006599 0.001902 -0.048743
-0.030932 0.030433 -0.041389
0.062259 -0.019353 0.000732
-0.060741 0.016142 -0.018548
-0.060741 -0.016142 -0.018548
-0.069078 0.026009 0.035347
-0.053004 -0.046516 0.010410
0.014623 -0.036509 -0.042948
-0.004753 0.067616 0.014910
-0.021851 -0.051549 -0.031675
-0.062332 -0.008140 -0.018548
-0.035488 -0.029787 -0.043271
-0.001458 0.007286 -0.048743
-0.064457 -0.015762 -0.015875
-0.016411 0.059385 -0.021509
-0.000499 0.000000 -0.051875
-0.009798 -0.016107 -0.047901
-0.007648 -0.007872 -0.051592
-0.004753 -0.067616 0.014910
-0.010717 -0.069504 0.034691
0.049338 0.028773 -0.029357
0.067663 -0.022000 0.008384
-0.006609 -0.063336 -0.024314
0.015905 0.037056 -0.045776
0.066524 -0.024163 0.013201
0.050257 0.028585 -0.033412
-0.002926 -0.018440 -0.047901
-0.039052 0.032821 -0.040415
-0.038259 0.054131 -0.015875
0.007549 0.010488 -0.048415
0.016693 -0.009682 -0.050786
-0.035488 0.029787 -0.043271
0.032256 0.042687 -0.033863
0.022603 -0.040013 -0.039692
0.060700 0.032685 0.027370
-0.019480 0.067639 0.034691
0.008766 0.005218 -0.051592
0.073987 0.024556 0.003646
-0.013268 0.003421 -0.048415
0.050495 -0.038058 -0.024314
-0.074653 -0.009004 0.048125
-0.034721 -0.006665 -0.047731
-0.013605 0.001725 -0.048415
-0.027776 0.005312 -0.049485
0.036927 0.048775 -0.021509
0.074874 -0.020558 0.001335
0.010750 -0.025411 -0.049485
-0.055777 0.040163 0.020125
0.053496 -0.021860 -0.033412
0.062103 0.022376 0.004440
-0.019182 -0.020572 -0.049485
-0.000499 -0.032224 -0.045361
-0.019980 0.059958 -0.015366
-0.032447 0.004206 -0.045361
0.012575 -0.044051 -0.043271
-0.021659 0.018014 -0.049485
0.063204 0.023009 0.012974
0.054820 0.007283 -0.031675
0.065897 -0.023550 0.013171
0.020853 0.051549 -0.031675
-0.074653 0.009004 0.048125
-0.013388 -0.071957 0.048125
-0.004972 0.005830 -0.048743
-0.061975 0.042434 0.048125
0.015268 -0.063960 -0.015875
-0.052790 -0.030191 -0.024287
-0.013353 -0.024638 -0.049485
0.058780 -0.015545 -0.029071
0.001541 -0.063597 -0.024314
0.066434 -0.024168 0.013411
0.030970 0.054500 -0.015366
-0.056084 -0.014894 -0.029357
-0.034465 -0.044266 -0.031675
-0.005657 0.039179 -0.042948
-0.014826 -0.018672 -0.047213
-0.067714 -0.008491 0.014910
0.031241 0.062673 0.034691
-0.010096 0.026080 -0.049485
0.034410 0.062504 0.051875
0.035872 0.035224 -0.040415
0.005901 -0.048615 -0.037870
-0.046307 0.006031 -0.039692
0.063110 -0.018283 0.001883
0.064530 0.022206 0.000792
0.072916 0.024793 0.004863
-0.002288 0.068431 0.020125
0.024307 0.056038 -0.029071
-0.005313 0.017965 -0.047901
0.060101 0.032504 0.020193
-0.005361 0.050398 -0.040415
0.008798 0.057506 -0.033412
0.037064 -0.015207 -0.045776
0.012607 -0.001725 -0.048415
-0.050308 0.046776 0.020125
0.039515 0.023102 -0.039692
0.033568 -0.042719 -0.037217
0.063993 -0.022964 0.017779
0.040651 0.051601 -0.015875
-0.002401 -0.007098 -0.048743
0.060665 -0.032733 0.027305
0.042188 0.017681 -0.039692
0.003618 -0.065435 0.000029
-0.010724 0.044799 -0.043271
0.070602 -0.021284 0.004719
0.068117 0.000000 0.000125
0.030667 -0.060949 0.020125
0.004697 -0.005196 -0.048743
-0.049274 -0.037426 -0.021509
-0.058846 0.030619 -0.015875
0.060723 0.032649 0.027394
0.033587 -0.064944 0.035347
0.060342 -0.032424 0.020365
-0.059963 0.028636 -0.015875
-0.019224 -0.006217 -0.050786
0.062656 -0.023780 0.012996
0.044548 0.055377 0.046203
0.014395 -0.055585 -0.029357
-0.066120 -0.016849 0.014910
-0.019263 -0.045302 -0.037870
-0.009505 -0.021744 -0.047213
-0.059963 -0.028636 -0.015875
0.004659 0.039179 -0.042948
0.054708 -0.046904 0.051875
-0.036486 -0.061724 0.046203
-0.046695 -0.054692 0.051875
-0.060363 -0.007881 -0.024287
0.016143 -0.016642 -0.047213
0.056555 0.007511 -0.029357
-0.002061 -0.070234 0.034691
-0.014532 -0.024306 -0.046362
-0.008209 -0.058566 -0.026898
0.050148 -0.020504 -0.037217
-0.000499 0.059072 -0.026898
-0.003571 -0.023334 -0.047213
-0.017985 -0.047516 -0.040415
0.023081 -0.053267 -0.033412
-0.031682 0.054011 -0.018548
-0.023918 0.044890 -0.040415
0.045156 -0.035032 -0.029357
-0.039677 -0.005158 -0.042948
-0.066120 -0.016849 0.014910
0.060670 0.036744 0.046203
-0.051618 -0.006730 -0.035927
0.023945 0.068895 0.048125
-0.008209 -0.058566 -0.026898
-0.027743 0.029999 -0.045776
0.011542 0.071434 0.051875
0.063343 -0.016741 -0.015875
0.003165 0.027827 -0.046362
0.026217 0.060351 -0.015875
0.037671 -0.010228 -0.042948
-0.024805 -0.014033 -0.046362
-0.050302 -0.013345 -0.035927
0.042974 -0.043473 -0.021509
-0.031887 0.040905 -0.035927
0.064852 0.024862 0.023053
0.063204 0.023009 0.012974
-0.049978 -0.037966 -0.018548
0.025066 -0.019616 -0.045361
0.060281 -0.007837 -0.029071
0.062564 -0.036975 0.048125
0.013675 -0.013726 -0.050786
-0.040940 -0.002596 -0.045776
0.065646 -0.024722 0.018149
-0.008546 0.010488 -0.048415
0.011803 0.015426 -0.050786
-0.045801 -0.018765 -0.037870
0.029351 -0.038902 -0.037870
-0.012784 0.064403 0.000029
-0.002335 0.070228 0.034691
-0.028231 0.001780 -0.049485
-0.019171 0.014327 -0.047213
-0.061975 0.042434 0.048125
0.005013 0.009093 -0.051592
0.012653 0.013152 -0.047901
0.056956 0.031586 0.000029
0.044803 0.018765 -0.037870
-0.006899 -0.048615 -0.037870
-0.006609 0.063336 -0.024314
-0.020115 0.025565 -0.045361
0.061473 0.023450 0.004583
0.003165 0.027827 -0.046362
-0.006329 -0.004473 -0.048743
0.011031 -0.038849 -0.045776
-0.065885 0.007938 -0.015875
-0.015788 -0.057059 -0.026898
-0.013650 -0.013152 -0.047901
0.008849 -0.009347 -0.048415
0.068098 0.025079 0.010321
0.065646 -0.024722 0.018149
-0.062677 0.035486 0.051875
0.060462 -0.024136 0.000029
-0.059883 -0.015912 -0.021509
0.068103 -0.021560 0.007572
0.063463 0.024392 0.020125
0.027444 0.027942 -0.042948
0.018100 0.000000 -0.047901
-0.000499 0.000000 -0.048875
0.029692 0.052292 -0.024287
-0.002061 -0.070234 0.034691
0.047822 -0.027898 -0.031675
0.060700 0.032685 0.027370
0.064549 -0.008217 0.000029
-0.000499 0.000000 -0.048875
-0.008546 -0.010488 -0.048415
0.062608 -0.008137 -0.024314
-0.000499 0.055796 -0.031675
0.071835 -0.020250 0.003487
-0.011787 -0.016182 -0.050786
-0.070607 -0.004480 0.034691
0.074301 -0.023597 0.003130
0.028151 -0.035926 -0.043271
-0.008441 0.065436 -0.015875
0.003936 -0.027434 -0.049485
0.074322 -0.023547 0.003074
-0.009625 -0.017493 -0.050786
0.064339 -0.021102 0.004346
-0.038669 -0.010228 -0.042948
0.070946 0.021362 0.004432
0.011035 0.070418 0.046203
0.025943 -0.059733 -0.019090
-0.053542 0.038538 0.000029
0.009729 0.038170 -0.042948
-0.020189 -0.001264 -0.050786
0.032100 -0.062112 0.010410
0.063585 -0.026000 0.023125
-0.060067 -0.037241 0.034691
0.064339 -0.021102 0.004346
-0.043169 -0.005618 -0.041389
0.051793 0.030191 -0.024287
-0.010936 -0.002033 -0.051592
-0.063137 0.020797 -0.015875
-0.021664 -0.057512 -0.029071
-0.020881 0.011768 -0.047213
0.047110 0.026813 -0.037217
-0.040276 -0.007747 -0.045776
-0.055744 0.030371 -0.015366
-0.005361 -0.050398 -0.040415
-0.042104 -0.035419 -0.037217
0.061738 -0.021496 0.001845
-0.043684 -0.052202 0.014910
0.039263 0.016470 -0.041389
-0.052982 -0.025275 -0.033412
0.062200 -0.022203 0.004649
-0.047862 -0.012691 -0.037870
-0.002865 0.010367 -0.051592
0.063006 0.016305 0.000029
0.018101 0.042018 -0.043271
-0.063230 -0.036229 0.051875
0.007526 -0.060953 -0.021509
0.054312 0.039822 0.014910
0.052354 0.013860 -0.037217
-0.029466 -0.041527 -0.040415
0.062493 0.024940 0.014910
0.064653 0.024497 0.022879
0.005969 -0.040005 -0.045776
-0.024026 -0.056800 -0.021509
0.052667 -0.022022 -0.029357
0.061613 0.032599 0.010410
-0.050302 0.013345 -0.035927
-0.027402 -0.046598 -0.033863
-0.046292 -0.029808 -0.037217
-0.018052 -0.071214 0.035347
0.072916 -0.024793 0.004863
-0.042933 -0.061476 0.048125
0.009282 -0.060497 -0.029071
-0.009411 0.005801 -0.051592
0.007212 -0.058566 -0.026898
-0.057954 -0.031586 0.000029
0.015129 -0.058324 -0.024287
0.036774 -0.021519 -0.041389
0.034646 -0.062371 0.051875
0.050148 -0.020504 -0.037217
0.026217 -0.060351 -0.015875
-0.034462 -0.022107 -0.045776
0.066086 -0.024359 0.014854
0.064347 -0.021072 0.004302
0.002527 -0.010194 -0.051592
-0.021435 0.064434 0.014910
0.031069 -0.039585 -0.040415
0.046099 0.026903 -0.033863
0.064160 -0.024523 0.003652
0.013907 0.023764 -0.049485
0.023368 -0.057619 -0.018548
0.071996 0.020250 0.003354
0.062373 0.020746 0.002447
-0.000499 0.070147 0.010410
0.062229 0.022630 0.005743
-0.036560 -0.061846 0.051875
-0.062099 0.023359 -0.015875
-0.010986 0.008047 -0.048415
-0.028626 0.036656 -0.039692
-0.025016 -0.042465 -0.037870
0.074877 0.020250 0.001322
-0.000499 0.039517 -0.042948
0.049338 0.028773 -0.029357
-0.035303 -0.009326 -0.044220
-0.017985 -0.047516 -0.040415
0.042171 0.005618 -0.041389
-0.053742 0.030740 -0.021509
0.063089 -0.016327 0.000584
0.073822 0.023995 0.003923
-0.000499 -0.043038 -0.041389
0.071884 -0.020163 0.003447
-0.008546 0.010488 -0.048415
-0.007313 0.018517 -0.050786
0.056419 0.032056 -0.019090
-0.043684 -0.052202 0.014910
-0.026064 -0.019616 -0.045361
-0.016127 -0.058324 -0.024287
0.046649 -0.053742 0.046203
-0.073310 -0.008841 0.035347
0.064253 -0.024793 0.004863
-0.029930 0.056414 -0.024314
0.064763 -0.011013 0.001883
0.070977 -0.021031 0.004329
-0.061119 -0.037899 0.046203
0.033226 0.008844 -0.047731
-0.005417 -0.009428 -0.051592
-0.002865 0.010367 -0.051592
0.058067 -0.007710 -0.026898
0.014923 0.068538 0.034691
0.007956 -0.069635 0.010410
-0.011638 0.041572 -0.041389
-0.004911 0.045738 -0.043271
-0.012830 -0.029771 -0.045361
-0.062955 0.012163 -0.024314
0.064606 0.026250 0.023125
0.065106 -0.022000 0.012816
0.039539 0.022549 -0.043271
0.046185 -0.034841 -0.033412
-0.036794 0.061709 0.051875
-0.000499 -0.060381 -0.024287
-0.007784 -0.000959 -0.048743
0.015190 -0.068477 0.034691
-0.016625 -0.030911 -0.047731
0.020437 0.064434 0.014910
0.061680 0.021618 0.001747
0.064549 -0.008217 0.000029
-0.000499 0.061479 -0.021509
0.012607 0.001725 -0.048415
0.064606 0.026250 0.023125
-0.001520 0.010584 -0.051592
-0.015185 -0.064345 -0.015875
-0.053665 0.022022 -0.029357
-0.036957 -0.036458 -0.035927
0.010750 -0.025411 -0.049485
-0.046116 -0.021968 -0.040415
0.013290 -0.033290 -0.044220
0.015314 -0.011801 -0.050786
-0.059868 0.032639 0.014910
0.001252 -0.054612 -0.037217
-0.068640 0.021630 0.046203
-0.007288 -0.002812 -0.048743
0.009421 0.033424 -0.047731
-0.002061 -0.070234 0.034691
-0.022018 -0.037272 -0.041389
0.054312 0.039822 0.014910
-0.036902 -0.052187 -0.024314
0.064309 0.021144 0.004048
-0.057298 0.023527 -0.021509
0.004697 0.005196 -0.048743
-0.024366 0.057619 -0.018548
0.066116 0.024305 0.014586
-0.035171 0.034672 -0.037870
0.023715 0.013637 -0.049485
0.033587 -0.064944 0.035347
-0.004162 0.027827 -0.046362
-0.013302 0.067132 0.020125
0.065198 -0.019800 0.000125
0.065777 0.025863 0.017591
-0.050240 0.042345 -0.019090
0.033281 0.053229 -0.015366
-0.037925 0.048775 -0.021509
0.074344 0.023533 0.003038
-0.026064 -0.019616 -0.045361
0.059464 0.032963 0.020125
0.002313 -0.006789 -0.048743
0.065106 -0.022000 0.012816
0.015195 0.069749 0.046203
-0.036801 0.057203 0.014910
0.067578 -0.021599 0.008323
0.005119 0.042670 -0.041389
-0.000499 -0.043038 -0.041389
-0.033826 -0.047777 -0.033412
0.064695 -0.024441 0.022631
-0.039400 0.029850 -0.037870
-0.009411 -0.005801 -0.051592
-0.027609 0.007264 -0.046362
0.067663 0.022000 0.008384
0.032256 -0.042687 -0.033863
0.043601 -0.044100 -0.018548
-0.050209 0.020591 -0.033863
0.036131 -0.057714 0.020125
0.068103 -0.021560 0.007572
0.069450 0.024999 0.008790
-0.022243 -0.009007 -0.047213
0.033715 0.056439 -0.015875
-0.036486 -0.061724 0.046203
0.028088 -0.021935 -0.044220
0.046865 -0.012691 -0.037870
0.061682 -0.023402 0.005779
-0.007782 0.055318 -0.031675
0.055414 -0.049534 0.048125
0.022235 0.006091 -0.047213
-0.010986 -0.008047 -0.048415
0.058573 0.000000 -0.026898
-0.036957 -0.036458 -0.035927
-0.017035 0.010764 -0.050786
-0.052790 -0.030191 -0.024287
0.064825 0.000000 -0.019090
0.025066 -0.019616 -0.045361
-0.035845 -0.062143 0.046203
-0.047119 -0.055447 0.051875
-0.036902 0.052187 -0.024314
-0.043684 0.052202 0.014910
-0.013194 0.066550 0.014910
0.042686 -0.052202 0.014910
0.064264 0.021283 0.004237
-0.073310 0.008841 0.035347
0.006131 -0.008313 -0.051592
0.006835 -0.045362 -0.043271
-0.009625 0.017493 -0.050786
-0.006609 -0.063336 -0.024314
-0.019182 0.020572 -0.049485
-0.020115 0.025565 -0.045361
-0.022434 0.028586 -0.044220
0.064825 -0.021999 0.013529
-0.057553 -0.007511 -0.029357
-0.068823 0.000000 0.020125
-0.034465 0.044266 -0.031675
-0.049319 -0.031779 -0.033412
0.054141 0.000000 -0.037217
0.041966 -0.024517 -0.037870
0.028348 0.061302 0.014910
0.045310 -0.006031 -0.039692
0.065080 -0.024737 0.022786
0.053512 -0.031183 -0.018548
0.064695 -0.024441 0.022631
0.038403 0.029850 -0.037870
-0.028325 -0.003663 -0.046362
-0.052059 0.000000 -0.035927
0.024018 -0.042465 -0.037870
0.064281 -0.024173 0.022859
-0.006609 -0.063336 -0.024314
-0.016276 0.064022 -0.015875
0.004315 0.017965 -0.047901
-0.058660 -0.019311 -0.029071
0.023095 0.067592 0.051875
0.030241 0.053243 -0.021509
-0.000499 0.000000 -0.048875
-0.062955 -0.012163 -0.024314
-0.043277 0.047104 -0.024314
0.030241 -0.053243 -0.021509
-0.020617 -0.054668 -0.033412
0.030970 -0.054500 -0.015366
-0.053845 -0.007023 -0.033863
-0.030270 0.012331 -0.045361
-0.047015 -0.052505 0.010410
0.074874 -0.020558 0.001335
0.010242 0.025930 -0.046362
0.041271 -0.041770 -0.026898
0.064253 0.024793 0.004863
-0.065443 0.034085 0.035347
-0.060373 0.032918 0.020125
-0.056295 0.000000 -0.031675
0.057355 -0.039852 0.034691
0.044130 -0.011958 -0.039692
0.058481 -0.023878 -0.024314
-0.000499 0.046204 -0.039692
0.019996 0.046298 -0.040415
-0.035292 -0.002234 -0.047731
0.065279 0.028260 0.051875
0.063955 0.023550 0.020122
-0.004705 0.031948 -0.045361
0.018983 0.059958 -0.015366
-0.020881 0.011768 -0.047213
0.039515 0.023102 -0.039692
0.063110 -0.018283 0.001883
-0.012312 -0.061927 -0.015366
-0.013605 0.001725 -0.048415
0.064126 0.024625 0.023125
-0.002224 0.013106 -0.048415
-0.063803 -0.036560 0.048125
-0.039400 -0.029850 -0.037870
0.065106 0.026216 0.022636
0.066434 -0.024168 0.013411
-0.047015 0.052505 0.010410
0.067061 0.026682 0.029301
0.011651 0.072086 0.048125
0.025281 -0.044652 -0.035927
-0.042071 -0.011139 -0.041389
0.016288 0.068108 0.010410
-0.005657 0.039179 -0.042948
-0.030349 0.038902 -0.037870
-0.035531 0.045655 -0.029357
0.063148 -0.025200 0.020125
-0.043684 -0.052202 0.014910
-0.015788 -0.057059 -0.026898
-0.011110 0.000681 -0.051592
-0.031239 0.053243 -0.021509
-0.011765 -0.049362 -0.040415
0.064394 0.024841 0.023125
-0.045013 0.044510 -0.015366
-0.002335 0.070228 0.034691
-0.055026 -0.003501 -0.037217
-0.001004 0.072440 0.051875
0.044153 0.025780 -0.035927
-0.053621 -0.043174 0.020125
0.064382 -0.026809 0.034697
-0.066087 -0.024874 0.010410
0.025748 -0.043297 -0.040415
0.063089 0.016327 0.000584
0.027444 -0.027942 -0.042948
-0.039662 -0.043123 -0.033412
-0.023606 0.055785 -0.024287
0.047136 0.019731 -0.035927
-0.051656 0.029536 -0.026898
0.062545 0.000000 -0.015366
0.074813 0.021580 0.001562
-0.042164 0.060362 0.035347
0.063089 -0.016327 0.000584
-0.055501 0.045588 0.046203
-0.061358 -0.016305 -0.015366
-0.039952 -0.039454 -0.031675
-0.068831 0.004099 0.020125
0.032172 -0.032671 -0.039692
0.012720 0.000000 -0.048415
0.001198 -0.010497 -0.051592
0.046427 -0.045445 -0.019090
0.023808 0.014033 -0.046362
-0.039010 0.025068 -0.043271
0.065039 0.026233 0.022876
0.001541 -0.063597 -0.024314
0.064077 0.011147 0.000584
-0.049114 -0.006400 -0.037870
-0.060363 -0.007881 -0.024287
-0.028397 -0.048321 -0.031675
0.004204 -0.035724 -0.044220
0.025281 0.044652 -0.035927
0.021772 -0.016621 -0.049485
0.062404 -0.028237 0.020360
0.049717 -0.006475 -0.040415
0.064260 0.021318 0.004304
0.034215 -0.066143 0.048125
-0.035292 -0.002234 -0.047731
0.015905 0.037056 -0.045776
0.022107 0.054575 -0.026898
0.006765 0.027110 -0.046362
-0.056412 -0.049534 0.048125
-0.065885 0.007938 -0.015875
0.066652 -0.003661 0.002796
0.066524 0.025230 0.013201
0.009989 -0.008047 -0.048415
-0.002288 0.068431 0.020125
0.042094 0.017244 -0.043271
-0.040347 0.057729 0.010410
0.006619 -0.017183 -0.047901
0.027417 0.059325 0.000029
-0.000499 0.028067 -0.046362
-0.016398 0.022792 -0.049485
0.064131 0.024467 0.003332
0.040078 -0.030283 -0.040415
0.075014 -0.022174 0.000812
-0.048819 0.027898 -0.031675
-0.000499 0.000000 -0.048875
0.025510 0.068579 0.035347
0.006231 -0.051119 -0.035927
0.035534 0.000000 -0.044220
0.018088 -0.062624 -0.019090
-0.042933 0.027621 -0.040415
-0.071854 -0.000135 0.046203
0.049338 -0.028773 -0.029357
0.003707 -0.031948 -0.045361
0.019070 0.002523 -0.050786
-0.056012 -0.046541 0.051875
-0.011765 0.049362 -0.040415
-0.000499 0.000000 -0.051875
-0.050191 0.051399 0.046203
0.029699 0.049814 -0.033412
0.046185 0.034841 -0.033412
0.020625 -0.065003 0.020125
0.034632 -0.055358 0.000029
0.018088 0.062624 -0.019090
0.012312 0.067141 0.020125
0.042540 0.000000 -0.041389
-0.044765 -0.033966 -0.031675
0.007445 -0.065404 -0.015875
0.002923 0.012769 -0.048415
0.020437 0.064434 0.014910
-0.028415 -0.059325 0.000029
-0.025016 -0.042465 -0.037870
-0.000499 -0.057546 -0.029357
0.062689 -0.016570 -0.019090
-0.005202 -0.035724 -0.044220
0.058871 0.032639 0.014910
0.030889 0.040905 -0.035927
0.015643 -0.060242 -0.018548
0.074189 -0.024473 0.003347
-0.056284 -0.023107 -0.024287
0.064289 -0.008353 -0.019090
0.027399 0.048321 -0.031675
-0.006836 0.065695 -0.015875
0.073900 0.024625 0.003814
0.065092 -0.019533 0.003193
0.075198 0.019800 0.000125
0.064160 -0.024523 0.003652
0.069962 0.021701 0.005494
0.069327 0.024163 0.008682
0.053585 0.046906 0.051875
0.018101 -0.042018 -0.043271
-0.054131 0.010445 -0.037217
0.057121 -0.023867 -0.018548
0.064253 -0.024793 0.004863
0.000619 -0.034847 -0.047731
-0.054393 0.014441 -0.031675
-0.034644 -0.026200 -0.041389
-0.050335 0.028773 -0.029357
-0.000499 -0.036032 -0.044220
0.019464 -0.019333 -0.049485
-0.042502 -0.056311 0.034691
0.055723 0.039052 0.020125
-0.047544 -0.055953 0.048125
0.059749 -0.032500 0.020125
0.001595 -0.065291 -0.019090
0.024767 0.031683 -0.045776
0.035462 0.046865 -0.026898
-0.036794 0.061709 0.051875
-0.023232 0.006091 -0.047213
-0.034539 0.037481 -0.040415
-0.012267 -0.020382 -0.047213
0.061682 -0.023402 0.005779
0.063040 0.018524 0.001883
-0.070134 0.008455 0.010410
0.065340 0.027864 0.046203
0.066123 -0.016421 0.000125
-0.000499 -0.070147 0.010410
-0.047324 0.055274 0.051875
-0.050197 -0.009679 -0.040415
-0.000158 -0.010628 -0.051592
0.074556 0.024035 0.002479
0.010824 -0.014756 -0.047901
0.038680 -0.005158 -0.042948
0.008801 -0.016107 -0.047901
-0.070134 -0.008455 0.010410
-0.055399 -0.048637 0.035347
0.062047 0.007901 -0.015366
-0.030714 -0.057916 -0.019090
-0.000499 -0.057546 -0.029357
0.049717 0.006475 -0.040415
0.052847 -0.007023 -0.033863
0.041966 0.024517 -0.037870
-0.022018 -0.037272 -0.041389
-0.035531 -0.045655 -0.029357
-0.074653 -0.009004 0.048125
-0.021659 0.018014 -0.049485
0.070602 -0.021284 0.004719
-0.037981 0.054300 -0.015875
0.067160 -0.011417 0.003125
0.065897 -0.023550 0.013171
0.023308 -0.067372 0.046203
-0.042964 -0.024517 -0.037870
0.065106 -0.022000 0.012816
0.062608 -0.008137 -0.024314
0.019232 -0.047635 -0.035927
-0.049114 -0.006400 -0.037870
-0.065689 -0.004185 -0.019090
0.062200 -0.022203 0.004649
-0.013190 0.047364 -0.037870
-0.009505 -0.021744 -0.047213
-0.064208 -0.029605 0.034691
0.003707 -0.031948 -0.045361
0.027628 -0.036656 -0.039692
0.035408 -0.062916 0.051875
0.020627 0.065010 0.020125
0.043601 -0.044100 -0.018548
0.064231 0.021538 0.004727
0.037710 0.047913 -0.029071
-0.060363 -0.007881 -0.024287
-0.060887 -0.020050 -0.024314
-0.022434 -0.028586 -0.044220
0.046017 0.052505 0.010410
-0.009411 -0.005801 -0.051592
0.037548 0.038047 -0.033863
-0.031624 -0.008340 -0.045361
-0.023939 -0.025810 -0.047731
0.049346 0.046804 0.020125
0.021618 0.049963 -0.037217
-0.004911 -0.045738 -0.043271
-0.027430 -0.064884 0.034691
0.016828 -0.021727 -0.049485
0.064549 -0.008217 0.000029
-0.026788 -0.037687 -0.043271
0.052847 0.007023 -0.033863
0.017575 -0.029815 -0.047731
-0.066363 0.004229 -0.015875
0.010949 0.006610 -0.048415
0.026611 -0.007264 -0.046362
-0.055246 0.035637 -0.019090
-0.023105 -0.054575 -0.026898
0.033646 -0.026200 -0.041389
-0.007616 0.017183 -0.047901
-0.000499 0.000000 -0.051875
0.036927 0.048775 -0.021509
-0.042502 -0.056311 0.034691
0.036774 0.021519 -0.041389
-0.054131 0.010445 -0.037217
-0.027047 0.022601 -0.047731
-0.069078 -0.026009 0.035347
-0.021753 -0.040740 -0.043271
0.063952 -0.023549 0.020142
-0.008954 -0.069635 0.010410
-0.048819 -0.027898 -0.031675
0.064332 -0.021331 0.004850
-0.001028 -0.071433 0.046203
0.074189 -0.024473 0.003347
0.048138 -0.054900 0.035347
-0.046695 -0.054692 0.051875
0.055848 -0.014776 -0.033412
-0.015788 -0.057059 -0.026898
0.064203 0.023681 0.001973
0.023945 -0.067184 0.046203
-0.008712 -0.062381 -0.015366
-0.055813 -0.036005 -0.015875
0.005969 -0.040005 -0.045776
-0.000499 0.032224 -0.045361
-0.015393 0.055585 -0.029357
-0.055399 0.048637 0.035347
0.034174 0.034672 -0.037870
0.052898 -0.030073 -0.029071
-0.008257 0.033991 -0.047731
0.010750 0.025411 -0.049485
0.030970 0.054500 -0.015366
-0.036459 0.046865 -0.026898
0.030889 0.040905 -0.035927
0.003755 0.067616 0.014910
0.004315 -0.017965 -0.047901
0.001403 0.007098 -0.048743
0.064770 -0.021279 0.000349
-0.035469 0.060929 0.034691
-0.044416 0.048358 -0.019090
0.019996 0.046298 -0.040415
0.062464 0.028287 0.020599
-0.068607 -0.016787 0.010410
0.027826 -0.046725 -0.037217
-0.007763 -0.027110 -0.046362
-0.030035 0.051158 -0.026898
0.064695 -0.024441 0.022631
0.021020 0.037272 -0.041389
-0.016411 -0.059385 -0.021509
0.000800 -0.040503 -0.045776
0.064126 0.024625 0.023125
0.029934 -0.030433 -0.041389
-0.062495 -0.020584 -0.019090
0.063089 -0.016327 0.000584
0.064158 -0.023808 0.020295
-0.029466 0.041527 -0.040415
0.003165 -0.027827 -0.046362
0.048276 0.037426 -0.021509
-0.005558 -0.012213 -0.048415
-0.048293 -0.044882 0.000029
-0.020257 0.034222 -0.042948
0.008798 0.057506 -0.033412
-0.055026 0.003501 -0.037217
-0.044416 0.048358 -0.019090
0.065106 -0.024722 0.022636
-0.058660 0.019311 -0.029071
-0.027743 0.029999 -0.045776
0.007488 0.018042 -0.050786
0.027408 0.016112 -0.045361
-0.051026 -0.003244 -0.040415
0.008508 -0.021744 -0.047213
-0.042964 -0.024517 -0.037870
-0.061119 -0.037899 0.046203
0.010949 0.006610 -0.048415
-0.031392 0.034016 -0.043271
0.064365 0.021701 0.005494
-0.052472 0.013926 -0.033863
-0.033826 0.047777 -0.033412
0.036774 -0.021519 -0.041389
0.057854 0.030630 -0.015875
-0.051859 -0.033432 -0.029071
0.065644 0.034714 0.048125
-0.013194 -0.066550 0.014910
0.015048 -0.052381 -0.037217
0.014257 -0.011322 -0.047901
-0.063491 -0.024940 0.014910
-0.045128 -0.011958 -0.039692
0.002573 0.023334 -0.047213
0.052898 -0.030073 -0.029071
0.049454 0.038326 -0.015366
0.031069 0.039585 -0.040415
0.037548 -0.038047 -0.033863
-0.003920 -0.012769 -0.048415
0.043949 -0.011656 -0.043271
-0.013302 -0.067126 0.020125
-0.034279 0.053229 -0.015366
0.019259 -0.034222 -0.042948
-0.044871 0.048858 -0.015875
-0.044052 -0.052649 0.020125
0.049454 0.038326 -0.015366
-0.067714 0.008491 0.014910
0.064653 0.024497 0.022879
0.073822 0.023995 0.003923
0.067116 0.011674 0.003125
0.064281 -0.024173 0.022859
-0.025978 -0.025479 -0.044220
0.034810 -0.019886 -0.045776
0.046427 0.045445 -0.019090
-0.023939 -0.025810 -0.047731
-0.031887 0.040905 -0.035927
0.029880 0.017109 -0.047731
0.065897 0.023550 0.013171
0.019883 0.011768 -0.047213
0.013829 -0.018672 -0.047213
0.062528 0.018375 0.000584
-0.059115 -0.023208 -0.015366
-0.048134 0.019731 -0.035927
-0.047162 0.039725 -0.029071
-0.055777 0.040163 0.020125
0.061613 0.032599 0.010410
0.065080 0.024737 0.022786
-0.007288 0.002812 -0.048743
-0.035213 -0.066143 0.048125
-0.046355 0.002944 -0.043271
-0.031887 -0.040905 -0.035927
0.057753 0.000000 -0.033412
-0.050240 0.042345 -0.019090
-0.067458 0.021255 0.034691
-0.037010 -0.017583 -0.045776
-0.068607 0.016787 0.010410
-0.044871 -0.048858 -0.015875
0.056956 0.031586 0.000029
0.015643 0.060242 -0.018548
-0.054743 -0.037438 -0.015875
-0.047015 -0.052505 0.010410
0.012607 -0.001725 -0.048415
0.011833 -0.029771 -0.045361
-0.001026 -0.071589 0.051875
0.011035 0.070418 0.046203
0.019464 -0.019333 -0.049485
0.012192 -0.047364 -0.037870
0.053725 0.037432 -0.015875
0.010242 0.025930 -0.046362
0.046185 0.034841 -0.033412
0.012846 -0.049803 -0.035927
-0.064208 -0.029605 0.034691
0.065152 0.000000 0.000584
0.034306 -0.009326 -0.044220
-0.021435 0.064434 0.014910
0.056419 0.032056 -0.019090
0.062121 0.022496 0.004816
-0.035630 0.055358 0.000029
-0.013377 -0.070424 0.051875
0.068098 0.025079 0.010321
0.028274 0.049837 -0.029357
-0.013605 -0.001725 -0.048415
-0.075198 0.000000 0.048125
0.064160 -0.024523 0.003652
0.021245 0.009007 -0.047213
-0.069267 0.024797 0.048125
-0.035488 0.029787 -0.043271
-0.011947 -0.006610 -0.048415
0.006784 -0.055318 -0.031675
-0.019171 0.014327 -0.047213
-0.057553 0.007511 -0.029357
0.064829 0.021066 0.000288
-0.065885 -0.007938 -0.015875
0.064344 -0.023550 0.017861
-0.017682 -0.007118 -0.047901
-0.034462 -0.022107 -0.045776
-0.072521 0.012520 0.048125
0.065447 -0.018954 0.003125
0.015971 -0.039762 -0.041389
0.007012 0.057054 -0.029357
0.034533 0.045655 -0.029357
-0.005417 0.009428 -0.051592
0.021618 -0.049963 -0.037217
0.001252 0.054612 -0.037217
-0.006530 -0.045808 -0.039692
-0.005313 -0.017965 -0.047901
-0.010726 -0.038170 -0.042948
-0.018375 -0.072528 0.048125
-0.010726 -0.038170 -0.042948
-0.019369 0.051278 -0.037217
0.055848 0.014776 -0.033412
0.035501 0.063624 0.048125
-0.057558 0.015289 -0.026898
0.057231 -0.039848 0.010410
-0.042269 -0.041770 -0.026898
0.025257 0.058184 -0.024314
-0.000499 0.000000 -0.051875
-0.004171 0.009979 -0.051592
-0.044765 0.033966 -0.031675
-0.009625 -0.017493 -0.050786
0.050659 -0.029536 -0.026898
0.062033 0.020159 0.000908
-0.029272 -0.049837 -0.029357
-0.067668 0.024144 0.046203
-0.013302 0.067132 0.020125
0.060678 0.024768 -0.015875
0.065092 -0.019533 0.003193
0.031978 -0.024238 -0.045776
0.040230 0.051072 -0.019090
-0.033170 0.032671 -0.039692
0.046649 -0.053742 0.046203
-0.003571 -0.023334 -0.047213
0.064481 0.020744 0.003655
0.025510 0.068579 0.035347
0.029037 -0.051158 -0.026898
0.054943 -0.031224 -0.024314
0.019464 -0.019333 -0.049485
0.045156 0.035032 -0.029357
0.064549 -0.008217 0.000029
0.075014 -0.022174 0.000812
0.011459 0.044629 -0.039692
0.055848 -0.014776 -0.033412
-0.008523 0.060953 -0.021509
0.065356 -0.021798 0.012123
-0.006836 -0.065695 -0.015875
-0.039010 0.025068 -0.043271
0.006784 -0.055318 -0.031675
0.006346 0.069917 0.034691
0.064244 0.023934 0.020599
-0.052982 -0.025275 -0.033412
0.045310 0.006031 -0.039692
0.064394 0.024841 0.023125
-0.046153 -0.035032 -0.029357
0.013290 -0.033290 -0.044220
-0.043186 -0.032755 -0.033863
0.064912 0.003814 0.000584
-0.051656 0.029536 -0.026898
0.051050 -0.021352 -0.031675
-0.007763 0.027110 -0.046362
0.039657 -0.059150 0.046203
0.064166 -0.024688 0.004073
0.053585 0.046906 0.051875
0.026611 -0.007264 -0.046362
0.015314 -0.011801 -0.050786
0.027826 0.046725 -0.037217
0.059749 0.032500 0.020125
-0.000739 -0.073102 0.048125
-0.043195 0.042696 -0.024287
-0.063230 -0.036229 0.051875
0.038700 0.010279 -0.045776
0.023683 0.067278 0.046203
0.063694 -0.019606 0.002898
0.061613 -0.032599 0.010410
-0.063937 0.036326 0.048125
-0.042933 0.061476 0.048125
0.062493 -0.024940 0.014910
0.044548 0.055377 0.046203
-0.005202 -0.035724 -0.044220
-0.000499 0.000000 -0.048875
0.060784 0.000000 -0.029071
-0.023918 -0.044890 -0.040415
0.043767 -0.033966 -0.031675
0.038680 0.005158 -0.042948
0.047405 -0.036758 -0.024287
-0.016969 0.039762 -0.041389
0.028274 -0.049837 -0.029357
-0.008954 0.069635 0.010410
-0.001458 -0.007286 -0.048743
0.054708 -0.046904 0.051875
-0.055443 -0.045896 0.051875
-0.067458 0.021255 0.034691
0.007841 -0.031126 -0.045361
-0.045602 0.008784 -0.043271
-0.070607 -0.004480 0.034691
0.008342 0.072811 0.035347
0.042197 0.042696 -0.024287
0.029351 0.038902 -0.037870
0.064126 0.024625 0.023125
0.061480 0.022756 0.003021
0.027063 -0.003554 -0.049485
-0.060067 -0.037241 0.034691
0.032256 0.042687 -0.033863
0.045310 0.006031 -0.039692
0.007642 0.061833 -0.018548
-0.017141 0.016642 -0.047213
0.064720 0.011260 0.001883
0.001929 -0.018440 -0.047901
-0.035171 0.034672 -0.037870
0.064987 0.025084 0.010413
0.065777 0.025863 0.017591
0.008766 -0.005218 -0.051592
-0.058631 -0.003732 -0.033412
0.025066 0.019616 -0.045361
0.064606 -0.026000 0.023125
-0.021664 0.057512 -0.029071
0.054401 -0.048637 0.035347
-0.000499 0.000000 -0.051875
0.009787 -0.002697 -0.051592
0.049717 0.006475 -0.040415
0.033724 -0.019758 -0.042948
-0.070992 -0.012493 0.051875
-0.006383 -0.061000 -0.029071
0.037468 0.049479 -0.018548
-0.007229 -0.051119 -0.035927
0.043767 0.033966 -0.031675
-0.032447 -0.004206 -0.045361
0.013427 -0.051973 -0.033863
-0.004705 -0.031948 -0.045361
0.014623 0.036509 -0.042948
0.019762 0.062356 0.000029
0.063694 -0.019606 0.002898
0.068349 -0.027316 0.041946
0.006599 -0.001902 -0.048743
-0.022018 0.037272 -0.041389
0.050257 -0.028585 -0.033412
0.009729 0.016872 -0.050786
0.034306 0.009326 -0.044220
0.064927 -0.003565 0.000584
-0.062541 -0.035722 0.051875
0.056560 -0.015289 -0.026898
-0.059883 -0.015912 -0.021509
-0.012312 0.061927 -0.015366
0.051812 0.046892 0.034691
0.048477 0.012843 -0.040415
-0.061119 -0.037899 0.046203
0.019464 0.019333 -0.049485
0.025990 0.069845 0.048125
0.000392 0.027775 -0.049485
-0.034644 -0.026200 -0.041389
-0.052047 -0.021352 -0.031675
0.003618 -0.065435 0.000029
0.060723 -0.032649 0.027394
0.071062 -0.022000 0.004559
-0.027341 -0.057043 -0.015366
0.064653 0.024497 0.022879
-0.005361 -0.050398 -0.040415
0.064611 0.024991 0.023125
0.002650 -0.019478 -0.050786
0.015190 -0.068477 0.034691
-0.050197 0.009679 -0.040415
-0.021851 0.051549 -0.031675
-0.044236 0.049365 -0.015875
0.064657 0.020410 0.003451
-0.000499 -0.028067 -0.046362
0.058481 0.023878 -0.024314
-0.023232 -0.006091 -0.047213
-0.037110 -0.057694 0.020125
0.004315 -0.017965 -0.047901
-0.005313 0.017965 -0.047901
-0.023833 0.003072 -0.047213
-0.053742 -0.030740 -0.021509
-0.046307 -0.006031 -0.039692
-0.031682 -0.054011 -0.018548
0.037548 -0.038047 -0.033863
0.064276 -0.024188 0.022877
-0.000499 0.051560 -0.035927
-0.036223 -0.004703 -0.044220
-0.004889 -0.019236 -0.050786
0.052744 -0.030740 -0.021509
-0.040261 -0.016470 -0.041389
0.054401 -0.048637 0.035347
0.049717 -0.006475 -0.040415
0.056419 0.032056 -0.019090
-0.046307 0.006031 -0.039692
0.002923 -0.012769 -0.048415
0.013942 -0.053895 -0.031675
0.064634 -0.008228 0.000584
0.043617 -0.024846 -0.040415
-0.003167 -0.027661 -0.049485
-0.023918 0.044890 -0.040415
-0.011765 -0.049362 -0.040415
0.065882 0.024722 0.017183
0.023095 0.067592 0.051875
-0.064026 0.025153 0.020125
-0.043467 0.057139 0.046203
0.040193 -0.040691 -0.029357
-0.026508 -0.068579 0.035347
0.074603 -0.022897 0.002339
0.007956 -0.069635 0.010410
0.063529 -0.015784 -0.015875
-0.008380 -0.059865 -0.024287
-0.016276 0.064022 -0.015875
0.045458 -0.043156 -0.015366
0.064171 0.024503 0.023110
0.008766 0.005218 -0.051592
-0.027743 0.029999 -0.045776
-0.041641 0.054711 0.020125
-0.050302 -0.013345 -0.035927
