-0.025262 -0.033529 0.112992
-0.002204 -0.074517 0.026904
-0.104878 -0.018000 -0.021574
-0.067985 0.069253 -0.084154
0.012699 0.032333 0.034340
-0.094383 -0.005059 0.130512
-0.022345 -0.065666 0.106536
0.106626 -0.031135 0.074044
0.053674 -0.000059 -0.079900
-0.067493 0.072968 0.094608
-0.109953 0.023401 0.095128
0.015776 -0.034257 0.005976
-0.092558 0.058684 0.088009
-0.039132 -0.048186 0.129741
-0.108284 -0.011837 0.079916
-0.030088 0.034888 0.113851
-0.044035 0.064524 0.124509
0.012037 0.067521 0.027454
0.003961 -0.068934 -0.150453
-0.004768 0.035441 0.116544
-0.077659 -0.067659 -0.050887
-0.007119 0.031941 0.117561
-0.110723 -0.012028 0.108215
0.106458 0.031021 0.073350
-0.088067 0.063783 0.098423
-0.050543 0.071964 -0.117437
0.101537 -0.035559 0.118395
0.012462 0.049903 0.031756
-0.107423 -0.000059 0.108076
-0.110008 0.027062 0.081863
-0.027982 0.069930 0.109755
-0.066462 0.073695 0.099846
-0.103886 -0.010606 0.083455
-0.061420 -0.059739 0.130616
-0.006480 0.066618 0.047911
-0.038524 0.034406 0.132511
-0.013876 0.069556 -0.156702
-0.059239 0.054754 0.130753
0.093523 0.031315 0.051933
-0.059751 -0.066838 0.124168
0.011882 -0.032453 0.034936
0.010230 0.067644 0.032475
0.053647 -0.000059 -0.079767
0.008066 -0.029559 0.016788
-0.038367 0.067274 -0.156702
-0.104297 -0.000059 -0.052718
-0.095188 0.054457 0.086749
-0.059301 0.071545 -0.117798
0.044671 0.035678 -0.061992
0.028343 -0.060384 -0.024796
-0.007119 -0.032059 0.117561
-0.079670 -0.035435 -0.156702
-0.071822 -0.072688 0.095844
0.101502 0.030188 0.059344
-0.062080 0.069697 0.082136
0.000629 -0.072475 -0.014408
0.108520 -0.030139 0.074171
-0.108776 0.029010 0.095547
0.086357 0.031460 0.045337
-0.082647 -0.005682 0.134848
-0.111355 -0.012623 0.079166
-0.075559 -0.062904 0.092912
-0.075431 0.041362 -0.156702
0.052335 0.014658 -0.087808
-0.033439 -0.074870 0.073533
0.070939 0.031369 0.150134
-0.100116 -0.048645 0.084519
-0.030208 -0.032059 0.117266
-0.059182 -0.069202 0.119734
-0.012969 -0.076237 0.035496
-0.082659 0.058473 0.123853
0.008885 0.070086 0.019309
-0.101467 0.043362 0.114268
-0.107423 -0.000059 0.108076
-0.093895 0.028738 0.130683
-0.072275 0.064383 0.123639
-0.110442 -0.005224 0.099347
-0.075395 -0.071412 0.094522
0.039671 0.044131 -0.051626
-0.097829 0.050770 0.085524
0.091530 0.031062 0.136820
-0.105861 -0.018078 0.009921
-0.059935 -0.039958 0.126850
-0.060507 0.068628 0.122426
0.055728 0.007102 -0.150453
0.025866 0.058071 -0.147953
0.042205 -0.040166 -0.056862
0.095419 0.031009 0.132725
-0.068079 -0.070037 -0.101184
-0.005966 0.069179 -0.147953
-0.020202 -0.076397 -0.108749
-0.013657 0.076344 -0.061703
0.023976 -0.062846 -0.013173
-0.036769 0.033436 0.132245
-0.102394 -0.046082 0.083810
-0.020196 0.074149 -0.147952
-0.092611 -0.010033 0.133341
-0.033486 -0.072268 0.111484
0.010713 -0.033529 0.022110
-0.108860 0.018988 0.078887
-0.112148 0.008817 0.082740
-0.030504 0.034886 0.113982
0.053762 0.018559 -0.075595
0.053670 -0.000059 -0.079847
-0.020196 0.079154 -0.061129
-0.038486 -0.066380 0.123830
-0.109046 -0.005692 0.115857
-0.080212 -0.035905 0.134449
-0.058369 0.057589 -0.156702
-0.042707 0.047983 0.131580
0.056013 -0.035559 0.153796
-0.049147 0.069385 0.116802
-0.033713 -0.075356 -0.150453
-0.069865 0.047776 -0.156702
-0.063627 -0.043852 0.134784
0.012150 0.035441 0.138783
-0.088424 -0.041121 0.130667
-0.049147 0.069385 0.116802
-0.067493 -0.073087 0.094608
-0.019795 -0.032059 0.096233
-0.060003 0.044532 0.134184
-0.007119 -0.032059 0.117561
-0.034549 -0.072354 0.112546
-0.091226 -0.062603 -0.018688
-0.088053 0.014595 0.123269
-0.038924 0.063607 0.126464
0.017889 -0.000059 0.006623
-0.006510 0.071068 -0.156702
-0.039642 -0.054687 0.131196
-0.068204 0.054496 0.119395
0.051815 -0.031801 0.154258
0.009403 -0.070010 0.017610
-0.095182 0.044814 0.123696
-0.105835 -0.034401 0.081055
-0.102352 0.041917 0.083077
0.011305 0.033410 0.034004
-0.111111 -0.015174 0.078900
-0.085139 -0.068086 0.014830
-0.060589 -0.058020 0.131452
-0.108272 -0.023097 0.079320
0.057131 0.030961 0.030529
-0.068762 0.062008 0.127361
-0.083527 -0.031875 0.123031
-0.096801 -0.051027 -0.051852
-0.060484 -0.071378 0.118021
0.044297 0.029441 0.029971
-0.107365 0.023390 0.079803
-0.103714 -0.012844 0.082688
-0.092111 0.026004 -0.150453
-0.024388 -0.066126 0.111437
-0.066327 -0.032697 0.132954
0.067793 -0.000059 0.032749
-0.061605 0.068848 0.092173
-0.095585 -0.012988 -0.150453
-0.107189 -0.009097 0.082669
-0.090431 -0.023386 0.133150
-0.077753 0.047215 -0.147953
-0.095502 -0.054591 0.109644
-0.089247 0.004941 0.126275
-0.063873 -0.053446 -0.156702
-0.061402 -0.064465 0.127174
-0.084922 0.060545 0.080019
0.038984 0.048209 -0.150453
0.084167 -0.031023 0.144262
-0.063627 0.043546 0.124035
0.052481 0.022924 -0.072649
-0.088290 -0.064609 0.091376
-0.093035 0.060095 0.088957
0.026859 -0.059235 -0.073971
0.015677 0.031941 0.032830
-0.111518 -0.012247 0.094288
-0.056838 0.034752 0.128440
0.022291 0.063236 -0.150453
0.007333 -0.071780 0.018544
0.109285 -0.031048 0.086132
0.029706 -0.058039 -0.150453
0.036580 -0.031065 0.155082
-0.063704 -0.031298 0.128502
-0.095229 -0.006358 0.132184
-0.107668 0.004941 0.115373
-0.049534 0.070366 -0.150453
-0.102352 0.041917 0.083077
-0.033997 0.030961 0.133844
-0.062970 -0.054856 0.132743
0.034445 0.055170 -0.119618
0.026342 0.058581 -0.023664
-0.034996 -0.074439 0.081037
-0.077811 -0.047270 -0.147953
0.046921 -0.031620 0.155287
-0.103869 0.014766 0.082646
-0.105338 -0.011030 0.123423
0.052381 0.013172 -0.077586
-0.035038 0.032372 0.132009
0.035142 0.053248 -0.036600
-0.079205 -0.069515 0.093060
-0.031578 0.070160 0.113346
-0.093035 -0.060213 0.088957
-0.106414 0.025848 0.076721
0.019998 -0.000059 0.150699
-0.105248 -0.017367 0.075932
0.007202 0.071641 0.020660
-0.067823 0.073657 0.095726
0.090169 0.035441 0.138013
-0.101672 -0.025392 -0.083928
-0.061583 0.074225 -0.084741
0.015879 -0.032453 0.009308
-0.067674 0.073410 0.095102
0.026859 0.059117 -0.073971
-0.002694 -0.029559 0.143764
-0.109519 0.004941 0.090895
0.047386 0.036664 -0.082533
0.010580 -0.035559 0.140728
0.107058 -0.029559 0.109620
-0.098518 -0.054706 0.088376
-0.036720 -0.033522 0.132235
-0.070122 -0.071114 -0.050731
-0.067815 0.031733 0.134400
-0.063925 -0.034708 0.126942
-0.100326 -0.020682 0.127430
-0.013556 0.075113 -0.130716
-0.060495 0.074888 0.099033
0.013780 -0.064016 -0.156702
-0.061340 0.073697 0.095581
-0.104170 -0.011837 0.083085
-0.089566 -0.056438 0.119552
-0.037937 -0.032059 0.132916
-0.107321 0.006265 0.120668
-0.102139 -0.044650 0.083388
-0.039533 -0.034994 0.132453
-0.082559 0.068062 0.092971
-0.111549 -0.010391 0.080279
-0.090084 -0.038197 0.130665
-0.101180 -0.005059 0.115651
0.070939 0.031369 0.150134
0.014758 -0.029559 0.148989
0.010226 -0.035007 0.017847
-0.087117 -0.045356 -0.116282
-0.035124 0.072830 0.101625
-0.053669 -0.070982 0.082867
-0.106454 -0.000059 0.076386
-0.083292 -0.005059 0.127436
-0.077830 -0.009248 0.135388
0.040222 0.040081 -0.156702
0.029377 -0.049530 -0.156702
0.089677 0.030115 0.140911
0.017149 0.064484 -0.004138
-0.064337 0.059177 0.130411
0.011084 -0.035007 0.033648
-0.103130 -0.007177 0.126486
-0.110705 -0.005172 0.089555
-0.069335 -0.040495 0.124091
-0.012811 0.077751 -0.009739
-0.024363 0.029441 0.109026
0.026413 -0.058756 -0.024225
-0.031711 -0.035000 0.114788
0.039892 0.029919 0.155755
-0.060868 -0.073858 0.095923
-0.092320 -0.057909 0.087953
-0.086880 -0.014065 0.134793
-0.069419 -0.071433 -0.084639
-0.107646 -0.030955 0.080438
-0.022203 0.068193 0.075105
-0.069763 0.058163 0.114293
0.046964 -0.027592 -0.156702
-0.071866 -0.021205 0.133170
-0.088469 -0.025784 -0.150453
0.047913 -0.031797 0.029121
-0.086751 -0.062405 0.080206
-0.093898 -0.008901 -0.147953
0.052357 0.013144 -0.077522
-0.107502 0.005105 0.117921
0.007342 0.069038 0.015961
0.023408 -0.055661 -0.147953
-0.014259 0.065702 0.059461
-0.058955 0.070993 0.113256
-0.086880 0.013946 0.134793
-0.052991 -0.054769 0.126617
0.039624 0.044301 -0.051768
-0.064603 -0.035764 0.134770
-0.101689 0.004941 0.125104
-0.088713 -0.040646 0.130667
0.007137 0.029441 0.146876
-0.085567 -0.056765 0.090431
0.032631 -0.056415 -0.032188
-0.056322 -0.064405 0.118647
-0.073650 -0.043587 -0.156702
-0.089428 0.020451 -0.156702
-0.063150 -0.064303 -0.133299
-0.075044 -0.009040 0.127140
0.105758 -0.029559 0.072981
-0.023567 -0.067693 0.085682
-0.085608 0.065531 0.098609
0.088857 -0.000059 0.142619
-0.056531 0.052324 0.122615
0.008839 -0.070971 0.017196
-0.034909 -0.029559 0.114905
-0.033997 -0.031079 0.133844
0.010205 -0.069081 0.029032
-0.059072 -0.064457 0.124461
-0.085961 -0.007113 0.135176
0.036530 0.030374 0.155335
-0.058943 -0.071834 0.099672
-0.033997 -0.031079 0.133844
-0.069335 -0.040495 0.124091
-0.078267 -0.067889 0.092224
-0.033356 0.068989 0.111885
-0.093480 -0.047514 0.123752
-0.067234 0.026100 0.124340
0.053410 0.022336 -0.125366
-0.108380 -0.006141 0.085337
0.046986 0.036574 -0.061601
-0.033305 0.033410 0.117885
-0.055221 -0.068603 0.116863
-0.059917 -0.052959 0.132970
-0.099226 -0.025083 -0.083424
-0.065294 -0.033881 0.133704
0.014886 -0.033529 0.008845
-0.104249 0.036670 0.081912
-0.035193 -0.000059 0.134303
-0.072699 0.017495 0.133235
-0.103882 0.004878 0.091854
0.040419 0.040447 -0.150453
0.030662 -0.054921 -0.032763
-0.036636 0.076382 -0.050049
0.109256 0.035441 0.086135
0.047204 -0.035785 -0.150453
-0.032194 0.071633 0.111185
-0.036963 0.073448 0.052222
-0.035767 -0.073152 0.101703
-0.081943 -0.067580 0.091830
-0.108396 -0.007971 0.082336
-0.063493 0.073267 0.094810
-0.038490 0.052339 0.131762
-0.066969 0.071761 0.094239
0.108812 0.030709 0.077752
-0.059698 -0.071012 0.117852
-0.070284 0.025888 0.133082
-0.033452 -0.032059 0.132194
-0.062829 0.073526 0.094951
-0.070248 -0.067854 0.081416
-0.020196 -0.079246 -0.049844
0.036666 -0.031619 0.154647
-0.059678 -0.072620 0.113701
-0.073915 0.043443 0.134333
0.046909 -0.021389 -0.053283
-0.083351 0.005541 0.134829
-0.080766 -0.070478 -0.017854
-0.079024 0.064169 0.119470
-0.014961 -0.029559 0.138992
-0.098456 -0.053156 0.097436
-0.068079 -0.070037 -0.101184
0.043671 -0.043473 -0.080635
-0.047830 0.047467 0.128366
0.040222 -0.040200 -0.156702
-0.048080 0.047502 0.130854
0.044359 -0.041641 -0.057019
0.000789 0.066644 0.040433
-0.101552 -0.041719 0.083300
-0.079205 0.069396 0.093060
-0.061433 0.050438 0.134120
-0.019378 0.076090 0.044242
-0.101467 -0.043481 0.114268
-0.060056 0.039608 0.126855
-0.072717 -0.072289 0.048869
-0.110738 -0.023270 0.081345
-0.088502 0.060015 0.114842
-0.033447 -0.071345 0.114124
0.101502 0.030188 0.059344
0.013104 -0.050022 0.029365
-0.037092 0.074857 0.019244
-0.024389 -0.068348 0.085584
-0.059102 -0.073844 0.099740
0.108801 0.030950 0.082555
-0.076518 0.066693 -0.067508
0.047197 0.027737 -0.150453
-0.109137 -0.005059 0.108112
0.007202 0.071641 0.020660
-0.021851 0.033410 0.085731
0.044648 -0.035936 -0.062128
-0.038263 0.029441 0.129739
-0.094383 0.004941 0.130512
-0.030764 0.031941 0.118333
-0.055221 -0.068603 0.116863
0.052948 -0.022568 -0.086510
-0.059151 -0.071143 0.115809
-0.103805 0.045978 0.085752
-0.073400 -0.013589 0.133307
0.008948 0.070070 0.018929
-0.035184 0.075104 -0.117876
-0.011189 0.073486 0.033219
-0.085801 -0.005217 0.133964
-0.037245 -0.033302 0.132632
0.031521 0.035441 0.034968
0.014934 0.032331 0.030089
-0.110278 -0.007190 0.113627
-0.056645 0.045811 0.128246
-0.043736 0.047877 0.128834
-0.106145 -0.040681 0.084394
0.047203 0.035665 -0.150453
-0.093004 -0.014266 -0.147953
0.010542 -0.032059 0.140776
-0.090868 -0.055250 0.079347
0.025872 0.030961 0.153550
-0.077486 -0.041581 0.122922
-0.038433 0.066647 0.123508
-0.059229 0.066191 0.123716
-0.109129 -0.005224 0.113286
-0.103060 -0.034740 0.044076
0.012382 -0.065822 0.031067
-0.065029 0.036292 0.134914
-0.029132 -0.075731 0.058933
0.054820 -0.015187 -0.088636
-0.096696 -0.000059 -0.150453
-0.022412 -0.065742 0.108521
-0.059665 0.073499 0.108774
-0.098004 0.045582 0.119261
-0.093209 0.004941 0.124401
-0.036175 0.066045 0.123350
-0.063873 0.053327 -0.156702
-0.061228 0.074901 0.097461
-0.088290 -0.064609 0.091376
0.054802 0.013720 -0.077179
0.045335 -0.035404 -0.137590
-0.012635 -0.078460 -0.111323
0.109675 -0.031032 0.088977
-0.067220 -0.033573 0.134809
0.056699 0.031941 0.032194
-0.004768 0.035441 0.116544
-0.039430 -0.058666 0.129684
-0.036636 -0.076500 -0.050049
-0.012694 0.075772 -0.150453
-0.083375 0.006982 0.135400
-0.095878 -0.000059 0.124617
0.074356 0.031316 0.148641
0.032821 -0.054936 -0.031430
-0.097400 -0.015350 -0.133212
0.050494 -0.021995 -0.085652
0.012944 0.031941 0.019115
-0.082331 0.065612 0.091215
-0.071491 0.069959 0.081576
-0.077126 0.067436 0.114647
-0.090411 -0.062007 0.098233
-0.092852 0.007023 0.133386
-0.013575 -0.076089 -0.109826
-0.080756 -0.069129 0.094132
-0.007319 -0.068208 0.047217
0.012967 0.034870 0.031543
-0.084546 -0.034244 -0.150453
-0.047833 -0.047586 0.128366
-0.094748 0.029278 0.114143
-0.002843 -0.032059 0.049349
-0.035312 0.072559 0.109740
0.036579 0.030996 0.155085
-0.075272 -0.047838 -0.150453
-0.109347 0.014889 0.078533
-0.029696 0.032334 0.115314
-0.111685 -0.015182 0.079631
0.097985 0.030976 0.129360
-0.008867 0.029441 0.103066
0.013151 0.069501 0.006071
0.053596 0.006966 -0.147953
-0.059151 -0.071143 0.115809
-0.059600 -0.042887 0.133565
-0.015441 -0.031797 0.140397
-0.039064 -0.056282 0.128050
0.039938 -0.031022 0.155479
-0.108168 0.004691 0.091501
-0.074980 -0.063249 0.123711
-0.073377 0.066962 0.119302
0.003045 0.065957 -0.156702
-0.023879 0.065918 0.110982
0.056023 -0.007652 -0.090745
-0.059240 0.054683 0.124422
-0.088472 -0.064542 0.092101
-0.026690 0.072048 -0.156702
-0.069759 -0.047725 0.122826
0.026838 -0.058323 -0.134904
0.013147 -0.069621 0.006079
0.108525 -0.035559 0.105169
0.086034 -0.035559 0.048374
-0.019951 -0.068286 0.068411
0.014133 0.031941 0.035028
-0.059112 -0.073390 0.104220
-0.039367 -0.034882 0.132492
-0.061730 0.036566 0.132886
-0.052461 -0.061354 -0.156702
-0.104134 -0.040161 0.108912
0.046109 -0.000059 0.027221
-0.096645 0.053904 0.086253
0.029065 -0.032059 0.025647
-0.062575 0.074286 0.095559
-0.015452 0.031678 0.140392
0.012967 0.034870 0.031543
-0.012902 0.072022 -0.156702
-0.036089 -0.070189 0.109160
-0.022223 0.049905 0.109153
-0.060134 0.073790 0.096674
-0.110882 0.005122 0.090530
0.111523 -0.030023 0.093844
0.061064 -0.030755 0.031428
-0.095851 -0.057253 0.087822
-0.061941 0.040193 0.134846
-0.112188 0.011227 0.081607
-0.053131 0.055570 0.128938
-0.102988 -0.043436 0.044855
-0.034208 0.029441 0.131452
0.026284 -0.058839 -0.023704
-0.102787 -0.005059 0.111059
-0.104354 -0.039592 0.108885
0.029065 -0.032059 0.025647
0.033939 -0.055283 -0.036095
-0.061402 0.064346 0.127174
0.102950 -0.035559 0.071514
0.028856 -0.060521 -0.118492
-0.075983 0.053768 0.130599
-0.003191 0.031678 0.145159
-0.022345 0.065547 0.106536
0.018867 -0.066561 -0.003693
0.021002 -0.063369 -0.116080
-0.019768 0.033410 0.075360
-0.079383 0.005398 0.131452
-0.107900 -0.028712 0.108446
-0.111757 0.005825 0.090571
-0.061413 0.061809 0.129211
-0.077543 0.057348 -0.116583
-0.058955 0.070993 0.113256
-0.061413 -0.061927 0.129211
0.052456 0.023178 -0.073067
0.034445 -0.055289 -0.119618
-0.025371 0.034888 0.112587
-0.075431 0.041362 -0.156702
0.032837 0.054801 -0.031465
0.055709 0.005069 -0.078459
-0.063493 0.073267 0.094810
0.110807 -0.030068 0.083887
-0.022546 0.076146 0.047052
-0.088466 0.006220 0.134597
-0.037308 -0.054500 0.130811
-0.092527 0.059760 0.088471
0.026328 -0.058711 -0.023634
-0.073549 -0.013625 0.134073
-0.109137 0.004941 0.108112
0.039658 0.044036 -0.051565
0.050933 0.021564 -0.138968
-0.020196 0.078424 -0.118631
0.012385 -0.033523 0.033130
-0.061730 0.036566 0.132886
0.110099 -0.030785 0.084000
-0.105591 -0.017790 -0.052657
-0.081425 0.013687 0.124557
-0.088762 -0.033987 0.119524
-0.074054 -0.010497 0.131365
0.006989 -0.000059 0.147389
0.111077 -0.029093 0.083840
-0.095502 0.054472 0.109644
-0.056467 0.055981 0.125751
0.012664 -0.032059 0.036198
-0.023588 0.031941 0.115142
-0.027777 -0.069640 0.111172
-0.066432 0.032692 0.133725
-0.020198 0.075973 -0.118246
-0.112134 -0.012200 0.081109
-0.020196 -0.076559 -0.150453
0.007257 0.071612 0.020786
-0.034292 0.074038 0.081129
-0.091879 -0.058597 0.109788
-0.082647 -0.005682 0.134848
-0.097235 -0.005681 0.130569
-0.085801 -0.005217 0.133964
-0.007215 0.075361 0.030942
-0.056467 -0.056099 0.125751
-0.090974 0.007016 0.134057
-0.089180 -0.061132 -0.018407
-0.054292 -0.064458 -0.150453
0.000789 0.066644 0.040433
-0.024379 0.034879 0.112205
0.057201 0.029975 0.030258
-0.088495 -0.007124 0.134727
-0.022186 -0.068311 0.075055
-0.091571 0.061481 0.046869
-0.066969 -0.071880 0.094239
-0.105564 0.041750 0.083798
-0.006732 0.072808 0.029307
-0.077802 -0.044762 -0.150453
0.072039 -0.000059 0.152440
0.030578 0.055001 -0.032943
-0.057915 -0.069768 -0.134155
0.022235 -0.064787 -0.012421
-0.111016 0.006265 0.108228
-0.059239 -0.054873 0.130753
-0.060056 0.039608 0.126855
-0.099526 0.002754 0.124712
-0.065294 0.033763 0.133704
0.099717 -0.029372 0.056257
-0.079087 -0.024883 0.124363
-0.079195 -0.068486 -0.017604
0.069826 -0.035559 0.036208
-0.087537 -0.064071 0.090227
-0.005201 -0.077559 -0.065001
-0.107473 -0.016535 0.118708
-0.021213 -0.075717 0.048023
-0.037759 -0.078481 -0.014978
-0.102385 -0.000059 -0.076719
-0.047747 -0.067537 -0.150453
-0.080838 -0.040435 -0.150453
-0.004786 -0.033529 0.047651
-0.059665 0.073499 0.108774
-0.104680 -0.036069 0.113974
-0.085611 -0.062428 0.114839
-0.088294 0.064329 0.047268
-0.052991 0.054650 0.126617
-0.095657 -0.048784 0.078686
-0.109952 0.011165 0.113598
-0.109545 -0.005224 0.111364
-0.015403 -0.068245 0.058827
0.026284 -0.058839 -0.023704
-0.069420 -0.060119 -0.133141
-0.024715 -0.000059 0.135531
0.094083 -0.000059 0.134219
-0.059310 -0.061232 0.128275
-0.075483 0.033546 0.134962
-0.045247 0.077720 -0.084949
0.016951 0.064905 -0.004337
0.099395 0.035441 0.059476
-0.095015 -0.005059 0.123170
0.055376 0.009642 -0.078006
-0.023121 -0.065899 0.110139
-0.103612 0.045072 0.083959
-0.112264 -0.008675 0.084644
-0.061373 0.070068 0.120298
0.009099 0.070387 -0.150453
-0.025371 -0.035007 0.112587
-0.091968 -0.059390 0.088240
0.053343 0.029694 0.156160
-0.100899 -0.005685 0.127863
0.012699 0.032333 0.034340
-0.053708 0.063439 -0.156702
-0.101731 0.042127 0.078141
-0.097305 -0.052271 0.109539
-0.087537 0.063952 0.090227
-0.060578 0.059572 0.130558
-0.092155 -0.018470 -0.147953
-0.066378 0.032518 0.132955
-0.082577 -0.005085 0.133419
-0.103266 -0.005059 0.123306
-0.076557 0.046141 -0.150453
0.092499 -0.031201 0.049375
0.036362 -0.048706 -0.044719
-0.082851 -0.064330 0.114802
-0.101723 -0.027195 0.083786
-0.085376 0.022137 0.134659
0.046868 0.036966 -0.062029
0.103988 0.029159 0.063387
-0.006808 0.067439 0.047634
-0.024580 0.033407 0.112761
-0.073915 -0.043562 0.134333
-0.100899 -0.005685 0.127863
-0.089873 -0.052618 0.089023
-0.111801 -0.014050 0.079639
0.048889 0.025969 -0.070766
-0.107365 -0.018167 -0.021845
0.043270 -0.000059 0.156602
-0.065599 0.048476 0.134241
0.056016 -0.000059 -0.079033
-0.036506 0.052062 0.130486
-0.061404 -0.063982 0.127621
-0.023186 -0.067087 0.109705
-0.094680 -0.056488 0.087132
-0.064561 0.050016 0.122769
-0.068079 0.069918 -0.101184
0.053005 -0.009637 -0.078809
0.016619 0.030832 0.004771
-0.082910 0.067139 -0.051369
0.029065 -0.032059 0.025647
-0.005700 -0.071065 -0.156702
-0.111642 0.007065 0.099413
-0.073549 0.013506 0.134073
-0.067493 0.072968 0.094608
-0.058946 0.071565 0.110960
0.033886 -0.053833 -0.150453
-0.027370 -0.030094 0.136562
-0.089790 -0.006697 -0.156702
0.002480 0.034888 0.039909
0.051172 -0.027125 -0.070553
-0.011968 0.031941 0.088799
-0.051730 0.046765 0.128230
-0.109046 0.005573 0.115857
0.022351 0.064875 -0.022244
-0.035210 0.072972 0.099268
0.016422 -0.032059 0.030071
-0.085019 -0.063654 -0.067984
-0.080891 -0.017353 0.135246
-0.048466 -0.055555 0.126691
0.024045 0.029441 0.146329
-0.023403 0.066683 0.099614
-0.029125 0.075613 0.058917
0.051178 -0.026522 -0.069728
0.046767 0.031769 0.154254
-0.035968 0.041435 0.129918
-0.099311 -0.025318 0.127418
-0.090411 -0.062007 0.098233
-0.006668 0.075235 -0.150453
0.043671 0.043354 -0.080635
-0.033897 0.071955 0.113268
-0.077155 0.047175 0.132915
-0.089562 0.020081 -0.156702
-0.068775 0.029474 0.133786
-0.018694 0.031941 0.108428
0.049220 -0.031911 -0.066122
-0.035697 0.076424 -0.134480
-0.095945 -0.007462 -0.132461
-0.056838 -0.034871 0.128440
-0.036949 -0.068037 0.121802
0.012611 -0.061798 -0.156702
0.048350 0.025014 -0.150453
-0.082851 -0.064330 0.114802
-0.059698 -0.071012 0.117852
-0.108079 0.027933 0.108424
-0.097999 0.029879 0.127424
-0.009261 -0.035007 0.052911
0.034349 0.055485 -0.076873
-0.088702 0.065399 0.014449
0.053666 0.000207 -0.079838
0.109301 -0.029035 0.110251
-0.077819 0.047143 -0.147953
0.060164 -0.029559 0.035972
-0.097055 0.015648 -0.115770
-0.110734 -0.005191 0.090523
-0.097123 -0.041518 0.123621
-0.060796 0.057039 0.119261
-0.074980 0.063130 0.123711
0.080337 -0.031696 0.041133
0.109707 0.030885 0.097270
0.037227 0.047669 -0.136238
-0.106833 -0.000059 -0.000334
-0.087624 0.027607 -0.150453
0.046964 -0.027592 -0.156702
-0.064111 -0.074303 0.049680
0.010580 0.035441 0.140728
-0.110016 -0.008902 0.080827
-0.013773 -0.075449 -0.009089
-0.095502 -0.054591 0.109644
-0.012811 -0.077870 -0.009739
-0.020431 -0.032450 0.109665
-0.098826 -0.050650 0.062190
-0.071459 -0.073269 -0.051079
-0.106798 0.004941 0.092655
0.033852 -0.044678 -0.156702
-0.106009 0.031979 0.113844
0.009969 -0.067755 0.032667
-0.036580 -0.071812 0.084364
0.042186 -0.040404 -0.057064
-0.095283 -0.048438 0.083761
0.037137 0.048384 -0.077786
-0.023174 0.065581 0.099593
-0.009056 0.035441 0.074406
0.044652 -0.035726 -0.061926
-0.059378 -0.059017 -0.147953
-0.020196 -0.079307 -0.052886
-0.031798 -0.069019 0.113866
-0.020196 0.076297 0.043634
-0.060494 0.070038 0.120290
-0.030764 -0.032059 0.118333
-0.036418 0.041453 0.131047
-0.095285 0.007033 0.132295
-0.063082 0.073722 -0.016526
0.033852 -0.044678 -0.156702
-0.110527 -0.012443 0.078785
0.016442 -0.031821 0.005152
-0.068047 -0.071169 0.114274
-0.059400 -0.045642 0.126747
0.033865 0.044545 -0.156702
-0.104583 -0.035470 -0.020662
-0.026366 0.073369 0.053299
-0.090805 -0.005672 0.133525
-0.111762 0.007248 0.083923
-0.030726 -0.032059 0.118162
-0.029312 -0.032059 0.116749
0.107999 -0.029182 0.072186
-0.069812 0.027445 0.133823
-0.064337 -0.059295 0.130411
-0.109545 0.005106 0.111364
-0.105912 0.030659 0.080814
0.055893 -0.000059 -0.078643
-0.103060 0.034621 0.044076
0.090545 -0.035559 0.134159
-0.104108 -0.009709 0.083875
-0.106230 -0.006928 0.086092
-0.073549 -0.013625 0.134073
-0.096645 0.053904 0.086253
-0.039642 -0.054687 0.131196
0.051354 -0.014082 -0.150453
-0.036806 -0.061810 0.127302
0.009036 -0.070321 0.023537
-0.039508 -0.057198 0.130242
0.056369 -0.000059 -0.092633
-0.034525 0.066557 0.119206
0.013013 -0.034988 0.031444
-0.095181 0.014401 -0.150453
-0.080139 0.020760 0.124433
0.000907 0.072150 -0.132179
0.049355 -0.008240 -0.156702
-0.111312 0.005352 0.090550
0.032589 0.031678 0.026620
0.104874 -0.031180 0.069429
-0.056431 0.058022 0.119128
0.109573 -0.031035 0.088524
-0.003530 -0.030094 0.146111
-0.105028 0.002822 0.117120
-0.081611 0.060731 -0.100870
0.049413 -0.020927 -0.156702
-0.038685 -0.034602 0.132509
-0.074877 -0.065198 0.090204
-0.034580 -0.069288 0.112857
0.043357 0.030844 0.155805
-0.059398 -0.045763 0.132728
-0.068983 0.048607 -0.156702
0.105041 -0.029559 0.109402
-0.059401 -0.051785 0.122721
0.053674 -0.000059 -0.079900
-0.074400 -0.069530 0.093030
-0.028201 -0.078391 -0.118461
-0.099392 -0.047221 0.114431
-0.065711 0.028810 0.124293
-0.100011 -0.045033 0.084156
0.028152 -0.060550 -0.024410
0.002172 0.075420 -0.067195
0.014595 -0.032449 0.031581
0.082672 0.035441 0.143934
-0.094290 -0.056055 0.109706
0.083320 -0.029559 0.140558
-0.059600 0.042768 0.133565
0.025833 -0.030094 0.153826
-0.060302 -0.067315 0.096438
-0.023322 0.034872 0.111476
0.022351 0.064875 -0.022244
-0.083783 -0.042098 -0.150453
0.107384 0.035441 0.076767
-0.040086 0.048103 0.132084
-0.095860 0.048907 0.119369
-0.022016 -0.034990 0.109599
-0.024715 -0.000059 0.135531
0.053628 -0.000059 -0.079701
-0.061936 0.074912 0.098010
-0.085019 -0.063654 -0.067984
-0.029980 0.033410 0.114256
-0.091658 -0.000059 0.129725
-0.062829 -0.073645 0.094951
-0.023684 -0.068051 0.109051
-0.088502 -0.060134 0.114842
-0.019498 0.076120 0.044156
-0.105101 -0.017315 0.078241
0.109115 0.030878 0.102218
-0.109776 0.005691 0.086030
-0.039064 -0.056282 0.128050
-0.092611 -0.010033 0.133341
-0.067508 0.053051 0.132796
0.061064 0.030634 0.031428
-0.023538 -0.050024 0.111208
0.012150 -0.035559 0.138783
-0.081272 0.033833 0.134477
-0.058838 -0.063519 0.123059
0.060629 0.035441 0.033623
-0.058943 0.071716 0.099672
-0.063433 -0.073292 0.016846
-0.027817 -0.075225 0.059875
-0.027683 0.075121 0.059550
0.021859 -0.056048 -0.156702
-0.101743 0.010652 0.127515
-0.102023 0.007055 0.127542
-0.057005 0.058522 -0.156702
0.108314 0.030876 0.106879
-0.027335 0.075837 -0.118079
-0.112232 -0.010435 0.082344
-0.097235 0.005562 0.130569
-0.015882 -0.065816 0.062555
0.080732 0.031218 0.145335
-0.076227 -0.065767 0.119393
0.006330 0.031941 0.049643
0.045335 0.035286 -0.137590
0.055709 0.005069 -0.078459
-0.104403 -0.005689 0.124217
-0.069094 -0.020603 0.128689
0.049734 -0.000059 -0.156702
0.030678 0.054786 -0.032798
-0.036786 0.073585 0.094079
-0.051730 -0.000059 0.131548
-0.036963 -0.073566 0.052222
0.050232 0.021856 -0.073462
-0.056322 0.064284 0.118650
-0.036880 0.072537 0.109236
-0.063915 0.074532 0.096204
0.104612 -0.000059 0.063049
-0.087919 0.043639 0.114393
-0.109775 0.019116 0.078871
0.038529 0.049809 -0.044324
-0.063458 0.058644 -0.150453
-0.078665 0.069641 0.093180
0.048160 0.017627 -0.147953
-0.060520 -0.067152 0.124428
-0.060041 0.039593 0.132844
-0.032703 0.068659 -0.156702
0.087746 0.031178 0.045119
-0.087668 -0.063547 0.063713
0.007033 0.069154 0.016612
-0.060531 -0.065855 0.125821
0.000530 -0.070006 -0.150453
0.053666 0.000207 -0.079838
0.108209 -0.030014 0.113467
0.111668 0.028920 0.097392
-0.108589 0.009009 0.075235
-0.014259 0.065702 0.059461
0.025997 0.031678 0.152830
-0.024185 -0.034997 0.112099
0.026345 0.058439 -0.023609
0.014057 -0.066413 0.001768
0.087280 -0.000059 0.140679
-0.108319 0.010016 0.080388
0.022038 0.056592 -0.147953
0.052764 -0.001590 -0.150453
-0.074337 -0.053764 -0.150453
-0.069692 -0.067000 0.091117
0.020906 0.062637 -0.134238
-0.023318 0.065609 0.093087
-0.107164 -0.000059 0.046361
-0.068762 0.062008 0.127361
-0.095522 0.044256 0.123684
-0.082413 -0.002368 0.131507
-0.032301 0.033405 0.115738
-0.096470 -0.005059 0.129338
-0.062340 0.044051 0.124027
0.106618 -0.000059 0.119608
-0.059965 0.048373 0.133911
-0.025371 0.034888 0.112587
-0.101971 0.049197 0.085823
0.013903 -0.000059 0.005488
-0.011493 0.034888 0.055881
-0.060065 -0.039584 0.132846
-0.089113 -0.002309 0.123421
-0.087540 0.054353 0.123861
-0.103115 -0.043992 0.012152
0.108597 -0.000059 0.071965
0.014638 0.067107 -0.114901
-0.108056 -0.018952 0.079315
-0.061356 0.072907 0.113813
0.101631 -0.029559 0.118440
-0.107267 -0.034696 0.095969
0.099395 -0.035559 0.059476
0.016685 0.029968 0.004655
-0.089230 -0.053286 0.089242
-0.059714 0.069687 0.120088
-0.064553 -0.050138 0.122769
-0.055332 -0.075423 0.050502
0.063053 0.031232 0.153665
-0.092473 0.005101 0.132233
-0.097999 0.029879 0.127424
0.018584 0.058129 -0.156702
-0.099644 -0.052019 0.012924
0.055728 0.007102 -0.150453
-0.079049 0.069839 0.094517
0.052392 -0.013325 -0.077650
0.008222 -0.071166 0.019211
-0.070943 -0.070737 0.093643
-0.109037 0.010089 0.080216
-0.078518 0.061339 0.092280
-0.059360 -0.047913 0.126548
-0.096470 -0.005059 0.129338
0.031394 -0.030097 0.025135
-0.030194 0.069444 0.112878
-0.096886 -0.005221 0.130008
-0.048758 0.067164 0.115718
0.010647 0.066691 0.032976
-0.112188 0.011227 0.081607
-0.108380 -0.006141 0.085337
-0.070637 0.025026 0.133098
-0.036982 0.075871 -0.014812
-0.089592 0.061436 0.089119
0.022351 -0.064994 -0.022244
0.086034 0.035441 0.048374
-0.091435 0.041672 0.108049
-0.068014 -0.031584 0.134405
-0.039418 0.034740 0.132483
0.051968 0.007045 -0.156702
-0.077073 0.056531 -0.133845
-0.067823 -0.073776 0.095726
-0.048080 0.047502 0.130854
-0.102032 0.004941 0.113641
-0.064603 -0.035764 0.134770
0.052869 -0.000059 0.154208
0.017828 -0.000059 0.006538
-0.087537 0.063952 0.090227
-0.025147 -0.029559 0.109891
-0.103929 -0.009738 0.084043
-0.075272 -0.047838 -0.150453
-0.067508 0.053051 0.132796
-0.019378 0.076090 0.044242
0.009403 0.069892 0.017610
-0.018816 -0.066772 0.068839
-0.034180 0.072820 -0.147953
0.026838 0.058204 -0.134904
-0.035853 -0.071027 0.116297
-0.072459 0.052402 0.119468
-0.045936 0.074736 0.018426
-0.042400 -0.000059 0.129967
0.001547 -0.073610 0.023828
-0.016553 -0.035007 0.065241
-0.032485 0.069351 0.114328
-0.039564 0.056350 0.130614
-0.089230 0.053167 0.089242
0.096780 0.029441 0.126792
0.039618 -0.044427 -0.051757
0.020565 -0.063172 -0.021654
-0.107457 -0.014885 0.079906
-0.006815 -0.067558 0.047642
0.029042 0.049775 -0.156702
-0.080999 0.051310 0.114488
0.009388 -0.072503 -0.115058
-0.110739 0.005046 0.090523
-0.111069 0.007070 0.109031
0.047572 0.018110 -0.156702
-0.021669 -0.035001 0.107556
-0.010705 -0.066743 0.053437
-0.056360 0.062093 0.113889
-0.105564 -0.041869 0.083798
-0.072846 0.017538 0.134001
-0.062202 -0.067056 0.095092
-0.106798 0.004941 0.092655
-0.087142 0.058521 0.119570
0.051324 0.017768 -0.075496
-0.072103 -0.070921 0.109376
-0.095502 -0.054591 0.109644
-0.060960 0.074914 0.097846
0.056688 -0.029559 0.151295
-0.071592 -0.051158 0.132847
0.002480 -0.035007 0.039909
-0.105564 0.041750 0.083798
0.057201 0.029975 0.030258
-0.074552 -0.034969 0.124187
-0.088702 -0.065517 0.014449
-0.022267 -0.035007 0.085680
0.039791 -0.000059 0.156271
-0.065479 -0.055364 -0.156702
0.013365 0.034869 0.030324
-0.025858 0.075705 0.054219
-0.101180 -0.005059 0.115651
-0.060507 0.068628 0.122426
-0.102916 -0.044984 0.083507
-0.110395 0.013683 0.078518
-0.060249 -0.033599 0.128462
0.076861 -0.000059 0.036378
-0.109364 0.021841 0.108284
-0.059051 -0.065665 0.123159
-0.078368 0.069224 0.092683
0.015889 -0.068906 -0.019969
-0.062379 -0.074987 0.097557
-0.102018 -0.033753 0.077347
0.009825 -0.068767 0.030439
0.079306 -0.029559 0.145574
-0.071696 0.069782 0.114435
0.045389 0.035592 -0.121942
-0.071866 0.021087 0.133170
-0.110652 -0.011200 0.079277
-0.008147 0.075231 0.032600
-0.059112 -0.073390 0.104220
0.065392 0.031458 0.151962
-0.059240 -0.054801 0.124422
-0.086751 0.062286 0.080206
0.059454 -0.032059 0.032929
-0.108434 0.030958 0.080858
0.032201 -0.029559 0.037265
0.034057 -0.044405 -0.156702
0.036830 -0.032017 0.153817
-0.067444 -0.047756 0.134258
0.054768 -0.014646 -0.150453
0.007963 0.071474 0.016689
0.107999 -0.031095 0.078786
-0.084381 -0.062972 -0.051049
-0.007119 0.031941 0.117561
-0.107342 -0.009709 0.081508
-0.106628 -0.021654 0.118721
-0.079597 0.069589 0.094400
-0.059025 0.052675 0.129482
-0.099526 -0.002873 0.124712
0.019129 0.061430 -0.150453
-0.040096 -0.048222 0.132082
0.051217 -0.026833 -0.070133
-0.110442 -0.005224 0.099347
-0.036238 0.070535 0.102492
-0.035038 0.032372 0.132009
0.075942 -0.030435 0.149879
0.014886 0.033410 0.008845
-0.059842 -0.059472 0.130203
-0.106628 0.021535 0.118721
-0.062212 -0.044404 0.134774
0.086453 -0.035559 0.045500
-0.059280 -0.052529 0.131560
-0.092673 0.016131 -0.147953
-0.035406 0.071995 0.113456
-0.074251 -0.010883 0.127358
-0.093414 0.060223 0.089625
-0.054348 -0.063244 0.124104
0.053885 -0.000059 -0.091847
0.039360 -0.037089 -0.156702
0.019375 0.064549 -0.002998
-0.108106 0.005573 0.118195
-0.061350 0.073912 0.108816
-0.037093 -0.074975 0.019244
-0.003530 -0.030094 0.146111
-0.074214 -0.070085 0.109475
-0.033384 0.029441 0.131749
-0.111762 -0.007366 0.083923
0.040419 0.040447 -0.150453
-0.018907 0.075790 0.044568
-0.060633 0.050401 0.134006
-0.036733 0.034866 0.131682
0.012197 -0.067263 0.006052
-0.078382 0.027124 0.135074
-0.014799 -0.067592 0.059162
0.011882 -0.032453 0.034936
0.098707 -0.029559 0.062845
-0.059163 0.070259 0.117552
0.009761 0.034882 0.019786
-0.108923 -0.000059 0.077297
-0.103930 0.025534 0.076652
-0.035746 -0.074534 0.080926
-0.062066 0.073383 -0.050574
-0.092320 0.006585 -0.156702
-0.074932 -0.070757 0.093392
0.018583 -0.058248 -0.156702
0.010296 -0.066803 0.033225
-0.094982 0.014926 -0.132557
-0.075151 -0.067522 0.092659
-0.106356 0.002191 0.077533
0.029042 0.049775 -0.156702
0.083320 0.029441 0.140558
-0.073426 -0.060081 0.127464
-0.102589 0.026877 0.123398
-0.054086 -0.061569 0.122267
-0.062340 0.044051 0.124027
-0.061356 -0.073026 0.113813
-0.112167 0.007857 0.084259
0.032675 0.030961 0.025895
-0.105621 -0.009320 -0.022193
-0.096303 -0.000059 -0.132347
-0.079049 -0.069958 0.094517
-0.035896 -0.068680 0.114626
-0.104675 0.004941 0.121380
0.000789 0.066644 0.040433
-0.064111 -0.074303 0.049680
0.013235 -0.033529 0.026855
0.006330 0.031941 0.049643
-0.062970 0.054737 0.132743
-0.034153 0.072377 0.109210
-0.014961 -0.029559 0.138992
-0.108421 -0.007189 0.118759
-0.024185 -0.034997 0.112099
0.067513 0.031423 0.151406
-0.035408 -0.072113 0.113458
0.036345 0.048685 -0.044794
-0.025262 0.033410 0.112992
0.007873 0.069634 -0.132882
-0.092473 0.005101 0.132233
-0.059224 -0.071017 -0.100838
-0.073472 0.064055 -0.100406
0.060900 -0.031771 0.032254
-0.032668 -0.071669 0.112980
-0.063159 -0.067665 0.123364
-0.074951 -0.010705 0.134771
-0.060003 -0.044651 0.134184
-0.085504 0.032430 -0.150453
-0.037712 -0.076067 0.052197
-0.086340 0.063207 0.109835
-0.034084 -0.030094 0.134109
-0.089724 -0.040933 0.114335
-0.097361 -0.056130 0.088872
0.006337 0.069350 0.019000
0.066270 0.031444 0.151737
0.105576 0.030795 0.068431
0.099306 -0.000059 0.054849
0.030834 -0.031798 0.025976
-0.006264 0.073990 -0.131452
0.004498 0.031941 0.146675
0.052300 0.022375 -0.071863
-0.079478 -0.058942 -0.117328
-0.106771 0.030628 0.080405
-0.002567 -0.068239 0.042014
0.053670 -0.000059 -0.079847
-0.039132 0.048068 0.129741
-0.032574 -0.071349 0.113260
-0.108974 -0.031088 0.081578
-0.024543 -0.029559 0.109308
-0.108337 -0.009725 0.080714
-0.091332 0.019060 0.133205
-0.035194 -0.063430 0.123327
-0.066462 -0.073814 0.099846
-0.101506 -0.049258 0.085129
-0.085506 -0.066476 0.092194
0.101537 0.035441 0.118395
-0.094914 -0.025281 0.130702
-0.059398 -0.045763 0.132728
-0.056252 -0.068438 0.107963
-0.103585 -0.000059 0.119935
-0.085679 -0.066426 0.092910
-0.110161 0.007760 0.081941
0.033223 0.029975 0.025679
0.107412 -0.031112 0.076759
0.016422 -0.032059 0.030071
0.019375 0.064549 -0.002998
-0.019266 -0.067630 0.068670
-0.096418 -0.002309 0.118211
-0.019768 0.033410 0.075360
0.031696 0.015946 0.025009
-0.070570 0.039574 0.134856
-0.079751 0.006946 0.135271
-0.050544 -0.072083 -0.117437
-0.078368 -0.069342 0.092683
0.108801 0.030950 0.082555
0.003460 -0.032453 0.041064
0.015196 -0.032059 0.149600
-0.093250 -0.060565 0.090499
-0.032301 0.033405 0.115738
-0.074660 -0.018045 0.135234
-0.058943 0.071716 0.099672
0.015514 -0.032059 0.025643
-0.059151 0.071025 0.115809
-0.058943 -0.071834 0.099672
0.088353 0.029480 0.044324
-0.054086 -0.061569 0.122267
-0.034740 0.072314 0.112036
-0.053561 -0.071335 0.108137
0.084965 -0.031351 0.043003
0.050494 0.021876 -0.085652
-0.043202 -0.070054 0.117209
-0.097361 -0.056130 0.088872
-0.059172 -0.058705 0.128901
0.078505 -0.035559 0.040200
0.053596 0.006966 -0.147953
-0.005732 -0.030094 0.145255
-0.108776 -0.029128 0.095547
-0.102112 0.034981 -0.020377
-0.018645 0.065687 0.068891
-0.064603 -0.035764 0.134770
-0.109115 0.023053 0.108311
-0.096424 0.050941 -0.019232
-0.094982 0.014926 -0.132557
-0.035171 -0.074958 -0.150453
0.111600 -0.029060 0.091122
0.030561 -0.055136 -0.032908
-0.112167 -0.007975 0.084259
-0.080901 -0.069075 0.048066
-0.066332 0.056349 -0.150453
-0.062467 -0.075212 -0.067929
-0.024186 0.033405 0.112580
-0.073181 0.013243 0.131315
0.106243 -0.000059 0.072807
-0.036499 0.071408 0.088962
-0.022412 -0.065742 0.108521
-0.080315 0.044108 0.132950
-0.005722 -0.071598 -0.150453
-0.056340 0.063281 0.111109
-0.102828 -0.026053 0.123392
-0.061395 0.065778 0.125847
0.104070 0.035441 0.067807
-0.001761 0.066631 0.042820
-0.058716 -0.061992 -0.150453
-0.096029 -0.053511 0.086378
-0.039012 0.055482 0.128335
-0.024388 -0.066126 0.111437
-0.062066 -0.073502 -0.050574
0.000302 0.031941 0.130241
-0.074945 -0.071137 0.099325
-0.103153 0.004941 0.108902
-0.092204 0.023436 0.119547
-0.039526 -0.034997 0.132455
-0.059816 0.061515 0.128832
0.104787 -0.031019 0.117467
0.000302 -0.032059 0.130241
-0.094406 -0.000059 0.128516
-0.099324 0.041413 0.078023
0.013162 -0.034988 0.031072
-0.110652 0.011082 0.079277
-0.036637 0.063113 0.126217
0.061445 -0.031641 0.153016
-0.110605 0.019192 0.079271
0.052991 0.009499 -0.078742
-0.060374 0.058336 -0.147953
-0.033218 -0.033528 0.117495
0.005373 0.068230 0.034932
0.046104 -0.029559 0.034921
0.038526 -0.049931 -0.044319
-0.020975 0.066663 0.075437
-0.091617 0.002554 0.129743
-0.042129 0.072587 -0.133819
-0.061843 -0.036791 0.133657
-0.056355 0.062384 0.113406
-0.077705 0.069867 0.099150
-0.102412 -0.048718 0.086495
-0.106230 -0.006928 0.086092
0.055487 0.009868 -0.078820
-0.023267 -0.067847 0.107979
-0.035045 0.070006 0.110089
0.090620 0.029441 0.134233
-0.023403 0.066683 0.099614
-0.006480 0.066618 0.047911
-0.070570 -0.039505 0.124108
-0.079056 -0.006000 0.127443
-0.061730 0.074923 0.098306
-0.061384 0.067987 0.123294
-0.032031 -0.033524 0.115444
0.008340 -0.070929 0.021502
-0.090868 0.055131 0.079347
-0.088749 0.013362 -0.156702
-0.003049 -0.074507 0.028199
0.015823 0.032996 0.006577
-0.060494 0.070038 0.120290
0.050885 -0.029675 -0.124177
-0.065221 0.043022 0.134796
-0.036564 -0.071550 0.088615
0.014057 -0.066413 0.001768
-0.075431 0.041362 -0.156702
-0.097806 0.050808 0.085536
0.084395 -0.031618 0.043805
0.010063 0.068354 0.031193
-0.031711 -0.035000 0.114788
-0.060249 -0.033599 0.124211
-0.109775 -0.019235 0.078871
-0.086823 -0.063818 0.014575
-0.033305 -0.033529 0.117885
0.076516 -0.031512 0.037908
-0.112232 -0.010435 0.082344
-0.085679 -0.066426 0.092910
-0.032670 0.070080 0.114286
0.050056 0.022378 -0.072983
-0.106810 -0.009289 0.041516
-0.038383 -0.067388 -0.156702
0.012519 -0.049993 0.026958
0.109764 -0.031015 0.093457
-0.099568 0.006250 0.129488
0.008429 -0.070830 0.021934
-0.011140 0.033410 0.056108
0.010829 -0.068504 0.025150
-0.024158 0.032333 0.113772
-0.058630 0.057410 -0.156702
0.034974 0.053917 -0.037016
-0.112153 -0.008777 0.082956
-0.062176 -0.037077 0.134308
-0.091226 0.062484 -0.018688
-0.094406 -0.000059 0.128516
-0.079891 0.038404 0.122956
0.013318 0.034877 0.028252
-0.032703 -0.068778 -0.156702
0.050334 -0.018835 -0.150453
0.014563 -0.066575 -0.133566
-0.109157 -0.030986 0.082454
-0.070363 -0.014600 0.124543
-0.068047 -0.071169 0.114274
-0.033545 0.068729 0.115597
-0.033090 -0.071894 -0.150453
-0.110705 0.005053 0.089555
-0.070122 0.070995 -0.050731
-0.082721 0.068028 0.093678
-0.004795 -0.029559 0.142947
0.045994 0.035441 0.032528
-0.063893 0.074516 0.096037
0.030923 0.029977 0.024746
0.045081 -0.034975 -0.147953
0.044470 -0.040209 -0.055805
-0.071197 0.061646 -0.133947
-0.033769 -0.031797 0.133150
-0.091382 0.048157 -0.083660
-0.104038 0.011725 0.083196
0.093474 -0.035559 0.051979
-0.056293 -0.066090 0.115768
-0.108318 0.026928 0.108396
0.042220 0.040132 -0.056923
0.045346 -0.031433 -0.156702
-0.022728 0.033401 0.111490
0.022351 -0.064994 -0.022244
0.090545 -0.035559 0.134159
-0.092473 -0.005220 0.132233
0.007963 -0.071592 0.016689
-0.063274 -0.037992 0.134886
0.053666 -0.000333 -0.079838
0.053647 -0.000059 -0.079767
-0.104609 -0.000059 -0.048807
-0.035400 0.073284 0.094057
-0.059354 -0.048280 0.132482
-0.059992 0.045733 0.134149
0.036979 0.035441 0.153064
-0.095426 -0.005059 0.122850
0.010063 0.068354 0.031193
-0.032591 -0.071408 0.113208
0.016324 0.032122 0.007376
0.025705 -0.030482 -0.015324
-0.069099 0.020464 0.124438
-0.030079 0.070437 0.111790
-0.021824 0.075995 0.047523
0.074356 0.031316 0.148641
-0.084541 -0.041590 0.119546
-0.067493 0.072968 0.094608
-0.067781 0.033986 0.134954
-0.037501 0.070221 0.118077
-0.034208 0.029441 0.131452
0.038916 0.044687 -0.147953
-0.079537 -0.067572 0.109686
-0.079443 0.048135 -0.150453
-0.086317 -0.004809 0.131141
0.109825 0.030899 0.092413
-0.059733 0.067235 0.097170
-0.024518 0.029441 0.135044
0.036545 0.030636 0.155259
-0.069017 -0.028833 0.127045
-0.022546 0.076146 0.047052
-0.106771 -0.030747 0.080405
0.051323 -0.017890 -0.075494
0.056095 -0.000059 -0.079437
-0.069420 0.060000 -0.133141
-0.053669 0.070864 0.082867
0.015379 0.031941 0.033397
-0.056311 -0.063432 -0.150453
-0.016553 0.034888 0.065241
-0.067664 -0.031319 0.133753
-0.037712 -0.076067 0.052197
-0.010217 -0.032453 0.056699
0.052428 0.022654 -0.072244
-0.062298 0.062704 0.107802
-0.037759 -0.078481 -0.014978
-0.045760 -0.075734 -0.015401
-0.011968 0.031941 0.088799
-0.101731 0.042127 0.078141
-0.062175 0.074803 0.096611
-0.086372 0.038308 -0.150453
-0.098156 -0.038948 0.085588
-0.098826 -0.050650 0.062190
-0.088749 0.013362 -0.156702
-0.104099 0.045112 0.084660
-0.036580 -0.071812 0.084364
0.030578 0.055001 -0.032943
-0.099392 0.047102 0.114431
-0.020196 -0.079005 -0.108051
-0.027335 0.075837 -0.118079
-0.059133 -0.067318 0.098694
-0.033578 0.071653 0.113580
0.036910 0.031941 0.153416
-0.059002 -0.068462 0.119295
0.010404 0.065559 0.033441
-0.101802 0.033500 0.080312
-0.100326 0.020563 0.127430
-0.051730 -0.000059 0.131548
0.034305 0.044852 -0.147953
-0.061601 -0.036911 0.132883
-0.035697 -0.076542 -0.134480
-0.045356 0.069866 -0.147953
-0.052461 0.061235 -0.156702
0.054768 -0.014646 -0.150453
0.053515 -0.007440 -0.089944
-0.112257 0.009478 0.083258
0.013780 0.063897 -0.156702
0.046109 0.035441 0.035025
-0.012694 0.075772 -0.150453
-0.045936 0.074736 0.018426
-0.111518 0.012128 0.094288
-0.059224 0.070899 -0.100838
-0.078550 0.049401 -0.150453
-0.074620 -0.013803 0.135156
-0.025002 0.068250 0.092627
-0.035194 -0.063430 0.123327
0.052830 -0.021905 -0.150453
0.102552 0.031118 0.064460
0.039360 -0.037089 -0.156702
0.109115 0.030878 0.102218
0.047042 -0.029559 0.151802
-0.099082 0.026105 0.127417
-0.066069 0.049410 0.122784
0.047716 -0.036640 -0.123016
0.012282 0.066989 0.006113
-0.028295 -0.067309 0.112787
0.002024 0.072860 -0.150453
-0.109953 0.023401 0.095128
0.012143 -0.066321 0.026858
-0.000722 0.035441 0.062433
0.110649 -0.030005 0.103787
0.108520 -0.030139 0.074171
-0.106146 0.006001 0.086905
-0.066587 -0.068038 -0.100618
-0.098439 0.004941 0.127988
-0.018672 -0.032059 0.108076
-0.092875 -0.006352 0.133242
-0.082919 -0.053884 0.127598
-0.027710 -0.075890 -0.150453
0.092928 -0.035559 0.055115
0.047492 0.017998 -0.062047
0.053210 0.009173 -0.074309
-0.036380 0.070602 0.101465
-0.093449 0.030984 -0.116035
-0.026447 0.069547 -0.156702
-0.058721 0.070129 0.110146
-0.110727 -0.007190 0.111577
0.046899 -0.031116 -0.066632
-0.107302 0.026528 0.043195
0.046104 0.029441 0.034921
0.007873 0.069634 -0.132882
0.078505 0.035441 0.040200
-0.104878 -0.018000 -0.021574
-0.071451 -0.024614 0.134530
0.026284 -0.058839 -0.023704
-0.072808 0.052669 -0.147953
-0.020196 -0.078537 -0.014361
0.011305 0.033410 0.034004
0.076939 -0.029812 0.036996
0.056013 0.035441 0.153796
-0.038499 0.048129 0.132209
-0.100464 0.005104 0.127364
-0.037759 0.078363 -0.014978
-0.096775 0.033422 0.127442
0.021877 0.055917 -0.156702
0.075078 0.029441 0.145595
-0.093757 -0.015456 0.119617
-0.074658 -0.070181 0.093093
-0.034080 -0.071062 -0.156702
-0.095181 0.014401 -0.150453
-0.034552 -0.068729 0.117803
-0.009414 -0.035559 0.088990
-0.099501 -0.002309 0.112916
-0.070797 0.027915 0.134906
-0.092364 -0.056025 0.087687
-0.102842 0.035395 0.118950
0.110807 -0.030068 0.083887
0.013525 -0.032450 0.033490
0.109134 -0.031058 0.084149
-0.056416 -0.059041 0.118375
-0.106856 -0.038390 0.082993
-0.071592 -0.051158 0.132847
-0.061936 0.074912 0.098010
-0.061106 -0.033133 0.124219
0.108556 0.030877 0.105175
0.056174 -0.000059 -0.079840
-0.059688 -0.071798 0.116065
-0.081527 0.060744 -0.083866
-0.065928 -0.072885 0.109059
-0.110997 0.007874 0.082016
-0.112160 -0.007340 0.085695
0.008222 -0.071166 0.019211
-0.070943 0.070619 0.093643
-0.094473 0.050024 -0.051421
-0.009261 -0.035007 0.052911
0.038916 0.044687 -0.147953
0.093185 -0.029505 0.048649
-0.035691 0.073993 0.086456
-0.060272 -0.038404 0.130878
-0.112232 0.010316 0.082344
-0.111226 -0.006017 0.086039
-0.066432 0.032692 0.133725
-0.077073 -0.056649 -0.133845
-0.105336 0.005105 0.121820
-0.049152 -0.069503 0.116802
0.040769 -0.031992 0.153754
-0.103266 -0.005059 0.123306
-0.100849 0.048902 0.084668
-0.059071 -0.064489 0.114623
0.008429 -0.070830 0.021934
-0.085943 0.006212 0.135040
0.074369 -0.031434 0.148670
-0.025858 0.075705 0.054219
-0.094521 -0.058430 0.046469
0.030863 0.031941 0.027131
0.030676 0.054658 -0.032741
-0.059698 0.070893 0.117852
-0.005870 -0.000059 0.145635
0.087205 -0.031562 0.046011
-0.109308 -0.009407 0.041456
0.090120 0.031385 0.048532
-0.015403 0.068127 0.058827
-0.102916 -0.044984 0.083507
-0.108518 -0.018048 0.042338
-0.085019 0.063535 -0.067984
-0.067354 -0.031478 0.132978
0.050620 0.021775 -0.147953
0.037326 0.048113 -0.119582
-0.071496 0.028237 0.135054
-0.058716 0.070394 0.108306
-0.020205 -0.076708 -0.099220
-0.070570 -0.039505 0.124108
-0.084852 0.052855 -0.117172
-0.011189 0.073486 0.033219
0.003171 0.066643 -0.147953
-0.111528 -0.006381 0.099407
-0.071822 0.072569 0.095844
-0.109081 0.004941 0.108853
-0.096454 0.057128 0.089261
-0.107342 -0.009709 0.081508
-0.032485 0.069351 0.114328
-0.062915 -0.074812 0.096250
-0.108358 -0.005059 0.113090
0.039653 -0.044162 -0.051555
-0.030529 0.074803 0.066510
-0.037906 -0.062164 0.127638
-0.061507 0.049970 0.134209
0.050494 0.021876 -0.085652
-0.036786 0.073585 0.094079
-0.079991 -0.036279 0.134443
-0.071491 -0.070077 0.081576
-0.105248 -0.017367 0.075932
-0.005700 0.070947 -0.156702
-0.063128 -0.071026 0.094497
-0.031718 -0.071258 0.112383
0.105804 -0.035559 0.080723
-0.059163 -0.070377 0.117552
-0.020200 0.076515 -0.102834
-0.095285 0.007033 0.132295
-0.070816 0.050450 -0.156702
-0.060493 0.060619 -0.150453
-0.099836 0.004941 0.118012
0.075529 -0.029559 0.039083
-0.031683 0.034882 0.114808
0.009179 0.068739 0.020877
-0.013565 0.073833 -0.147952
-0.075044 0.008922 0.131391
0.050397 -0.028975 -0.150453
-0.078577 -0.049488 -0.150453
-0.023173 -0.065700 0.099599
0.030659 -0.054793 -0.032706
0.041658 0.045754 -0.051612
0.109764 -0.031015 0.093457
-0.104000 0.037493 0.082073
0.030094 0.029441 0.027830
-0.100849 -0.049021 0.084668
-0.090490 -0.045585 0.127560
-0.094032 -0.059737 0.089390
-0.112114 -0.006719 0.088040
-0.079443 0.048135 -0.150453
-0.002859 -0.032059 0.144227
0.009566 -0.068861 0.017865
-0.103080 -0.046297 0.084264
-0.038909 0.068171 -0.147953
-0.104609 -0.000059 -0.048807
0.043357 0.030844 0.155805
-0.056838 -0.034871 0.128440
-0.054477 -0.072986 0.050502
-0.105204 0.005419 0.090047
-0.043202 -0.070054 0.117209
-0.066312 -0.056444 -0.150453
-0.071661 -0.002309 0.129008
-0.059051 -0.065665 0.123159
0.094489 -0.031140 0.133799
-0.074620 -0.013803 0.135156
-0.110997 0.007874 0.082016
-0.108536 -0.006928 0.084418
0.092402 -0.029520 0.047987
-0.107502 -0.005224 0.117921
0.053975 -0.000059 -0.147953
-0.042244 -0.048059 0.129125
-0.005388 0.076507 -0.012332
-0.059102 0.073725 0.099740
-0.061350 0.073912 0.108816
-0.018713 0.032334 0.075655
0.050060 0.022466 -0.073120
0.000629 -0.072475 -0.014408
-0.064111 0.074184 0.049680
-0.074945 -0.071137 0.099325
-0.102352 0.041917 0.083077
-0.064491 0.030513 0.124263
-0.103934 0.009598 0.084013
-0.111633 0.009198 0.081196
-0.083459 -0.062412 -0.084438
-0.043516 0.062832 0.122736
-0.111234 0.013803 0.078909
-0.038642 0.033807 0.132656
-0.059552 -0.045808 0.133498
-0.110554 0.023228 0.080450
-0.060494 0.070038 0.120290
0.018022 -0.032059 0.040748
-0.093890 0.039885 0.127499
0.046868 0.036966 -0.062029
-0.106142 -0.006120 0.086907
0.025872 0.030961 0.153550
-0.103890 0.013443 0.082766
-0.078786 -0.045813 0.132933
-0.059665 0.073499 0.108774
-0.058969 -0.070338 0.115490
-0.065707 -0.028936 0.124292
0.007914 -0.070765 -0.091925
0.064349 0.029919 0.032245
-0.104872 0.002191 0.107890
-0.090660 0.038300 -0.116157
-0.085943 -0.006331 0.135040
