-0.061294 -0.032144 0.012374
-0.049899 -0.057982 0.018624
-0.015551 0.074475 0.250003
-0.040409 0.055533 0.301599
0.063552 0.030904 0.324882
-0.018327 -0.034465 0.301588
0.080798 0.029500 0.202834
0.052441 -0.031021 0.194892
-0.018816 0.055541 0.297412
-0.055005 -0.044738 0.021124
0.007561 -0.078400 0.057753
0.126814 0.000000 0.288684
0.117104 0.029500 0.225754
-0.018294 0.052398 0.300839
-0.040457 -0.044611 0.303694
-0.016222 0.041512 0.300124
-0.053284 -0.049960 0.301947
0.013416 -0.029500 0.244228
0.102544 0.031598 0.211533
-0.015879 0.073577 0.263150
0.115315 -0.031342 0.222708
-0.062099 0.004780 0.296290
0.001448 0.029500 0.233333
-0.041387 0.074284 0.084336
-0.023107 0.074884 0.034707
-0.040497 -0.072930 0.264914
-0.057623 0.047202 0.021124
-0.039061 0.060135 0.012374
-0.074985 0.014461 0.018624
-0.001217 -0.032390 0.280698
-0.071556 -0.002250 0.291264
-0.018678 -0.029500 0.299214
-0.087106 -0.026588 0.212271
0.121923 0.029269 0.228262
-0.022511 -0.048042 0.300657
-0.074059 0.035999 0.276923
-0.071993 -0.058246 0.117418
-0.000020 -0.076754 0.108943
-0.006546 0.072658 0.018628
-0.009883 -0.070497 0.280867
-0.034544 -0.074310 0.186704
0.029375 -0.068798 0.189954
-0.065213 -0.026700 0.292171
-0.000600 -0.065730 0.244566
0.100266 0.029696 0.207747
-0.061878 0.034516 0.021124
0.033487 -0.034938 0.197223
0.086315 0.029500 0.318283
0.033759 -0.033459 0.200291
0.030925 -0.066113 0.018624
0.073961 -0.018414 0.093898
-0.070172 -0.054668 0.254893
0.001523 -0.032000 0.276511
-0.036240 -0.057840 0.293743
0.015095 0.034948 0.216451
-0.076500 0.000000 0.018624
-0.014012 0.029500 0.300528
0.036953 0.030653 0.174900
0.128403 0.029500 0.251032
-0.069728 0.061022 0.183279
-0.079448 -0.051960 0.182000
-0.068044 0.030595 0.302145
0.027537 0.069097 0.185037
-0.015701 0.068620 0.283702
-0.085761 -0.027292 0.249616
-0.040324 -0.067093 0.293505
-0.000015 0.074773 0.189951
-0.058654 -0.053078 0.283553
-0.042443 -0.072753 0.263903
0.032339 -0.066262 0.195934
-0.083648 0.004818 0.261823
0.067094 -0.031057 0.102444
0.065430 0.031020 0.196916
0.000400 -0.032000 0.265309
-0.032935 0.055629 0.298014
0.031163 0.067798 0.200742
-0.042443 0.072753 0.263903
0.055170 0.053976 0.132061
-0.043937 -0.066591 0.263782
0.119023 -0.029330 0.224297
0.097057 0.000000 0.205454
-0.083690 0.005164 0.292879
-0.077255 -0.010375 0.299937
0.004828 0.000000 0.308452
-0.039033 0.066250 0.292792
0.046493 0.058768 0.145343
-0.033507 -0.063483 0.012374
0.044223 -0.061852 0.156216
-0.013843 0.071011 0.012374
-0.082793 -0.043376 0.213932
-0.046116 -0.056384 0.018624
-0.054669 -0.069276 0.262010
-0.051263 -0.073210 0.117997
-0.039860 -0.039668 0.295931
0.000968 -0.032000 0.279780
-0.018337 0.034932 0.301598
-0.057429 0.061787 0.292849
-0.020416 0.069204 0.012374
0.082238 -0.029500 0.321438
-0.029582 0.000000 0.298161
-0.055088 0.042251 0.303429
-0.080211 -0.006674 0.276648
-0.042085 -0.064186 0.296286
-0.036367 0.050579 0.292385
0.024694 0.032000 0.315751
0.015726 -0.072466 0.196515
-0.090509 0.005112 0.258631
0.071254 0.014034 0.012374
0.075482 0.014984 0.042486
-0.085488 -0.005000 0.288816
-0.015970 -0.069220 0.283236
-0.006159 0.029500 0.303361
-0.041144 -0.073756 0.264657
-0.003780 -0.033464 0.281543
0.009082 0.076048 0.202673
-0.039008 0.067785 0.290866
-0.039556 0.066779 0.293244
-0.089821 -0.008843 0.249903
-0.014157 0.000000 0.303702
-0.041535 0.036625 0.301963
-0.070375 0.062360 0.258933
-0.018328 0.034466 0.301588
0.037762 0.000000 0.172626
0.129769 -0.030976 0.257601
-0.051510 0.072617 0.264235
0.018148 0.000000 0.313615
-0.018948 -0.050262 0.298672
-0.015504 0.030336 0.302668
0.073962 0.018410 0.093896
-0.034357 0.073340 0.252050
-0.026637 0.071712 0.018624
-0.086614 0.009230 0.210592
-0.071993 -0.058246 0.117418
0.074754 -0.029500 0.201234
-0.052985 0.013302 0.300392
-0.090977 0.019258 0.249076
-0.049101 -0.040651 0.303915
0.065542 -0.031374 0.012374
0.086466 0.031503 0.320814
0.063490 -0.043250 0.114189
-0.033365 -0.071276 0.277213
-0.079239 0.048137 0.253785
0.061967 0.023071 0.119298
-0.092053 0.007989 0.255051
-0.066791 0.043242 0.299746
0.099708 -0.031295 0.315140
0.000000 -0.078945 0.061026
0.086351 -0.031505 0.320901
-0.091081 -0.005568 0.256880
-0.014138 0.032149 0.301131
-0.015371 -0.060510 0.294804
-0.036091 -0.066383 0.284242
-0.086416 -0.009336 0.178155
-0.091527 -0.005905 0.259646
-0.039440 -0.074484 0.268885
0.106687 0.031517 0.214527
0.077143 0.031738 0.200312
0.026370 0.066733 0.205136
-0.014975 0.074899 0.018624
-0.064345 -0.041531 0.288622
0.026568 0.035500 0.218763
0.119502 0.000000 0.223926
-0.054518 0.044229 0.291963
0.029442 -0.068680 0.190256
0.123242 0.029500 0.240551
0.073821 0.000269 0.089369
-0.047105 -0.072443 0.263378
0.032498 0.066868 0.175236
0.046493 0.058768 0.145343
-0.077617 -0.042450 0.117448
-0.043148 -0.074680 0.265200
-0.016537 0.034925 0.300758
-0.074718 -0.025222 0.299779
-0.075160 0.044783 0.255943
-0.077040 0.005622 0.299645
-0.065416 0.062369 0.283916
-0.088581 0.012370 0.248312
0.022220 0.072919 0.018624
0.053385 0.031020 0.195033
-0.080031 -0.043048 0.117029
0.052492 -0.053257 0.033507
0.027469 -0.068950 0.185842
0.037762 0.000000 0.172626
-0.061316 0.013298 0.304392
-0.084524 -0.026648 0.179816
-0.006361 -0.070376 0.021124
0.036184 -0.032000 0.201153
0.074964 0.014587 0.018624
0.057640 -0.029500 0.319791
0.027440 -0.071738 0.188155
-0.083690 -0.005164 0.292879
-0.083912 -0.009650 0.252951
-0.059284 -0.066829 0.249965
0.127090 0.030943 0.280905
-0.061721 0.038847 0.018624
-0.021443 -0.069937 0.277401
-0.058480 -0.067621 0.261202
0.030948 0.049934 0.202623
-0.079330 -0.002814 0.293788
0.029328 0.069001 0.188433
-0.039526 -0.074547 0.267922
0.098701 0.035500 0.209276
-0.039405 0.042827 0.302642
-0.066782 0.049907 0.296673
-0.018728 0.063667 0.295541
-0.090331 0.012383 0.247862
-0.022691 0.000000 0.301601
-0.039084 -0.052470 0.300636
-0.057510 0.069927 0.268226
-0.082329 0.023152 0.252440
-0.042954 -0.064244 0.035778
-0.082189 0.000000 0.092358
0.076219 -0.007592 0.078332
-0.085813 0.032038 0.282920
0.020029 0.067731 0.021124
0.123614 0.030972 0.289653
-0.052787 -0.052570 0.021124
-0.048189 0.072129 0.278265
-0.048954 0.029760 0.303513
-0.040106 0.067255 0.265514
-0.074840 0.005619 0.300879
-0.038942 0.071885 0.282579
-0.040011 0.071745 0.265427
0.021876 0.073507 0.192830
0.043251 0.064239 0.154989
-0.077040 -0.005622 0.299645
0.027574 0.071482 0.190897
0.030584 -0.068655 0.199243
-0.042184 0.074927 0.266634
-0.079129 -0.041472 0.247099
-0.089573 0.005774 0.255021
0.009056 -0.033470 0.225184
-0.063814 0.064677 0.259838
-0.077452 0.046232 0.288357
0.052057 0.053773 0.133454
-0.088841 0.010148 0.249293
0.073065 0.000000 0.323284
-0.041603 -0.060943 0.283141
-0.035136 -0.075364 0.219579
0.037218 -0.032000 0.172373
-0.014701 0.031891 0.301949
0.084482 -0.030963 0.201594
0.037254 -0.064862 0.164836
0.052492 0.053257 0.033507
-0.066844 0.019727 0.012374
-0.088238 -0.031018 0.249934
0.056491 -0.048835 0.124214
-0.038903 -0.048516 0.299581
-0.017050 -0.033243 0.301708
0.072676 -0.022983 0.096427
-0.051263 0.073210 0.117997
-0.013286 0.071916 0.282346
0.124312 0.031140 0.236863
-0.036269 0.056168 0.289804
0.034041 0.033459 0.199049
0.106649 0.035500 0.214577
-0.013427 -0.034945 0.286463
-0.039084 -0.052470 0.300636
-0.064352 0.034186 0.018624
-0.091952 -0.008877 0.251817
-0.078243 -0.005000 0.297064
-0.023844 -0.076180 0.050955
-0.023556 0.000000 0.298755
-0.074820 0.005000 0.292247
-0.052521 -0.072229 0.217946
-0.045098 0.033822 0.302781
0.028262 -0.070794 0.193345
-0.062856 -0.067186 0.267869
0.022536 0.035500 0.297767
-0.088841 0.010148 0.249293
0.055699 0.047169 0.018624
-0.018029 -0.058547 0.298806
-0.080217 0.038026 0.250215
0.128194 -0.029123 0.241262
-0.000002 0.075770 0.043382
-0.078575 0.051885 0.149552
0.030492 -0.066743 0.202302
-0.043808 0.034782 0.302763
-0.038743 -0.071991 0.277681
-0.079330 0.002814 0.293788
-0.065635 0.036097 0.302094
0.026513 -0.064678 0.012374
-0.008936 -0.075671 0.228010
-0.039126 -0.050058 0.301241
-0.084387 0.035411 0.148415
0.007501 -0.075832 0.018624
-0.081476 -0.025333 0.085149
-0.016654 0.034924 0.300866
0.029169 -0.069926 0.190247
-0.038907 -0.073784 0.268816
-0.056930 0.067495 0.283723
0.021920 -0.073460 0.193222
0.128793 0.000000 0.241042
0.056716 0.030035 0.324457
0.042020 0.061918 0.154958
0.076870 0.035500 0.320267
-0.047037 -0.026162 0.293416
-0.010218 0.000000 0.302366
-0.088088 -0.011777 0.248992
0.124069 -0.029500 0.287437
0.057333 -0.048443 0.091290
0.005937 0.065761 0.228537
0.013889 0.075207 0.080688
0.006315 0.070371 0.021124
-0.039005 0.057011 0.292189
-0.010457 0.029500 0.280589
-0.089349 -0.005165 0.280441
-0.074520 -0.057752 0.266917
-0.053454 -0.043528 0.012374
-0.071987 -0.005000 0.300581
0.028536 0.070870 0.190579
0.101939 0.029312 0.316109
-0.012472 -0.071610 0.282056
0.000002 0.076356 0.212726
0.072164 0.007105 0.012374
0.018423 -0.066690 0.211908
-0.017111 0.029500 0.299618
-0.071421 -0.002613 0.298820
0.019975 -0.067021 0.012374
-0.018097 -0.034036 0.301701
-0.014445 0.071538 0.018624
-0.087473 -0.005000 0.284450
-0.003899 0.029500 0.276469
-0.051294 -0.069987 0.217922
-0.040299 -0.070097 0.289366
-0.041740 -0.074971 0.267087
-0.018187 -0.067329 0.012374
-0.059777 0.021714 0.304246
-0.074094 0.055995 0.278782
-0.036410 -0.048086 0.292897
0.127750 0.000000 0.278835
-0.040011 0.071745 0.265427
0.104766 -0.030247 0.313935
0.032460 0.067027 0.199608
-0.005175 0.034948 0.281664
-0.072960 0.001503 0.018624
-0.074210 0.000000 0.297592
-0.049401 0.052151 0.301898
0.073695 -0.004964 0.089345
-0.059696 0.038464 0.292033
-0.013022 -0.033468 0.286571
0.073144 0.022508 0.082567
0.109052 0.000000 0.311695
-0.065996 -0.038967 0.288613
-0.031534 0.000000 0.298124
0.065584 -0.035651 0.047135
-0.088282 -0.021835 0.282708
-0.064407 -0.064463 0.278888
-0.016767 -0.073507 0.221298
-0.013522 0.034948 0.286888
0.031784 -0.065658 0.201480
-0.090691 0.008926 0.249955
-0.062179 0.031522 0.303589
0.121732 -0.035500 0.287471
-0.047818 0.031525 0.303481
-0.077040 0.005622 0.299645
-0.015729 -0.069311 0.282939
-0.001325 -0.065720 0.247832
-0.036271 0.056040 0.294827
-0.086141 -0.007125 0.291562
0.051547 0.000000 0.321782
-0.007289 0.072620 0.018624
0.012877 -0.068148 0.216293
0.073025 0.021846 0.018624
-0.072441 0.008815 0.018624
-0.078886 -0.026164 0.296494
0.076143 0.005237 0.089832
-0.077773 -0.007846 0.053464
-0.035026 0.068544 0.285939
-0.013545 0.071057 0.012374
0.064863 0.026582 0.012374
-0.069093 0.027496 0.302178
-0.079197 -0.051241 0.214743
-0.032500 0.075448 0.067573
-0.050610 -0.045811 0.303370
0.033487 -0.034938 0.197223
0.029762 -0.068802 0.186941
0.126136 0.035500 0.283442
-0.015572 -0.073093 0.270780
-0.058071 0.067829 0.261301
-0.054464 -0.017985 0.304311
-0.040009 0.039590 0.302690
-0.077960 0.038888 0.254665
0.021000 0.066757 0.012374
-0.082788 -0.017030 0.085256
0.021042 0.073271 0.103012
-0.079129 0.041472 0.247099
-0.060642 -0.040376 0.018624
0.038395 0.031864 0.169848
-0.065280 0.005000 0.296293
-0.085813 0.032038 0.282920
0.051059 0.032000 0.196207
0.029381 0.068985 0.188101
0.004320 0.065757 0.231617
0.039512 0.035500 0.212034
0.026611 -0.065380 0.021124
-0.018067 0.029500 0.298815
0.081225 -0.031056 0.200678
0.017353 -0.035500 0.230186
0.056491 -0.048835 0.124214
-0.058388 -0.006092 0.300518
0.129179 -0.031003 0.252700
-0.016440 0.076441 0.119028
-0.046773 -0.071821 0.263315
-0.014157 0.000000 0.303702
-0.087384 -0.026918 0.248903
0.033061 0.034948 0.196128
-0.076282 0.053354 0.278671
-0.046784 -0.065854 0.263412
0.067762 -0.018192 0.012374
-0.012803 -0.069198 0.283896
-0.016940 -0.031186 0.302229
-0.050704 0.061193 0.296486
0.059518 0.049716 0.090320
-0.047468 -0.031260 0.302830
-0.042114 0.032419 0.297558
0.032345 0.035500 0.307859
-0.089405 0.012314 0.247887
0.036018 0.033056 0.175653
0.008967 -0.035500 0.272541
-0.079749 -0.005000 0.295844
0.066663 -0.035500 0.323256
-0.063627 0.047199 0.299743
-0.004191 0.068288 0.254644
-0.079115 0.025259 0.296494
-0.018214 0.041512 0.301428
-0.048566 -0.062068 0.296437
-0.043694 -0.074556 0.265123
-0.068567 -0.033928 0.288600
0.019385 -0.029500 0.231454
-0.039454 -0.074031 0.273369
0.130845 -0.029945 0.272864
-0.015127 -0.031223 0.302518
-0.063627 0.047199 0.299743
-0.085437 0.007124 0.292525
0.062134 -0.044799 0.118325
-0.012465 0.069348 0.283557
-0.036642 -0.034811 0.293265
0.117104 0.029500 0.225754
-0.058891 -0.024824 0.293440
-0.090613 -0.011209 0.277290
-0.044407 -0.035705 0.303846
-0.087170 -0.023449 0.248879
-0.066782 -0.049907 0.296673
0.034072 -0.064446 0.018624
-0.074985 -0.014461 0.018624
0.126469 0.031085 0.242096
0.018109 -0.067526 0.211584
-0.059118 0.005995 0.303263
0.054641 -0.055229 0.049458
-0.038829 0.067090 0.290365
0.032249 -0.065720 0.200696
-0.085369 -0.041810 0.252875
-0.046330 -0.068228 0.051437
-0.042719 -0.074753 0.265327
-0.079330 -0.002814 0.293788
-0.004399 -0.032000 0.284561
0.006585 -0.076420 0.082454
0.033502 0.029500 0.174627
-0.040331 -0.073111 0.067734
-0.068574 0.013288 0.012374
-0.048954 0.029760 0.303513
0.050634 -0.031020 0.193688
-0.083690 0.005164 0.292879
0.077054 0.000000 0.044472
-0.091038 0.013863 0.247985
-0.054736 0.070698 0.262468
-0.014384 -0.069228 0.281933
-0.068575 -0.013288 0.012374
0.034293 0.032390 0.201733
0.129769 -0.030976 0.257601
-0.041200 -0.065838 0.294924
-0.091438 0.009258 0.250272
-0.054018 -0.070026 0.278551
0.007384 -0.077811 0.159337
0.071374 -0.026463 0.099349
-0.077804 -0.029938 0.296501
0.033345 0.033460 0.201186
-0.011040 -0.075195 0.235368
0.071601 0.014032 0.018624
-0.091332 0.006322 0.268483
0.060133 0.030963 0.324556
-0.077163 -0.033065 0.085573
-0.047585 0.034046 0.304030
-0.012534 0.074502 0.242763
-0.009883 -0.070497 0.280867
-0.062714 -0.067199 0.117707
0.072496 0.022435 0.097213
-0.041200 0.065838 0.294924
-0.085717 -0.030719 0.249891
0.124266 0.035500 0.236884
0.105723 -0.029594 0.211250
-0.081061 0.007112 0.297350
-0.019901 -0.048162 0.301158
0.008228 -0.032000 0.257875
0.075428 0.009582 0.091455
-0.080160 0.047633 0.278382
0.047141 -0.058831 0.051831
-0.039572 0.065499 0.294616
0.013220 -0.068657 0.012374
-0.047851 -0.071110 0.283350
-0.088164 0.009002 0.250398
-0.056877 0.056590 0.035232
0.072624 -0.022713 0.096832
-0.061531 0.062597 0.288603
-0.042914 -0.071878 0.218744
-0.042884 0.074270 0.264489
0.034833 -0.067166 0.054176
-0.013985 -0.072880 0.021124
-0.084832 0.002881 0.286197
0.071081 0.029616 0.044900
-0.039053 0.065002 0.294133
-0.054462 -0.070122 0.262170
-0.065747 -0.006272 0.304117
-0.079583 0.052014 0.255093
0.129795 -0.030941 0.267763
-0.015268 -0.033470 0.299207
-0.089323 0.005000 0.259971
-0.016573 0.033495 0.301322
-0.006494 0.072107 0.012374
0.040649 0.000000 0.322224
0.003855 0.000000 0.310643
-0.006354 0.070325 0.021124
0.030024 -0.034942 0.189180
-0.088088 0.011777 0.248992
-0.076638 0.041905 0.255284
-0.078184 -0.007552 0.035978
0.072986 0.000000 0.018624
-0.016222 -0.041512 0.300124
0.016760 0.031020 0.314924
0.107328 0.031505 0.214964
-0.091332 -0.006322 0.268483
-0.085369 -0.041810 0.252875
-0.017262 0.078910 0.118801
-0.072277 0.005160 0.301309
0.005791 -0.066696 0.228457
-0.091505 0.008308 0.251376
0.075358 0.013112 0.018624
-0.058853 0.069898 0.263593
0.068489 -0.015118 0.012374
-0.072521 0.005615 0.301921
-0.036251 0.067717 0.035606
0.062401 -0.040106 0.112215
-0.038520 -0.070453 0.277382
-0.002099 -0.033459 0.280049
0.038249 0.035500 0.209877
0.084592 0.031933 0.203506
-0.076274 0.005000 0.298415
-0.067857 0.014654 0.292345
-0.054239 0.055930 0.283484
0.057333 0.048443 0.091290
-0.018067 0.029500 0.298815
0.120277 0.031234 0.229353
-0.085947 -0.006061 0.255984
-0.059841 0.065966 0.283813
-0.072726 -0.007083 0.302437
0.097057 0.000000 0.205454
-0.028267 0.055496 0.295768
-0.058379 -0.068474 0.261349
-0.057635 0.009189 0.304464
-0.010457 0.029500 0.280589
-0.076476 -0.001347 0.018624
0.006537 -0.072659 0.018628
-0.085887 -0.014825 0.250106
0.072877 0.015261 0.103415
-0.040264 -0.073956 0.277893
-0.079134 -0.035738 0.254091
-0.050747 -0.070678 0.262719
-0.055012 -0.071461 0.264344
-0.004322 -0.029500 0.304120
-0.063156 0.005600 0.303906
0.072300 -0.016021 0.104652
-0.068740 -0.006202 0.292483
0.034790 -0.032390 0.200657
-0.055472 0.033285 0.304044
-0.086034 0.006869 0.255168
-0.086660 0.038330 0.252070
-0.081432 -0.045677 0.252759
0.022506 0.073194 0.193255
-0.090003 -0.005633 0.280558
0.016235 -0.032393 0.217448
-0.014006 -0.029500 0.300530
-0.003971 -0.029500 0.277635
-0.039860 -0.039668 0.295931
-0.077255 -0.010375 0.299937
-0.051333 -0.072379 0.263607
-0.017041 0.056162 0.299322
0.122952 0.029033 0.294936
-0.028548 0.071904 0.277153
-0.065009 0.028079 0.021124
0.122144 0.035500 0.292121
-0.005067 -0.033470 0.282068
-0.058999 0.068427 0.151472
-0.062036 0.005774 0.293772
0.059850 -0.044288 0.117392
0.052015 -0.032000 0.196558
-0.042545 0.063254 0.018624
0.032280 -0.029500 0.307941
0.018121 0.067526 0.211573
-0.057969 0.068643 0.101111
-0.039374 -0.044573 0.302611
-0.032435 -0.068886 0.276975
-0.068099 0.064389 0.216344
0.017992 -0.074457 0.195980
0.027440 0.071738 0.188155
-0.000020 -0.076754 0.108943
-0.014696 0.032391 0.300827
-0.047849 -0.041512 0.303900
-0.087793 0.034736 0.251328
-0.011998 0.071692 0.280261
0.019385 -0.029500 0.231454
-0.039694 -0.055368 0.301211
-0.080217 0.038026 0.250215
-0.071030 0.062544 0.150389
-0.046330 -0.068228 0.051437
0.047055 0.059176 0.095106
-0.038872 0.064625 0.283279
0.029146 0.000000 0.317084
0.022506 0.073194 0.193255
-0.039770 0.048432 0.302987
-0.049223 0.071374 0.084437
-0.054992 -0.071125 0.262965
-0.082544 -0.005628 0.295187
0.071255 0.014031 0.012374
-0.038525 0.070188 0.279223
0.038085 0.000000 0.175699
-0.090082 0.007131 0.282703
-0.089757 -0.023460 0.264204
-0.072778 0.039102 0.052219
0.114279 0.000000 0.303295
-0.087071 -0.034637 0.265045
0.008588 0.068159 0.221884
0.029309 0.068973 0.189185
0.032860 -0.032000 0.205275
0.081086 0.031730 0.201379
-0.018336 -0.034932 0.301598
-0.073411 0.060185 0.259449
-0.054018 -0.070026 0.278551
0.068653 0.028619 0.030801
0.075930 -0.007612 0.089839
-0.080225 0.051958 0.256571
-0.083965 -0.005480 0.259748
-0.091971 0.007916 0.253336
-0.040382 -0.059632 0.299634
-0.016786 -0.075930 0.154264
0.087269 0.031884 0.204239
-0.038773 -0.070279 0.284566
-0.013251 -0.071286 0.283201
-0.016246 0.073146 0.270840
-0.056323 0.066752 0.101569
0.033513 0.034937 0.197329
0.059104 0.000000 0.197537
-0.007514 -0.075831 0.018624
-0.039666 0.057764 0.300159
-0.038520 0.070453 0.277382
-0.008186 -0.075536 0.228345
-0.023844 0.076180 0.050955
-0.091674 0.015073 0.249617
-0.016327 -0.050389 0.299829
0.034461 -0.066868 0.149714
-0.050610 0.045811 0.303370
-0.083915 0.009650 0.252949
-0.039646 0.059413 0.299280
0.087833 0.029920 0.202324
-0.078243 -0.005000 0.297064
-0.013197 0.072155 0.281063
0.073187 -0.009558 0.090334
-0.081719 0.044777 0.278230
-0.018230 0.029500 0.299104
-0.066782 -0.054951 0.085324
0.096275 -0.031718 0.207869
0.073429 0.031718 0.323249
-0.068984 0.061073 0.150669
0.006423 -0.075390 0.159987
0.052441 0.056924 0.136397
-0.058667 -0.041106 0.012374
-0.048753 0.032660 0.304054
-0.089672 -0.009983 0.248988
-0.083738 0.009658 0.253089
-0.053075 0.017695 0.303727
0.081096 0.031711 0.201332
0.052602 -0.053768 0.050665
-0.063128 -0.005156 0.303252
-0.051666 0.071290 0.185156
0.024616 0.032000 0.211273
0.131437 0.029990 0.256472
-0.087972 0.004750 0.260577
-0.090199 -0.013742 0.247594
0.032860 -0.032000 0.205275
0.072713 0.014280 0.021124
-0.080653 -0.048961 0.253744
-0.077523 0.007101 0.299978
-0.008099 -0.067250 0.281863
-0.017010 -0.034924 0.301099
-0.039536 0.068354 0.291271
-0.016397 0.071458 0.284371
-0.051626 -0.072629 0.264921
-0.082801 -0.045481 0.265889
0.065696 -0.024670 0.012374
-0.013251 0.071286 0.283201
-0.091916 -0.009774 0.250794
-0.021896 -0.070990 0.021124
-0.003962 0.032392 0.282849
-0.033520 0.074994 0.118667
-0.079981 0.034602 0.292567
0.067143 -0.020133 0.012374
-0.089502 -0.006074 0.254254
0.001483 -0.032393 0.244732
0.117665 -0.031291 0.225718
-0.042016 -0.044345 0.303851
-0.012106 -0.069290 0.283269
-0.071922 -0.026043 0.018624
-0.062215 -0.002250 0.293834
0.028262 0.070794 0.193345
-0.084538 0.006320 0.293559
-0.018160 0.056367 0.299731
0.074554 0.000000 0.044465
-0.016020 -0.034932 0.300083
-0.052495 0.037528 0.303970
-0.034288 0.075029 0.153106
0.072944 -0.014429 0.029407
-0.016239 0.033457 0.301063
0.039394 0.060888 0.012374
-0.016689 0.071215 0.285016
0.029255 0.069823 0.190602
-0.041235 -0.055261 0.301791
0.032894 -0.065950 0.198341
-0.049519 -0.030090 0.303945
-0.079346 0.000000 0.293771
-0.072778 0.039102 0.052219
-0.067768 0.064384 0.259797
0.130021 0.030958 0.261489
-0.045178 0.029471 0.297609
0.011329 -0.029500 0.272142
-0.068034 -0.005158 0.302614
-0.013257 0.032000 0.301272
0.013416 -0.029500 0.244228
0.020668 -0.069385 0.012374
-0.013862 -0.069700 0.285083
0.014474 -0.071538 0.018624
0.125136 -0.035500 0.278450
0.067399 0.035725 0.018624
-0.091447 0.007125 0.268489
-0.014701 0.031891 0.301949
0.098320 -0.035500 0.211936
-0.068095 0.064549 0.260452
-0.042884 0.074270 0.264489
-0.012030 0.032393 0.287151
-0.039028 0.070958 0.068238
-0.043431 0.043793 0.303860
-0.062099 -0.004780 0.296290
0.029309 0.068973 0.189185
0.036812 -0.030909 0.173853
0.128405 -0.031030 0.248455
0.009623 -0.065766 0.222604
-0.090331 -0.012383 0.247862
-0.050569 -0.050460 0.012374
-0.055076 -0.047778 0.018624
-0.067606 0.054711 0.258806
-0.077357 -0.050012 0.283629
-0.039126 -0.050058 0.301241
-0.064943 0.068027 0.183906
-0.055787 0.053827 0.299676
0.012981 0.075420 0.200019
-0.013675 0.068455 0.285250
-0.028548 0.071904 0.277153
-0.025890 -0.078368 0.118594
-0.008005 -0.078332 0.050615
-0.028596 0.056415 0.298070
-0.091971 0.007916 0.253336
-0.054084 -0.010834 0.302421
-0.040281 0.072114 0.285285
-0.088179 0.006128 0.254438
-0.059284 -0.066829 0.249965
-0.040273 -0.072947 0.282888
0.071253 -0.014034 0.012374
-0.007581 0.069581 0.280248
-0.069528 -0.040874 0.283411
-0.083966 -0.031586 0.287935
-0.013189 0.029500 0.300826
-0.091081 -0.005568 0.256880
-0.000014 0.075172 0.180071
0.020669 0.069385 0.012374
0.046524 -0.058651 0.145442
0.106687 0.031517 0.214527
0.030086 0.029500 0.200635
-0.085395 0.017731 0.116419
-0.082920 -0.043932 0.181228
0.052871 -0.031020 0.194972
-0.047628 -0.073717 0.264802
-0.088182 -0.005960 0.254626
0.036520 0.032181 0.176453
-0.013715 0.071648 0.018624
0.004828 0.000000 0.308452
-0.092039 0.007747 0.255721
-0.040454 -0.045827 0.303657
-0.084682 0.017940 0.147503
-0.070636 -0.028804 0.018624
0.129871 0.030950 0.264759
-0.041069 -0.074505 0.265370
-0.010081 0.070914 0.279463
-0.046551 -0.033059 0.303453
-0.068034 0.005158 0.302614
-0.068938 0.056036 0.255374
-0.068228 -0.041062 0.299744
0.029146 0.000000 0.317084
0.050051 0.031738 0.194128
0.026609 0.065375 0.021124
-0.078260 0.051348 0.254455
-0.019272 0.034777 0.301548
-0.040008 -0.072958 0.265425
-0.075664 0.048966 0.288446
0.034099 0.000000 0.174564
-0.059992 -0.050712 0.299722
-0.026082 0.064384 0.012374
0.045970 0.029500 0.320364
-0.031534 0.000000 0.298124
-0.041193 0.067131 0.293525
-0.038448 -0.057460 0.012374
0.107942 0.031237 0.214196
0.069092 0.025980 0.098380
-0.067864 -0.005000 0.301852
0.028159 -0.071533 0.185765
0.022947 -0.033470 0.209305
-0.074992 0.054516 0.255826
0.034596 -0.032390 0.201143
-0.086145 0.038309 0.251358
0.005025 -0.032393 0.234937
0.126469 0.031085 0.242096
-0.039620 0.061574 0.297909
0.071255 0.026128 0.099720
0.096711 -0.031453 0.206984
-0.041161 0.072914 0.283041
-0.003864 -0.029500 0.276802
0.091132 -0.029500 0.318710
0.047034 0.058264 0.034173
-0.039222 0.044557 0.301846
-0.034282 -0.072927 0.219579
-0.077554 -0.044180 0.251654
0.017640 0.068180 0.211079
-0.074205 0.001337 0.021124
0.030737 -0.032000 0.309852
-0.051093 -0.007153 0.297999
0.008588 0.068159 0.221884
-0.036097 0.066031 0.284844
0.103729 -0.029500 0.212899
-0.091674 0.015073 0.249617
0.081225 0.031006 0.200681
-0.076605 -0.050967 0.117225
0.020984 0.066703 0.209509
-0.066176 0.038368 0.018624
-0.038743 -0.071991 0.277681
0.009976 0.075543 0.203640
-0.013035 -0.068590 0.012374
-0.071020 0.013803 0.012374
-0.004191 0.068288 0.254644
0.124537 0.000000 0.287650
-0.090331 -0.012383 0.247862
0.015227 0.000000 0.312494
-0.086145 0.038309 0.251358
0.037428 -0.031720 0.177386
0.011432 0.035500 0.272125
-0.011794 0.075319 0.235098
-0.045006 -0.033698 0.302009
0.033720 -0.032391 0.202567
0.011228 0.032000 0.226577
0.072652 0.023237 0.096010
-0.041188 -0.068046 0.292370
0.017418 0.070355 0.012374
-0.000780 0.066722 0.244514
0.058842 0.049262 0.125166
-0.018888 -0.053739 0.297993
0.056030 -0.043009 0.021124
-0.027544 0.067464 0.018624
-0.018888 -0.053739 0.297993
-0.047849 -0.041512 0.303900
-0.051255 -0.024555 0.303606
-0.089553 0.000000 0.199732
-0.074985 -0.014461 0.018624
0.063220 -0.038698 0.021124
-0.079239 0.048137 0.253785
-0.043431 -0.043605 0.293112
0.056287 -0.030035 0.195126
-0.039572 -0.065499 0.294616
0.074056 -0.007114 0.028691
-0.004555 0.067459 0.280347
-0.018909 -0.062193 0.296660
-0.007139 -0.075896 0.050998
-0.001325 -0.065720 0.247832
-0.014528 0.070581 0.285050
0.034702 0.034948 0.177744
-0.041746 0.040252 0.303922
-0.072775 -0.056576 0.248598
-0.065011 -0.066235 0.260620
-0.000752 0.032390 0.279967
0.013221 0.068657 0.012374
-0.075940 -0.024300 0.283182
-0.000012 0.075686 0.161658
-0.091992 -0.011286 0.250683
0.028110 -0.070706 0.077151
0.076958 0.000000 0.039998
-0.069232 0.020510 0.012374
-0.067856 -0.014660 0.292345
-0.057292 0.041520 0.291998
0.054048 -0.044619 0.012374
-0.059060 0.005850 0.302490
0.064755 0.040660 0.112901
-0.065419 0.026958 0.021124
-0.064413 -0.038307 0.302076
-0.038937 -0.067259 0.267770
0.089979 0.031834 0.205408
0.034099 0.000000 0.174564
0.014229 0.069239 0.021124
0.042009 -0.061925 0.154981
-0.022204 0.000000 0.299043
0.076231 0.000642 0.090035
-0.079197 0.051241 0.214743
-0.003132 -0.065670 0.261747
0.037067 0.031174 0.172828
0.073868 0.000265 0.089170
0.000000 -0.076357 0.212710
-0.081719 -0.044777 0.278230
-0.039043 -0.054813 0.299830
-0.062099 0.004780 0.296290
0.037762 0.000000 0.172626
-0.039694 -0.055368 0.301211
-0.079259 0.015978 0.276595
-0.084628 0.007122 0.293631
0.048438 0.060231 0.145951
-0.046924 -0.071785 0.263296
-0.088038 -0.004829 0.259105
0.051892 -0.016005 0.194085
-0.082793 0.043376 0.213932
0.070530 -0.018776 0.018624
-0.061026 -0.066328 0.260591
0.041131 -0.063663 0.097001
-0.082199 -0.046023 0.252886
0.056551 0.048535 0.124411
-0.002150 -0.065607 0.275612
-0.039033 0.066250 0.292792
-0.089249 0.006326 0.285073
-0.081272 -0.043422 0.283345
0.052492 0.053257 0.033507
0.006316 0.000000 0.309072
0.032198 0.034938 0.201994
-0.022745 -0.073883 0.051415
0.029232 0.070262 0.192614
-0.039044 0.054742 0.293498
-0.068099 0.064389 0.216344
-0.079330 -0.002814 0.293788
-0.050052 0.067795 0.250493
-0.039004 0.057084 0.298819
-0.003296 0.067905 0.277752
-0.087224 -0.007128 0.289800
-0.000010 -0.076649 0.069856
-0.082920 0.017555 0.116796
0.129179 -0.031003 0.252700
-0.070729 0.062507 0.259594
-0.042443 -0.072753 0.263903
-0.062363 0.068122 0.262047
-0.038967 -0.070318 0.286628
0.036994 -0.030027 0.174801
0.067056 -0.029860 0.325369
0.022220 0.072919 0.018624
-0.013427 -0.034945 0.286463
0.000831 0.032000 0.280105
0.059104 0.000000 0.197537
-0.019334 -0.034936 0.301530
-0.083518 -0.012785 0.251765
-0.036031 -0.069812 0.261770
-0.017148 0.074240 0.253500
-0.073699 0.028798 0.299759
-0.075940 -0.024300 0.283182
0.029442 -0.068680 0.190256
-0.051948 0.072093 0.268576
-0.042914 -0.072101 0.251346
-0.053973 0.068847 0.283613
-0.065011 0.066235 0.260620
-0.016440 -0.076441 0.119028
-0.013819 0.029500 0.282530
-0.013976 -0.030051 0.303157
-0.090457 -0.011141 0.248354
-0.069929 0.000000 0.012374
0.003642 -0.034948 0.234318
-0.062363 -0.068122 0.262047
-0.091579 -0.005880 0.258727
0.031652 0.067994 0.199676
0.063530 -0.042129 0.018624
-0.080807 0.000000 0.292405
-0.042483 -0.037440 0.303817
-0.073198 -0.055299 0.283825
-0.081158 0.008533 0.085840
0.127300 0.035500 0.259354
0.055338 -0.053307 0.132476
0.072164 -0.007099 0.012374
-0.034357 -0.073340 0.252050
-0.047851 0.071110 0.283350
-0.037719 -0.069709 0.034921
-0.085950 0.006061 0.255982
-0.087276 -0.022852 0.248804
0.063728 0.029500 0.322675
0.067085 0.031106 0.102367
0.063530 -0.042129 0.018624
-0.054143 0.053707 0.018624
-0.088295 0.000000 0.144848
-0.090820 -0.006325 0.277305
-0.024083 0.075398 0.084459
-0.079481 -0.042631 0.288239
0.080339 -0.035500 0.205151
0.004744 0.031738 0.309469
-0.059469 0.035385 0.012374
-0.091957 0.008718 0.252032
0.051119 0.030036 0.193823
-0.072416 -0.009973 0.302418
-0.043377 0.074738 0.266030
-0.085348 -0.035507 0.180444
-0.046237 0.032751 0.302801
-0.088322 0.017988 0.211414
-0.089677 -0.005165 0.278000
-0.043237 -0.073233 0.185923
0.044223 -0.061852 0.156216
0.048539 0.060325 0.144280
0.061918 -0.032815 0.012374
0.058840 -0.049265 0.125172
-0.004806 0.068310 0.261703
-0.087106 -0.026588 0.212271
-0.036056 -0.068378 0.277039
0.029035 0.070911 0.186273
-0.018187 -0.067329 0.012374
-0.073477 -0.049122 0.084839
0.083028 0.031559 0.321783
0.068325 -0.025671 0.018624
-0.014713 -0.029500 0.283982
-0.011266 0.032392 0.285518
-0.048787 0.048667 0.012374
-0.039248 -0.052701 0.301406
-0.059841 0.065966 0.283813
0.091135 0.031428 0.319210
-0.059284 -0.066829 0.249965
-0.018327 -0.034465 0.301588
0.028118 -0.070381 0.055385
0.076656 0.007432 0.041238
0.069061 -0.025888 0.098520
0.041102 -0.062696 0.034839
0.005025 0.032393 0.234937
-0.090760 0.006325 0.278097
-0.052142 0.044756 0.303389
0.037393 0.062132 0.012374
0.056184 -0.045945 0.012374
-0.057429 -0.061787 0.292849
-0.019222 -0.034799 0.301559
-0.074677 0.059268 0.182765
-0.053782 0.013641 0.303799
-0.057808 0.070329 0.263800
-0.082850 -0.006317 0.295481
0.097134 -0.029753 0.206073
-0.061690 -0.005256 0.303274
0.017353 0.035500 0.230186
0.029144 0.070130 0.188006
0.068356 0.017687 0.021124
0.001410 0.032000 0.275454
0.081085 0.031713 0.201388
-0.018858 0.056191 0.297063
-0.041927 -0.058083 0.012374
-0.091776 0.014098 0.249627
0.033431 -0.033470 0.195931
-0.059576 0.068198 0.184400
0.073846 0.000268 0.089305
0.091975 -0.029462 0.320853
0.063728 0.029500 0.322675
0.064846 0.035873 0.106945
-0.040333 -0.038043 0.295709
0.054501 0.044911 0.021124
-0.076282 -0.053354 0.278671
0.028310 -0.035500 0.220556
-0.047025 -0.033514 0.303885
-0.080334 -0.047335 0.278366
-0.078999 -0.053690 0.257139
-0.063316 -0.065214 0.278873
0.067181 0.036634 0.107476
-0.085437 -0.007124 0.292525
0.098701 0.035500 0.209276
-0.050349 0.072446 0.101129
-0.015101 -0.069543 0.287176
0.072167 -0.007030 0.012374
0.119913 -0.029312 0.225334
-0.022729 -0.068498 0.012374
0.032280 -0.029500 0.307941
-0.006116 -0.075928 0.222425
0.030909 0.033470 0.191187
0.059560 0.037022 0.012374
-0.080983 -0.006313 0.297260
-0.006494 0.072107 0.012374
-0.063179 0.007041 0.304476
-0.019172 -0.034822 0.301569
-0.011523 -0.071199 0.281460
-0.055088 0.048716 0.301969
-0.005714 -0.029500 0.279318
0.028980 0.071221 0.184084
-0.028600 -0.056414 0.298070
-0.067342 0.064011 0.259303
0.053980 0.028779 0.143939
-0.058853 -0.069898 0.263593
0.099260 -0.031661 0.209515
-0.080479 0.043340 0.181391
-0.002390 -0.066743 0.275659
-0.012395 -0.071348 0.282285
0.127623 0.031052 0.245832
-0.053973 0.068847 0.283613
-0.070787 -0.062527 0.260372
-0.062440 -0.033285 0.021124
-0.071987 0.005000 0.300581
-0.039482 0.072561 0.282777
0.004304 0.073885 0.207237
0.115104 0.031075 0.302297
-0.049401 -0.052151 0.301898
0.037139 -0.064969 0.164755
-0.036307 0.053998 0.295637
-0.082920 -0.017555 0.116796
-0.007072 0.031020 0.305378
-0.088238 -0.031018 0.249934
-0.073062 0.021727 0.018624
0.069416 -0.031851 0.102955
0.126513 0.030680 0.285588
0.056149 -0.031738 0.196126
-0.046237 0.032751 0.302801
0.074170 0.000000 0.021124
-0.090915 -0.015115 0.247976
0.059861 -0.044198 0.117461
0.014873 -0.068161 0.214107
0.072612 0.007315 0.018624
0.077073 -0.029696 0.324882
-0.052088 0.018324 0.300304
0.029382 -0.068985 0.188100
-0.087970 -0.012354 0.248447
-0.069594 0.006638 0.012374
-0.087883 0.027992 0.277501
-0.002532 0.033460 0.280566
-0.073906 -0.055889 0.256304
-0.042884 0.074270 0.264489
-0.038876 -0.064398 0.293538
-0.082544 -0.005628 0.295187
0.000818 0.076149 0.213318
-0.039482 -0.072561 0.282777
-0.084054 -0.036729 0.250988
0.119581 0.029500 0.295586
0.067319 -0.021279 0.021124
-0.058706 -0.069915 0.262895
-0.021443 -0.069937 0.277401
0.116843 -0.035500 0.300069
-0.059692 -0.038469 0.292033
0.014138 -0.068519 0.012374
0.067400 -0.035726 0.018624
0.086315 0.029500 0.318283
-0.065213 -0.026700 0.292171
-0.040454 0.045827 0.303657
-0.089677 0.005165 0.278000
-0.019343 0.034948 0.301528
-0.018909 -0.062193 0.296660
0.056540 0.048744 0.124283
-0.087596 -0.005479 0.257449
-0.072332 -0.059820 0.257548
-0.052495 -0.037528 0.303970
0.131767 0.029001 0.260190
0.073605 -0.022395 0.043711
-0.083556 0.046149 0.254858
-0.085348 0.035507 0.180444
0.034975 0.031020 0.320345
-0.054356 -0.034910 0.293264
-0.074542 0.005161 0.300290
0.050746 0.051863 0.012374
-0.069148 -0.046259 0.052061
-0.084564 -0.037878 0.250848
0.033759 -0.033459 0.200291
0.105460 0.000000 0.210431
-0.080360 -0.042741 0.213958
-0.077109 0.052212 0.278616
-0.091323 -0.012188 0.263365
0.038218 -0.032000 0.209824
0.072959 -0.001531 0.018624
-0.055035 -0.008548 0.296224
0.012594 0.075581 0.199545
-0.073891 0.059245 0.150110
-0.091516 0.008141 0.251608
-0.068575 -0.013288 0.012374
-0.006673 0.073882 0.021124
-0.016274 -0.033294 0.301260
0.054082 -0.053774 0.018624
0.027332 0.029500 0.315952
0.070530 -0.018776 0.018624
-0.075899 0.019926 0.299822
0.080837 -0.032000 0.202639
-0.016916 -0.058286 0.298418
-0.050441 -0.025085 0.302175
-0.019343 -0.034948 0.301528
0.036520 0.032181 0.176453
-0.055652 0.008502 0.302453
0.027332 -0.029500 0.315953
-0.047468 0.031260 0.302830
-0.083389 0.000000 0.289012
0.000041 -0.032392 0.276571
-0.068517 -0.040587 0.299743
-0.040454 -0.045827 0.303657
-0.043078 -0.037932 0.303962
0.050857 -0.030035 0.193520
-0.045283 -0.055305 0.012374
-0.046131 -0.032638 0.302031
0.053030 -0.055649 0.137304
0.046812 0.057472 0.021124
-0.003342 -0.049965 0.280284
-0.009116 -0.032000 0.285825
-0.040445 -0.048503 0.303411
-0.014545 0.072374 0.281113
-0.015946 -0.034934 0.299942
-0.047790 -0.069312 0.084923
-0.054373 0.010433 0.303196
0.067940 -0.028936 0.100633
-0.049999 -0.053068 0.018624
0.126469 0.031085 0.242096
-0.039038 -0.055098 0.293317
0.073031 0.029500 0.322770
-0.066295 0.000000 0.297762
-0.070464 -0.038359 0.052920
-0.076107 0.000000 0.036730
0.126169 -0.030950 0.283453
0.059104 0.000000 0.197537
0.089648 0.029500 0.207701
-0.051610 0.021347 0.302243
-0.061748 0.067520 0.260906
-0.041409 0.068907 0.261249
0.075084 0.002828 0.091170
-0.074094 -0.055995 0.278782
-0.048898 -0.020544 0.293514
-0.070679 -0.028279 0.288603
0.107686 -0.031178 0.309606
-0.040445 0.048503 0.303411
-0.069102 0.060911 0.278909
-0.084731 0.000000 0.277000
0.033976 -0.063956 0.012374
0.073429 0.031718 0.323249
-0.059992 0.050712 0.299722
-0.015376 -0.032691 0.301074
0.005396 -0.067533 0.228239
-0.050052 -0.067795 0.250493
-0.041144 0.073756 0.264657
-0.013670 0.071126 0.283666
0.077345 0.006061 0.093834
-0.053511 0.068013 0.262013
-0.018446 -0.033866 0.301732
-0.044158 -0.072184 0.283181
-0.090873 0.007129 0.278107
-0.082647 -0.035454 0.288026
-0.059284 0.066829 0.249965
0.024093 0.070167 0.021124
-0.075899 0.019926 0.299822
-0.039694 0.055368 0.301211
0.041198 0.063309 0.052997
0.076284 0.009232 0.096109
-0.080219 -0.007982 0.052878
-0.082884 0.046237 0.253341
0.080360 0.029500 0.205049
-0.038735 -0.072468 0.273207
0.034099 0.000000 0.174564
0.027453 -0.071671 0.189863
-0.077548 0.015853 0.283188
-0.079115 0.025259 0.296494
-0.058172 0.069283 0.261759
-0.016192 -0.064887 0.293737
-0.038945 0.060433 0.289379
-0.089541 -0.011079 0.248357
-0.038837 0.072969 0.267684
-0.015824 -0.032393 0.301765
0.069289 0.031090 0.103733
0.090022 0.035500 0.205284
0.000000 -0.078336 0.050453
-0.015626 0.062554 0.294665
-0.025741 0.074796 0.187502
0.062401 0.040106 0.112215
-0.002692 -0.034930 0.280110
-0.065180 0.022196 0.303735
-0.015127 0.031223 0.302518
-0.075089 -0.007092 0.301371
0.030948 0.049934 0.202623
-0.050852 0.010338 0.297943
-0.073836 0.059678 0.258467
-0.011998 0.071692 0.280261
0.068350 -0.024707 0.012374
0.066663 0.035500 0.323256
0.039563 -0.064612 0.166094
0.073674 -0.004947 0.089481
-0.073724 0.051570 0.288523
-0.039157 0.048317 0.295555
0.065584 -0.035651 0.047135
-0.090531 -0.007131 0.280653
0.021011 -0.071061 0.021124
-0.086309 0.000000 0.116011
-0.013522 0.034948 0.286888
-0.059475 -0.035376 0.012374
-0.075899 0.019926 0.299822
-0.006252 0.069607 0.012374
0.017353 0.035500 0.230186
0.070251 0.006678 0.021124
-0.013573 0.031738 0.302226
0.067402 -0.027800 0.018624
0.036085 -0.068847 0.149108
-0.012465 0.069348 0.283557
-0.041535 0.036625 0.301963
0.032715 -0.049934 0.196035
0.058282 0.029500 0.322131
-0.090873 -0.007129 0.278107
-0.003236 -0.032391 0.282494
-0.053462 -0.036346 0.303990
-0.071993 0.058246 0.117418
-0.020609 -0.069217 0.012374
-0.014021 0.067623 0.286431
-0.008005 0.078332 0.050615
0.001547 -0.065746 0.237977
-0.052080 -0.064442 0.292715
-0.088322 0.017988 0.211414
0.034576 -0.065527 0.021124
-0.057347 0.057407 0.052493
-0.015189 0.065367 0.291916
0.072167 -0.007030 0.012374
-0.040304 -0.060691 0.018624
-0.062036 0.005774 0.293772
-0.059692 -0.038469 0.292033
-0.007539 0.076710 0.084184
-0.040268 -0.073562 0.280422
-0.039597 0.073862 0.266245
-0.041885 0.069756 0.251213
-0.041229 -0.058009 0.300596
0.056772 0.031018 0.324177
0.015427 -0.035500 0.285620
0.030937 0.029500 0.199758
-0.070739 -0.006287 0.303010
-0.011061 -0.032392 0.285295
-0.068228 0.041062 0.299744
0.038218 -0.032000 0.209824
-0.050704 -0.061193 0.296486
-0.069148 0.046259 0.052061
-0.088727 0.000000 0.246373
-0.089903 0.005000 0.259569
0.037345 0.064543 0.164939
0.129701 0.030052 0.246642
-0.002823 0.066733 0.254806
-0.043808 0.034782 0.302763
-0.086589 0.026700 0.249288
0.027332 0.029500 0.315952
-0.019343 0.034948 0.301528
-0.088581 0.012370 0.248312
0.043858 -0.054596 0.012374
-0.090358 -0.023288 0.249526
-0.062880 -0.004750 0.300529
0.037154 -0.030035 0.172690
-0.086614 0.009230 0.210592
-0.036220 0.058982 0.287451
-0.040073 0.074573 0.266516
0.027789 -0.069964 0.152107
0.031117 0.067177 0.193670
0.022136 -0.074641 0.154015
-0.088919 0.023113 0.277387
-0.002353 -0.076205 0.216134
-0.047421 0.025188 0.293433
0.042055 -0.055989 0.012374
0.040639 0.062889 0.157388
-0.077452 -0.046232 0.288357
-0.048086 0.023502 0.293463
-0.051510 -0.072617 0.264235
-0.068095 -0.064549 0.260452
-0.062084 -0.005051 0.296535
-0.052975 0.014987 0.296362
-0.091600 0.006039 0.256987
0.028118 0.070381 0.055385
-0.014800 0.073790 0.255578
-0.070375 -0.062360 0.258933
-0.001536 0.034935 0.277650
0.031511 -0.066798 0.201410
0.013516 -0.035500 0.244260
0.073536 0.030735 0.324959
-0.082343 -0.031193 0.248951
0.076231 -0.000649 0.090035
-0.026083 -0.064384 0.012374
0.078127 -0.000434 0.092155
-0.081061 -0.007112 0.297350
-0.052477 -0.073882 0.151782
0.110946 -0.031132 0.306649
-0.014843 -0.032432 0.301086
-0.079258 -0.015985 0.276595
-0.082544 0.005628 0.295187
-0.071072 0.021348 0.021124
-0.014445 0.071538 0.018624
-0.024208 -0.069732 0.277213
-0.046131 -0.032638 0.302031
0.066310 0.000000 0.196273
0.063354 0.031172 0.021124
-0.085140 0.005164 0.290897
-0.088961 -0.030926 0.251530
0.060553 -0.025771 0.129843
-0.080360 0.042741 0.213958
0.053033 0.054861 0.137612
-0.040311 -0.068687 0.291502
-0.046485 0.042139 0.293137
-0.043237 0.073233 0.185923
0.090864 0.031561 0.204433
0.033431 0.033470 0.195931
0.013829 0.075190 0.105238
-0.007289 0.072620 0.018624
-0.057567 0.039476 0.303472
0.069081 -0.026041 0.098319
0.058840 -0.049265 0.125172
0.037330 0.064712 0.164890
-0.004270 0.068291 0.255552
0.034771 -0.067513 0.098922
-0.036642 0.034811 0.293265
-0.081943 -0.044590 0.252464
-0.036307 -0.053998 0.295637
-0.066295 0.000000 0.297762
-0.052612 0.052729 0.021124
-0.065635 0.036097 0.302094
0.067188 -0.036210 0.107889
-0.088322 -0.017988 0.211414
0.036184 -0.032000 0.201153
-0.039005 0.057011 0.292189
-0.015376 -0.032691 0.301074
0.037337 -0.064547 0.164955
0.027398 -0.071700 0.189737
-0.043237 -0.073233 0.185923
0.003642 -0.034948 0.234318
0.029869 0.063306 0.012374
-0.004747 0.068326 0.268806
-0.086416 -0.009336 0.178155
-0.053973 0.068847 0.283613
-0.050768 0.050374 0.012374
0.056904 -0.031711 0.323508
0.075360 -0.013101 0.018624
-0.056369 0.040910 0.303450
-0.046266 -0.073755 0.268922
0.113897 0.029500 0.302950
-0.000026 -0.032000 0.281574
0.013516 -0.035500 0.244260
-0.069908 -0.062005 0.258442
0.029813 -0.069293 0.191921
-0.016192 -0.064887 0.293737
-0.055244 -0.057641 0.277350
0.029328 0.069001 0.188433
-0.071577 -0.056225 0.231936
-0.019326 0.034940 0.301532
0.010935 -0.034948 0.221987
-0.053284 0.049960 0.301947
0.064717 -0.041144 0.112490
0.062416 0.040191 0.112153
-0.074992 -0.054516 0.255826
0.037463 -0.030500 0.175850
0.044591 -0.054742 0.021124
-0.088088 0.011777 0.248992
-0.091323 -0.012188 0.263365
0.059854 0.044095 0.117511
-0.087146 0.009650 0.250585
-0.083673 0.014825 0.251722
-0.010218 0.000000 0.302366
-0.067113 0.004750 0.300036
-0.085789 0.030435 0.249842
0.103729 -0.029500 0.212899
-0.050356 0.069077 0.262561
-0.085425 0.009260 0.146883
-0.085813 0.032038 0.282920
0.062062 -0.045340 0.117913
-0.001655 0.033470 0.254808
-0.075461 0.048724 0.247762
-0.014573 -0.072543 0.278408
-0.038837 -0.072969 0.267684
-0.056013 0.011316 0.304427
-0.040009 0.039590 0.302690
0.096711 -0.031453 0.206984
-0.044357 -0.050079 0.291845
-0.060119 -0.044168 0.302026
0.106230 0.035500 0.217451
-0.078783 -0.049808 0.278496
-0.056663 -0.008139 0.303888
-0.064332 -0.068154 0.150945
-0.013109 -0.033470 0.286961
-0.070739 -0.006287 0.303010
-0.000010 -0.076649 0.069856
-0.091595 0.006657 0.254520
0.036520 0.032181 0.176453
-0.067420 -0.005000 0.295850
-0.038544 0.069076 0.283290
-0.046784 -0.065854 0.263412
-0.047468 0.031260 0.302830
-0.046482 -0.042140 0.293137
0.004744 0.031738 0.309469
-0.085369 0.041810 0.252875
-0.067472 -0.063488 0.232790
-0.053953 -0.046974 0.012374
0.076284 0.009232 0.096109
-0.087860 -0.018893 0.248391
-0.050010 0.027696 0.303550
0.079814 0.000000 0.202025
-0.061752 -0.005695 0.303927
-0.071446 0.049904 0.292877
-0.083001 -0.019047 0.252086
-0.072657 -0.007083 0.302462
-0.013598 -0.069240 0.281265
-0.047025 0.033514 0.303885
0.073895 -0.018193 0.094302
0.000000 -0.070504 0.018929
-0.042914 0.072101 0.251346
0.106649 -0.035500 0.214577
-0.089573 -0.005774 0.255021
-0.007620 0.075166 0.228952
-0.051255 0.024555 0.303606
0.067879 0.020669 0.114133
-0.036251 -0.067717 0.035606
-0.065874 -0.061555 0.258992
-0.088038 -0.004829 0.259105
0.054816 -0.054541 0.131609
-0.013363 0.000000 0.301365
0.030435 -0.068489 0.199901
-0.054974 -0.009133 0.300465
-0.076605 0.050967 0.117225
-0.012626 0.071949 0.280660
-0.023107 -0.074884 0.034707
0.000000 -0.078240 0.161223
-0.053276 0.064115 0.068670
-0.023556 0.000000 0.298755
0.073957 0.018619 0.093481
-0.024600 0.065080 0.012374
-0.036450 -0.045796 0.293074
0.073605 -0.022395 0.043711
-0.054786 -0.044982 0.021124
-0.014729 -0.070363 0.285541
-0.051501 0.051555 0.018624
0.055699 0.047169 0.018624
-0.069908 -0.062005 0.258442
0.040639 -0.062890 0.157388
-0.040264 0.073956 0.277893
-0.084413 0.000000 0.120269
-0.078783 -0.049808 0.278496
0.034099 0.000000 0.174564
0.036317 0.060622 0.021124
-0.070034 -0.024140 0.302217
-0.038898 0.065871 0.018624
0.030979 0.065555 0.012374
-0.071089 -0.005000 0.294514
-0.060218 -0.068631 0.268049
-0.013363 0.000000 0.301365
0.035575 0.032000 0.202473
0.032280 0.029500 0.307941
-0.055288 -0.033606 0.304038
0.073197 0.029759 0.325234
-0.074677 -0.059268 0.182765
0.073479 0.029500 0.200923
0.074996 -0.013787 0.091900
-0.054424 0.013744 0.304232
-0.033890 -0.061509 0.291344
-0.002179 0.033470 0.265373
0.081386 0.000000 0.199867
-0.023669 0.055976 0.296231
-0.081968 0.049124 0.255704
-0.054928 -0.065595 0.085074
-0.078545 0.000000 0.036095
0.013221 0.068657 0.012374
-0.046330 0.068228 0.051437
-0.041609 0.074908 0.265954
0.129460 0.030662 0.276172
-0.011516 -0.034941 0.283865
-0.069396 0.061495 0.258195
-0.035805 -0.062235 0.012374
0.080339 -0.035500 0.205151
-0.052521 0.072229 0.217946
-0.085167 -0.040125 0.265467
0.121098 0.030964 0.228819
0.052441 -0.031021 0.194892
-0.088282 -0.021835 0.282708
-0.055843 0.046882 0.018624
-0.005280 0.068664 0.279628
0.028536 -0.070870 0.190579
0.095274 0.029500 0.314671
-0.068927 0.056170 0.084738
-0.041534 0.074983 0.267383
-0.085813 0.032038 0.282920
-0.055088 -0.048716 0.301969
-0.017029 -0.068025 0.286113
-0.015204 0.073344 0.263134
-0.089756 0.011224 0.282675
0.057202 -0.029500 0.322006
0.036406 -0.069476 0.097853
-0.049519 -0.030090 0.303945
0.034910 0.030035 0.320617
0.098320 -0.035500 0.211936
0.131115 -0.028970 0.272909
-0.090137 0.006726 0.252673
-0.089756 -0.011224 0.282675
-0.019516 0.048171 0.301249
0.034099 0.000000 0.174564
0.110365 -0.035500 0.307090
-0.055088 -0.048716 0.301969
-0.046266 0.073755 0.268922
-0.052493 -0.037343 0.293221
-0.085425 0.009260 0.146883
0.101939 0.029312 0.316109
-0.040106 0.067255 0.265514
-0.081732 0.040758 0.252159
-0.071530 -0.014446 0.018624
-0.013349 -0.068788 0.284674
-0.003631 0.068277 0.251134
-0.040324 -0.067093 0.293505
-0.039038 -0.055098 0.293317
-0.079129 0.041472 0.247099
-0.081719 -0.044777 0.278230
-0.074210 0.000000 0.297592
-0.021303 -0.067483 0.021124
0.009491 -0.066684 0.222513
-0.064176 -0.060774 0.288638
-0.006440 -0.032000 0.303778
-0.049224 0.060059 0.035935
-0.050441 0.025085 0.302175
-0.038942 0.071885 0.282579
-0.038750 -0.071625 0.280037
0.130158 0.000000 0.279508
-0.041069 -0.074505 0.265370
-0.085008 0.005479 0.259124
0.046120 0.056507 0.018624
-0.091727 0.007123 0.262985
-0.002598 -0.034948 0.265383
-0.075033 -0.006299 0.301260
-0.002071 -0.034948 0.254756
0.071368 -0.027066 0.098523
0.122144 0.035500 0.292121
0.022947 -0.033470 0.209305
0.126804 -0.030944 0.281998
0.046479 -0.058779 0.145373
-0.018624 -0.064882 0.294459
-0.054755 0.010646 0.303847
-0.040053 -0.033540 0.293287
-0.015824 -0.032393 0.301765
-0.039316 -0.048332 0.302335
0.076817 0.031661 0.322864
-0.073253 -0.031043 0.053041
-0.006354 0.070325 0.021124
0.040738 -0.030035 0.321815
-0.090075 0.015053 0.247582
0.073868 -0.000273 0.089170
-0.079180 0.004750 0.293692
-0.011040 -0.075195 0.235368
-0.040424 0.053031 0.302449
0.131002 -0.030680 0.262917
-0.063200 0.028927 0.303629
-0.048996 -0.028437 0.296127
-0.073694 -0.039944 0.296575
-0.016274 -0.033294 0.301260
-0.091161 0.019194 0.249979
-0.051472 -0.038618 0.303951
0.015095 0.034948 0.216451
-0.038976 0.058646 0.297978
0.119913 -0.029312 0.225334
0.128793 0.000000 0.241042
-0.073703 0.008836 0.021124
-0.013328 -0.069412 0.021124
-0.039061 0.060135 0.012374
-0.061098 0.036258 0.292057
-0.018103 0.063110 0.292651
0.099708 -0.031295 0.315140
-0.039356 -0.045749 0.302575
0.037337 -0.064547 0.164955
-0.014261 -0.029500 0.283012
0.071255 0.026128 0.099720
-0.066876 0.063483 0.259042
0.039325 0.061489 0.018624
0.032498 0.066868 0.175236
0.029584 0.072443 0.054019
-0.080022 0.002250 0.279590
-0.056370 -0.046206 0.018624
0.000400 0.032000 0.265309
-0.086046 0.006322 0.291499
-0.003342 0.049965 0.280284
-0.040106 -0.067255 0.265514
-0.079197 0.051241 0.214743
0.056551 0.048535 0.124411
-0.089405 0.012314 0.247887
0.069149 -0.014317 0.021124
0.022081 0.073327 0.193533
-0.076976 -0.041495 0.084941
-0.072277 -0.005160 0.301309
-0.000053 -0.032393 0.275710
0.067582 0.036723 0.086543
-0.015268 -0.033470 0.299207
-0.040297 0.060678 0.018624
0.122847 -0.030981 0.290994
-0.053353 -0.013566 0.303149
-0.066782 0.049907 0.296673
0.118331 -0.031277 0.226518
-0.059081 -0.069532 0.117804
-0.026082 0.064384 0.012374
-0.091566 -0.007307 0.252999
0.052827 -0.056355 0.136888
-0.054784 -0.063189 0.292788
0.021920 0.073460 0.193222
0.058608 -0.039259 0.021124
-0.042886 -0.073781 0.152551
-0.080682 -0.051214 0.256344
-0.040324 0.067093 0.293505
0.095724 0.029500 0.208159
-0.052901 -0.073529 0.185052
-0.064143 0.059901 0.256920
-0.083554 -0.026560 0.148108
