-0.022204 -0.068311 0.075111
0.110807 -0.030068 0.083887
0.052748 -0.014488 -0.139670
-0.061425 -0.058068 0.131520
-0.104878 -0.018000 -0.021574
-0.037167 -0.068230 0.116730
0.020107 0.060733 -0.150453
-0.104099 -0.045231 0.084660
-0.035685 0.068691 0.114277
0.041321 -0.041266 -0.147953
-0.083076 -0.004809 0.131453
-0.024194 0.068277 0.106861
-0.018645 0.065687 0.068891
0.056016 -0.000059 -0.079033
0.050732 0.021340 -0.147953
-0.072144 0.072034 0.099499
0.008973 0.069867 0.021170
-0.060494 0.070038 0.120290
-0.110723 0.011909 0.108215
-0.013575 0.075970 -0.109827
0.054273 -0.000059 -0.138956
-0.098380 0.007492 -0.133099
0.053036 -0.000059 0.156702
-0.063704 -0.031298 0.124251
-0.001964 -0.074312 0.027294
-0.111907 0.012756 0.079870
0.006372 0.035441 0.049686
-0.081572 0.066905 0.091547
-0.059229 0.066191 0.123716
-0.059512 0.048273 0.133259
-0.024955 -0.068382 0.098262
-0.108973 -0.000059 0.074453
0.030094 -0.029559 0.027830
-0.042887 -0.000059 0.132524
-0.111797 -0.006474 0.086201
0.037803 0.043617 -0.156702
-0.032730 0.074442 0.073687
-0.007119 -0.032059 0.117561
0.006442 0.071652 -0.150453
0.076621 -0.029818 0.036868
-0.109540 0.006789 0.083660
-0.102988 -0.043436 0.044855
0.022291 0.063236 -0.150453
0.033889 0.053717 -0.150453
-0.051730 -0.000059 0.131548
-0.083447 0.067605 0.093489
-0.104759 0.037819 0.081772
-0.097750 -0.044240 0.082578
0.072076 0.031351 0.149736
-0.069181 0.046728 0.134276
0.018677 -0.065945 -0.150453
-0.106785 0.026641 0.080212
-0.107349 -0.002867 0.108036
-0.109189 -0.009082 0.081050
0.013318 0.034877 0.028252
-0.110534 0.005573 0.108983
-0.073799 0.021634 0.135170
0.005853 -0.067695 0.035611
-0.056252 -0.068438 0.107963
0.017252 0.030944 0.007146
-0.032485 0.069351 0.114328
-0.019484 -0.076252 0.044167
-0.014961 -0.029559 0.138992
-0.090084 -0.038197 0.130665
0.015879 0.032334 0.009308
-0.019951 -0.068286 0.068411
-0.018786 0.031941 0.106377
0.080526 0.029271 0.147652
0.053493 -0.005015 -0.079663
-0.033718 -0.035007 0.117812
-0.069321 -0.069505 0.093678
-0.105363 -0.040185 0.096391
-0.065193 -0.054852 -0.147953
-0.082919 0.053765 0.127598
0.108713 -0.000059 0.081858
0.101727 0.029210 0.059185
-0.003436 -0.031079 0.145847
-0.110622 -0.005365 0.087731
-0.111518 0.012128 0.094288
-0.070383 -0.030535 0.135016
0.078124 0.035441 0.042860
-0.065294 0.033763 0.133704
0.043524 0.031825 0.154096
-0.109868 0.009924 0.079911
-0.103751 -0.046208 0.085782
0.012394 -0.067192 0.029852
0.063257 0.029534 0.154646
-0.097123 0.041400 0.123621
-0.003530 0.029975 0.146111
-0.104164 -0.000059 -0.083585
-0.007319 -0.068208 0.047217
0.053647 -0.000059 -0.079767
-0.083229 -0.029113 -0.156702
0.055981 -0.000059 -0.078851
-0.051730 -0.000059 0.131548
0.042763 -0.031018 -0.156702
-0.024456 -0.068358 0.109959
0.009114 -0.069032 0.020109
-0.026355 0.029441 0.134285
-0.068281 0.023442 0.124386
0.046109 -0.000059 0.027221
-0.108421 -0.007189 0.118759
0.102756 0.028974 0.125860
-0.074031 0.046084 -0.147953
-0.111549 0.010272 0.080279
-0.043193 0.069936 0.117210
-0.088495 0.007005 0.134727
-0.085506 -0.066476 0.092194
-0.014405 0.066637 0.059381
0.016422 -0.032059 0.030071
0.053672 -0.000332 -0.079907
-0.066501 0.055187 0.119364
-0.104232 0.006814 0.087402
-0.058793 -0.066121 0.119946
-0.083229 -0.029113 -0.156702
-0.036510 0.048129 0.130904
-0.065294 -0.033881 0.133704
-0.059314 -0.050588 0.126011
-0.036429 0.074077 0.086396
-0.075231 -0.008608 0.127148
0.045335 0.035286 -0.137590
-0.079478 0.058823 -0.117328
0.050621 -0.031822 0.154262
-0.099325 -0.041532 0.078023
-0.082115 0.041286 -0.147953
-0.020200 0.076515 -0.102834
-0.033911 0.071589 -0.150453
-0.039367 0.034763 0.132492
-0.060249 -0.033599 0.124211
0.053515 -0.007440 -0.089944
-0.078786 0.045694 0.132933
-0.088373 0.005549 0.134178
-0.027777 0.069522 0.111172
0.039654 -0.044347 -0.051684
0.002172 0.075420 -0.067195
-0.064004 -0.034842 0.133686
-0.112117 0.012313 0.081020
-0.039625 -0.041554 0.132313
0.006330 -0.030094 0.149248
-0.069099 0.020464 0.128689
-0.023827 0.068217 0.082058
0.052830 -0.021905 -0.150453
-0.043303 -0.074943 -0.134369
0.111523 -0.030023 0.093844
-0.007602 -0.075640 0.030468
-0.101422 0.044130 0.083622
0.010387 0.068721 0.029737
-0.037473 0.033850 0.132409
-0.075208 0.071401 0.095268
0.017232 -0.031779 0.008310
-0.094698 -0.006573 0.119735
-0.083351 -0.005660 0.134829
-0.092373 -0.049478 0.088089
-0.045215 -0.075993 -0.050235
-0.047294 0.066630 -0.156702
-0.105912 -0.030778 0.080814
-0.060650 -0.045887 0.134580
-0.071491 -0.070077 0.081576
-0.076940 -0.064305 0.089772
-0.036019 0.032333 0.132689
0.010296 0.066684 0.033225
0.030094 -0.029559 0.027830
0.007392 0.029441 0.020611
-0.015274 0.076145 0.038974
-0.032661 0.069288 0.114481
-0.034232 0.069426 0.116421
0.014424 0.067943 0.006982
-0.059630 -0.073043 0.097088
0.054801 -0.013846 -0.077177
-0.074658 0.070063 0.093093
-0.034876 0.029441 0.114945
-0.064242 0.035094 0.134338
0.066088 -0.035559 0.149107
-0.053561 0.071216 0.108137
-0.036216 -0.034991 0.131006
-0.065050 0.054784 -0.147953
-0.109176 -0.023250 0.079318
-0.042129 0.072587 -0.133819
0.056013 -0.035559 0.153796
-0.106691 -0.034639 0.081108
-0.062310 0.032360 0.128481
0.006989 -0.000059 0.147389
0.004206 0.031678 0.147621
0.031857 -0.000059 0.024720
-0.033769 0.031678 0.133150
0.051971 0.006970 -0.156702
-0.064971 0.066246 -0.116985
-0.059842 -0.059472 0.130203
-0.109776 0.005691 0.086030
0.106918 0.029441 0.099927
-0.074568 0.010374 0.134120
0.110480 0.028991 0.081517
0.046880 0.030865 -0.066508
-0.057919 0.069465 -0.117210
0.013175 -0.035000 0.027763
-0.069597 -0.052210 0.132822
-0.112148 -0.008936 0.082740
-0.076859 0.008079 0.134811
-0.066526 0.068169 -0.117640
0.000787 -0.066822 -0.156702
-0.082374 0.031463 0.134513
-0.082659 -0.058592 0.123853
0.036740 -0.048297 -0.045784
0.000000 -0.068270 0.039535
-0.094796 -0.040907 -0.083580
-0.056293 0.065971 0.115768
-0.011289 0.031941 0.103474
-0.112191 -0.007411 0.088174
-0.060056 -0.039727 0.126855
0.050621 -0.031822 0.154262
-0.073181 0.013243 0.127065
-0.084685 0.031710 -0.156702
-0.102524 -0.023212 0.083363
-0.059398 0.045644 0.132728
-0.091968 0.059271 0.088240
-0.092974 -0.039162 -0.116858
0.105906 -0.029559 0.080701
-0.018845 0.075738 0.044611
0.009246 0.068621 0.021179
-0.063890 -0.074615 0.096046
-0.019228 -0.032059 0.110703
-0.097305 -0.052271 0.109539
0.060144 0.035441 0.036075
-0.108923 -0.000059 0.077297
0.044650 0.035814 -0.062132
0.045994 -0.035559 0.032528
0.036355 0.048476 -0.044665
0.030794 0.015950 0.024213
-0.104099 0.045112 0.084660
0.042186 -0.040404 -0.057064
-0.108492 -0.006385 0.118370
-0.104675 -0.005059 0.121380
-0.101736 -0.000059 -0.083113
-0.082559 -0.068181 0.092971
-0.111633 0.009198 0.081196
-0.074833 0.042122 -0.156702
-0.072690 0.037282 0.124145
-0.067612 -0.025260 0.128607
-0.060469 -0.073006 0.113811
-0.111195 0.006150 0.085258
-0.014961 -0.029559 0.138992
-0.019947 0.068167 0.068400
-0.037245 0.033183 0.132632
-0.035385 0.065308 0.122840
-0.069017 0.028714 0.127045
-0.020394 -0.000059 0.139993
0.004130 -0.068352 -0.156702
-0.064337 0.059177 0.130411
-0.072672 -0.073941 -0.017295
-0.097872 -0.024642 0.107577
-0.037370 0.048135 0.131762
-0.089343 0.046199 -0.117016
-0.108434 0.030958 0.080858
-0.110190 0.016596 0.108224
-0.090036 0.020822 -0.150453
-0.035715 0.071920 0.080779
0.103047 -0.029559 0.071474
-0.059862 -0.074626 0.098320
-0.006779 -0.029559 0.075151
-0.083741 -0.033565 -0.156702
-0.112148 0.008817 0.082740
-0.034232 0.069426 0.116421
0.014970 -0.032450 0.029425
-0.038690 0.034875 0.132533
0.016763 0.062880 -0.150453
-0.051730 -0.000059 0.131548
-0.061632 -0.071812 0.095240
-0.005700 0.070947 -0.156702
-0.104108 -0.009709 0.083875
0.052437 0.006843 -0.150453
-0.067316 0.058122 0.130461
0.048865 -0.025947 -0.070556
-0.077304 -0.008682 0.135243
-0.063079 -0.074329 0.095412
-0.105544 0.035448 0.011368
-0.019502 -0.076263 0.044154
0.013013 -0.034988 0.031444
-0.092875 0.006233 0.133242
-0.006492 0.071614 -0.150453
-0.065201 0.033638 0.132933
-0.013657 0.076344 -0.061703
-0.068647 0.029387 0.133017
0.037813 -0.043722 -0.156702
-0.068541 -0.031974 0.134837
0.000473 0.069325 -0.156702
-0.064971 0.066246 -0.116985
-0.039821 -0.057218 0.130252
-0.110271 -0.015112 0.078506
-0.023879 0.065918 0.110982
-0.027891 -0.068646 0.112272
-0.026636 0.031941 0.134702
-0.109347 0.014889 0.078533
-0.071806 0.021288 0.133166
-0.071706 -0.072677 0.095159
-0.072846 0.017538 0.134001
-0.100555 0.042682 0.044882
-0.027735 0.076651 -0.084893
-0.080036 -0.066025 0.114737
0.051338 0.014424 -0.150453
-0.110442 0.005105 0.099347
0.014057 -0.066413 0.001768
-0.108168 0.004691 0.091501
0.100838 -0.031276 0.061479
-0.104000 -0.037612 0.082073
0.095939 -0.000059 0.135894
-0.085839 0.063360 0.090212
-0.094796 -0.040907 -0.083580
-0.025262 0.033410 0.112992
-0.060578 0.059572 0.130558
-0.059992 0.045733 0.134149
-0.104824 0.007063 0.124555
0.032245 -0.031080 0.025816
-0.099454 -0.016044 0.107518
-0.111633 -0.009317 0.081196
-0.105248 0.017249 0.075932
-0.112160 -0.007340 0.085695
-0.100201 -0.046713 0.084294
0.059618 -0.000059 0.032949
-0.059025 -0.067150 0.121289
-0.020249 -0.032453 0.106634
0.060889 -0.031772 0.032313
-0.051730 -0.000059 0.131548
-0.038761 -0.059181 0.126566
-0.070776 0.025090 0.133866
-0.067234 0.026100 0.128591
-0.098456 -0.051408 0.085378
-0.089113 0.002191 0.123421
-0.022016 -0.034990 0.109599
-0.030208 -0.032059 0.117266
-0.068983 -0.048726 -0.156702
-0.079383 0.005398 0.131452
0.052517 0.014221 -0.147953
-0.084541 -0.041590 0.119546
0.036708 0.031653 0.154433
-0.019947 0.068167 0.068400
-0.011907 -0.035559 0.088803
-0.102185 -0.043896 -0.020089
0.020565 0.063053 -0.021654
-0.038486 -0.066380 0.123830
0.056088 0.009173 -0.072968
0.009828 -0.035002 0.020103
0.038984 0.048209 -0.150453
0.051006 -0.016097 -0.150453
-0.104680 0.035951 0.113974
-0.005870 -0.000059 0.145635
-0.097894 -0.054739 0.086918
-0.021521 0.065661 0.078756
-0.059128 0.072418 0.111132
0.000472 -0.069445 -0.156702
-0.008967 -0.032059 0.057500
0.007333 0.071662 0.018546
-0.038532 0.066036 0.124102
-0.111173 0.019199 0.080000
-0.059301 0.071545 -0.117798
-0.033090 -0.071894 -0.150453
0.051968 0.007045 -0.156702
0.004206 0.031678 0.147621
0.048293 -0.015177 -0.156702
-0.042400 -0.000059 0.129967
-0.066069 -0.049528 0.122784
-0.032926 0.034881 0.116113
0.054723 -0.013679 -0.076774
-0.107579 0.026859 0.079826
-0.035968 -0.041554 0.129918
0.052869 -0.000059 0.154208
-0.079049 -0.069958 0.094517
-0.080036 0.065906 0.114737
-0.024022 0.067622 0.099662
0.012658 0.065894 0.029257
-0.078850 -0.053137 0.114477
-0.081973 -0.038817 -0.150453
0.016450 -0.032059 0.029431
-0.035846 -0.033520 0.131214
-0.071706 0.072558 0.095159
-0.060527 -0.073171 -0.101342
-0.108860 0.018988 0.078887
-0.054214 0.046329 0.128237
0.002340 0.035441 0.128690
-0.017072 0.068140 0.061952
-0.110517 0.005675 0.085949
-0.008967 0.031941 0.057500
-0.072846 0.017538 0.134001
-0.081943 0.067461 0.091830
0.099395 0.035441 0.059476
0.016312 0.031941 0.030878
0.055728 -0.007221 -0.150453
-0.020205 0.076428 -0.036120
-0.106414 0.025848 0.076721
-0.100116 0.048526 0.084519
0.000789 0.066644 0.040433
-0.056322 -0.064405 0.118647
-0.069150 0.029700 0.134437
-0.105204 0.005419 0.090047
-0.011907 0.035441 0.088803
-0.077073 0.056531 -0.133845
-0.106810 0.009170 0.041516
0.014779 0.030961 0.151269
-0.064111 0.074184 0.049680
-0.062740 0.063195 -0.150453
0.104787 -0.031019 0.117467
-0.037458 -0.078969 -0.050276
-0.104162 -0.031646 0.118859
-0.107167 0.027806 0.113735
-0.020196 0.079154 -0.061129
-0.103714 -0.012844 0.082688
-0.031900 0.072777 0.065632
-0.061507 0.049970 0.134209
-0.015368 -0.000059 0.139376
0.109640 0.035441 0.095681
-0.024949 -0.068764 0.107982
-0.033305 -0.033529 0.117885
-0.108923 -0.000059 0.077297
0.080070 0.029636 0.038671
0.024395 -0.054801 -0.147953
-0.056531 0.052324 0.122615
-0.073915 0.043443 0.134333
-0.008867 0.029441 0.103066
-0.034334 -0.032208 0.132054
-0.107423 -0.000059 0.108076
-0.107210 -0.026948 0.010569
-0.039064 -0.056282 0.128050
-0.082231 -0.005846 0.124695
0.007332 0.067443 -0.150453
0.097469 -0.031350 0.056641
-0.023267 -0.067847 0.107979
-0.086298 -0.064587 -0.051466
-0.101135 0.015722 0.127463
-0.068614 -0.060838 0.108049
-0.071491 -0.070077 0.081576
-0.105621 -0.009320 -0.022193
0.030794 0.015950 0.024213
0.052948 0.022449 -0.086510
-0.083512 0.065155 0.109796
-0.110161 -0.007879 0.081941
0.057131 0.030961 0.030529
-0.020196 -0.078395 -0.118623
0.078528 -0.031731 0.040160
-0.047747 -0.067537 -0.150453
-0.036088 0.070070 0.109160
-0.033228 0.071295 0.113915
-0.024234 -0.068461 0.107648
-0.022204 -0.068311 0.075111
0.015879 -0.032453 0.009308
-0.075395 -0.071412 0.094522
-0.033305 0.033410 0.117885
-0.088240 0.030536 0.133069
0.008885 -0.070205 0.019309
-0.011059 0.067448 0.053186
0.034974 0.053917 -0.037016
0.050494 -0.021995 -0.085652
-0.044040 0.076120 -0.118122
0.108801 0.030950 0.082555
0.079306 0.029441 0.145574
-0.089576 -0.044770 0.108158
-0.069296 -0.040711 0.134839
-0.035846 -0.033520 0.131214
-0.067674 0.073410 0.095102
-0.106414 0.025848 0.076721
-0.062176 -0.037077 0.134308
-0.047291 -0.066734 -0.156702
-0.091617 -0.002673 0.129743
-0.059025 0.067031 0.121289
-0.041998 -0.072473 0.108494
-0.031711 -0.035000 0.114788
-0.032301 0.033405 0.115738
0.007368 -0.029559 0.019696
0.049450 0.020697 -0.156702
-0.095559 -0.023523 -0.115908
0.009403 0.069892 0.017610
0.053666 -0.000333 -0.079838
-0.065707 -0.028936 0.124292
0.010181 0.033407 0.019800
0.000530 -0.070006 -0.150453
-0.103065 0.035074 0.011536
0.042214 -0.040332 -0.056992
-0.034523 -0.032240 0.132020
0.051658 0.026172 -0.150453
0.046009 0.029975 0.027729
0.008861 -0.070170 0.020436
-0.086282 0.048904 0.108294
-0.044043 -0.064642 0.124508
-0.087089 -0.033511 0.133041
0.011084 -0.035007 0.033648
-0.027982 -0.070049 0.109755
-0.109176 -0.023250 0.079318
-0.102394 -0.046082 0.083810
-0.104734 0.006261 0.124482
0.020565 0.063053 -0.021654
-0.082910 0.067139 -0.051369
0.026175 -0.032059 0.151856
-0.034768 -0.072602 0.109332
-0.060868 0.073740 0.095923
0.031521 0.035441 0.034968
-0.036345 0.034871 0.131175
0.069415 0.035441 0.038723
-0.059072 0.064338 0.124461
0.044654 0.035603 -0.061930
-0.059816 -0.061633 0.128832
-0.035641 0.068383 0.120133
-0.003049 0.074388 0.028199
-0.068983 -0.048726 -0.156702
0.017566 -0.000059 0.003550
-0.071197 -0.061764 -0.133947
-0.076429 0.049835 0.119523
-0.037370 -0.048254 0.131762
0.042009 0.038123 -0.150453
0.045234 0.030961 0.027840
0.009388 0.072384 -0.115058
-0.111923 0.007063 0.093908
-0.106810 -0.009289 0.041516
0.012865 0.034888 0.027051
-0.111461 -0.011435 0.079642
-0.036245 -0.070676 0.102148
-0.078623 -0.006082 0.127192
0.008948 0.070070 0.018929
0.009132 0.068942 0.019357
0.012944 0.031941 0.019115
-0.015827 -0.030094 0.141330
-0.110593 0.005573 0.108202
-0.112235 -0.007807 0.086644
-0.059698 0.070893 0.117852
-0.061345 0.061875 -0.147953
0.085527 -0.029653 0.042174
-0.021280 -0.032453 0.096269
-0.089343 -0.046318 -0.117016
0.047711 -0.032059 0.030090
0.084858 0.029546 0.041938
-0.088029 0.065466 -0.018410
-0.108392 0.008086 0.082065
-0.042451 0.072850 -0.150453
-0.083292 -0.005059 0.133402
-0.039844 0.066756 -0.156702
0.042220 0.040132 -0.056923
-0.059862 0.074507 0.098320
-0.034996 0.073730 0.086502
-0.085376 -0.022255 0.134659
-0.062094 -0.072869 0.095004
-0.099677 -0.042690 0.119162
-0.093414 0.060223 0.089625
-0.068883 -0.052458 -0.156702
-0.001772 -0.029559 0.040477
-0.064603 0.035646 0.134770
-0.097400 0.015231 -0.133212
0.044521 0.041085 -0.056587
-0.088751 -0.013471 -0.156702
0.028497 -0.059532 -0.022680
0.016685 -0.030087 0.004655
0.063814 -0.032003 0.034169
-0.019768 0.033410 0.075360
0.045081 -0.034975 -0.147953
0.014575 0.067453 -0.070154
-0.000220 0.066961 -0.156702
0.025786 -0.056112 -0.156702
-0.083083 -0.040737 0.132980
-0.082603 0.005121 0.134194
-0.038524 0.034406 0.132511
-0.103371 -0.004809 0.119946
0.010346 -0.068925 0.029471
0.093007 -0.029559 0.055047
-0.036010 -0.053912 0.128914
-0.082751 -0.051762 -0.116421
-0.059862 -0.074626 0.098320
-0.098710 0.006606 0.114198
-0.056360 -0.062212 0.113889
0.069415 0.035441 0.038723
-0.051730 0.046809 0.130729
-0.064353 0.072124 0.114105
-0.097916 -0.039495 0.085701
-0.071451 0.024496 0.134530
0.004130 -0.068352 -0.156702
-0.101353 0.039066 0.119053
-0.107953 0.014516 0.079172
0.006330 0.031941 0.049643
-0.059249 -0.065061 0.125056
-0.077830 -0.009248 0.135388
-0.087652 -0.035686 -0.150453
0.013857 -0.033519 0.029855
0.053005 0.009518 -0.078809
-0.108595 -0.007189 0.118417
-0.066462 0.073695 0.099846
-0.110632 0.023716 0.081420
-0.085204 0.028020 -0.147953
0.013780 0.063897 -0.156702
-0.078676 0.067562 0.092126
-0.080520 -0.005596 0.127450
-0.059172 -0.058705 0.128901
-0.077959 -0.064861 0.080709
0.028242 0.060172 -0.023125
0.017233 0.031617 0.008134
0.053454 -0.004998 -0.079532
0.110807 -0.030068 0.083887
-0.101731 0.042127 0.078141
-0.042244 0.047940 0.129125
-0.100526 0.016765 -0.083337
-0.058771 0.067219 0.118046
-0.075395 -0.071412 0.094522
-0.086317 -0.004809 0.131141
-0.106092 0.008881 0.075182
-0.033769 -0.031797 0.133150
-0.033309 -0.070292 0.114838
0.014203 -0.032453 0.026340
-0.092611 -0.010033 0.133341
0.043671 0.043354 -0.080635
-0.069163 0.070273 -0.067534
-0.110271 -0.015112 0.078506
-0.070122 0.070995 -0.050731
-0.018845 0.075738 0.044611
0.012054 -0.065779 0.031619
-0.050543 0.071964 -0.117437
0.021813 -0.061984 -0.014096
-0.012811 0.077751 -0.009739
-0.030208 -0.032059 0.117266
-0.038367 0.067274 -0.156702
0.081241 0.030948 0.146172
-0.110161 0.007760 0.081941
-0.090230 0.024081 0.133140
0.103211 -0.031221 0.065719
-0.090084 0.038078 0.130665
-0.036576 -0.031917 0.133100
-0.071479 0.071015 0.109344
0.014133 0.031941 0.035028
-0.062281 0.064127 0.127210
-0.059862 0.074507 0.098320
-0.103879 0.021126 0.123375
-0.059418 -0.044616 0.132769
-0.097744 0.015794 0.114112
-0.060493 0.060619 -0.150453
-0.035567 -0.060569 0.125728
-0.108973 -0.000059 0.074453
-0.102787 0.004941 0.111059
-0.002894 -0.032059 0.061077
-0.106375 -0.005224 0.120131
-0.106316 0.034076 0.108644
-0.055597 0.076688 0.017531
-0.045215 -0.075993 -0.050235
-0.086033 -0.002309 0.124395
0.038591 -0.048675 -0.043546
-0.101354 -0.008592 -0.083237
0.069452 -0.029559 0.038625
-0.092320 0.006585 -0.156702
0.054594 0.012250 -0.069763
-0.022037 -0.049997 0.106720
0.023055 0.064180 -0.014087
-0.089562 0.020081 -0.156702
-0.084685 0.031710 -0.156702
0.074484 -0.031432 0.148622
0.029855 -0.031797 0.025051
-0.036039 0.076195 -0.084760
-0.094032 0.059619 0.089390
-0.058716 -0.070512 0.108306
-0.109649 0.004941 0.099304
0.012084 0.029441 0.138864
0.108812 0.030709 0.077752
-0.031718 -0.071258 0.112383
-0.066362 0.032502 0.126979
0.007300 -0.068818 0.016808
-0.073799 0.021634 0.135170
0.052835 0.029441 0.153694
-0.095229 -0.006358 0.132184
-0.107610 -0.017514 0.079405
-0.036242 0.033081 0.132136
0.064396 0.031873 0.034429
0.087205 -0.031562 0.046011
-0.106083 0.014766 0.081030
-0.082299 0.004721 0.131464
-0.037136 0.031127 0.133152
0.062832 0.031499 0.152707
-0.084337 0.026019 0.134597
-0.109321 0.016574 0.113594
-0.034216 -0.067683 0.117355
-0.059552 0.045689 0.133498
0.009403 -0.070010 0.017610
-0.009518 0.029441 0.088982
-0.080999 -0.051429 0.114488
-0.104824 0.007063 0.124555
0.031580 0.029978 0.025218
-0.090349 -0.004809 0.130137
0.065381 -0.035559 0.151924
-0.105316 -0.027569 0.118784
-0.049413 -0.070568 -0.133647
-0.071566 0.062225 -0.116773
-0.036153 0.059344 0.127771
-0.093258 0.021668 -0.150453
-0.059163 -0.070377 0.117552
-0.075667 0.033226 0.134967
-0.090660 -0.038418 -0.116157
0.034098 0.045129 -0.147953
-0.098312 -0.000059 -0.115428
-0.001773 -0.066750 0.042831
-0.064242 0.035094 0.134338
-0.105888 0.005571 0.122188
-0.082647 -0.005682 0.134848
-0.077126 -0.067554 0.114647
-0.069164 0.032310 0.134983
-0.089780 0.006776 -0.156702
-0.038299 0.063051 0.123575
-0.110766 0.009990 0.079934
-0.034768 -0.072602 0.109332
-0.053131 -0.055688 0.128938
-0.077419 -0.006563 0.131434
-0.093758 0.015331 0.119618
-0.034902 -0.073890 0.085785
0.043910 0.043159 -0.121876
-0.088495 -0.007124 0.134727
-0.060584 0.074500 0.096984
-0.097616 -0.000059 -0.121442
0.047854 -0.000059 0.030096
-0.092020 -0.058238 0.088075
0.079306 -0.029559 0.145574
-0.086880 -0.014065 0.134793
0.012054 -0.065779 0.031619
-0.103046 -0.006376 0.126405
-0.105751 -0.041740 0.084636
-0.062176 -0.037077 0.134308
-0.104712 -0.016248 0.123385
-0.059600 -0.042887 0.133565
0.085265 -0.000059 0.041354
-0.090925 0.062447 0.090518
-0.024527 -0.068618 0.108294
0.000197 -0.035007 0.042157
-0.024178 -0.068398 0.106993
-0.035193 -0.000059 0.134303
-0.072515 -0.025867 0.135098
-0.093568 0.056697 0.109730
-0.112232 0.010316 0.082344
0.009179 -0.068858 0.020877
-0.107349 -0.002867 0.108036
0.041722 0.032755 -0.156702
-0.109737 0.011020 0.079281
0.000302 0.031941 0.130241
-0.073119 0.045439 0.122866
-0.087072 -0.063542 0.089966
-0.075836 -0.008550 0.127399
-0.059732 -0.068413 0.122194
0.012003 0.034878 0.032917
-0.062202 -0.067056 0.095092
-0.077659 0.067540 -0.050887
-0.092971 -0.056635 0.079522
-0.097525 0.007041 0.131034
0.031819 -0.032059 0.027482
-0.032377 0.074500 0.072537
-0.082151 -0.007176 0.135424
0.053499 -0.005023 -0.079731
-0.060615 -0.075026 0.098589
0.105968 0.030891 0.114376
0.044649 0.023011 -0.048437
-0.018845 -0.075857 0.044611
0.045994 0.035441 0.032528
-0.061936 -0.075031 0.098010
-0.027982 0.069930 0.109755
0.053241 0.007341 -0.079282
-0.083369 0.006204 0.135260
-0.106022 -0.017865 0.042397
-0.094680 -0.056488 0.087132
-0.066513 -0.032120 0.130988
-0.091617 0.002554 0.129743
-0.055729 -0.054257 0.126638
-0.019768 0.033410 0.075360
0.000530 -0.070006 -0.150453
-0.039845 -0.066875 -0.156702
-0.078857 0.053014 0.114477
-0.036929 0.078626 -0.085057
-0.040611 0.069145 -0.156702
-0.056001 -0.062294 -0.156702
-0.102916 0.044865 0.083507
-0.088502 -0.060134 0.114842
-0.059793 0.073803 0.097168
-0.111790 -0.006716 0.085444
-0.059002 -0.068462 0.119295
0.025997 0.031678 0.152830
-0.064337 0.059177 0.130411
-0.112249 0.007930 0.085974
-0.109037 -0.010208 0.080216
-0.024178 -0.068398 0.106993
-0.069998 -0.065432 0.123573
0.003460 -0.032453 0.041064
0.016258 0.069040 -0.116226
-0.103060 0.034621 0.044076
-0.104583 0.035351 -0.020662
-0.108106 0.005573 0.118195
0.098740 0.029272 0.055281
-0.036786 -0.073703 0.094091
-0.033486 0.072149 0.111486
-0.063458 0.058644 -0.150453
0.056763 -0.000059 -0.129079
-0.005605 -0.075252 0.028923
-0.103060 -0.034740 0.044076
-0.049600 -0.065769 -0.156702
0.039477 0.049399 -0.120745
-0.076062 0.044669 -0.156702
0.047045 0.035441 0.151697
-0.092875 0.006233 0.133242
-0.063490 -0.073392 0.094781
0.051058 0.013975 -0.156702
-0.020210 -0.076817 -0.085001
-0.110517 -0.005793 0.085949
-0.107646 -0.030955 0.080438
-0.011907 0.035441 0.088803
-0.107041 0.038149 0.083845
0.072712 0.030366 0.151317
0.067364 -0.031680 0.034218
-0.037473 0.033850 0.132409
-0.035762 0.033403 0.131054
-0.096139 -0.007093 -0.150453
-0.103885 0.005105 0.123802
-0.085192 -0.023017 0.134646
0.014638 0.067107 -0.114901
-0.066462 -0.073814 0.099846
-0.021249 -0.033526 0.107539
-0.060500 -0.060750 -0.150453
-0.093182 -0.000059 -0.150453
-0.092630 0.059856 0.098039
0.019933 0.062323 -0.147953
-0.082577 0.004966 0.133419
0.014058 0.066294 0.001767
-0.006307 0.075148 -0.088389
-0.112153 -0.008777 0.082956
-0.020196 -0.070563 -0.150147
0.030286 -0.032059 0.026799
-0.023173 -0.065700 0.099599
0.012991 0.031941 0.020899
-0.108776 0.012311 0.079235
0.041584 0.041677 -0.136911
-0.059968 -0.073031 0.096594
0.055887 -0.000712 -0.078657
-0.038263 -0.029559 0.129739
-0.100776 0.030938 0.084281
-0.035852 0.070909 0.116295
0.053036 -0.000059 0.156702
-0.106241 0.006263 0.122423
-0.085192 0.022898 0.134646
-0.034843 -0.072283 0.112830
-0.067120 0.071726 0.094220
-0.090079 -0.020957 -0.150453
0.051182 0.026391 -0.069737
-0.091483 0.035174 0.130666
-0.073479 0.049900 0.132871
0.052335 -0.014777 -0.087808
0.079112 0.031601 0.040413
0.000302 0.031941 0.130241
0.097337 -0.031103 0.130228
-0.072011 0.021138 0.133937
-0.104249 0.036670 0.081912
-0.058630 0.057410 -0.156702
0.065381 0.035441 0.151924
0.046109 0.035441 0.035025
0.095939 -0.000059 0.135894
-0.107210 -0.026948 0.010569
-0.075378 0.013800 0.135306
0.023172 -0.058766 -0.150453
-0.109914 0.005225 0.087703
-0.108492 0.006266 0.118370
0.014638 -0.067226 -0.114901
-0.078901 0.068981 0.092563
-0.018845 -0.075857 0.044611
0.011599 0.032334 0.018488
0.017252 0.030944 0.007146
-0.032943 -0.070447 0.114444
-0.060460 0.073896 0.108816
0.016617 -0.030969 0.004776
0.051177 0.026994 -0.070562
-0.078584 0.006033 0.127191
-0.082331 -0.065730 0.091215
0.018874 0.066438 -0.003709
-0.090935 -0.006346 0.133933
-0.056838 0.034752 0.128440
-0.042400 -0.000059 0.129966
0.007342 0.069038 0.015961
-0.078341 0.048317 0.119540
0.002234 -0.075178 -0.113847
-0.078905 -0.037974 0.134418
-0.015452 0.031678 0.140392
-0.038320 0.029441 0.129897
-0.093182 -0.000059 -0.150453
-0.022596 0.065664 0.108944
-0.035301 -0.070216 0.109278
0.076048 -0.029456 0.150133
-0.037712 0.075948 0.052197
-0.097235 -0.005681 0.130569
-0.021714 0.033400 0.109976
-0.059270 0.071694 0.097896
0.104612 -0.000059 0.063049
0.014966 -0.031797 0.150562
-0.039529 -0.034996 0.132454
-0.035852 0.070909 0.116295
-0.108172 0.034563 0.083116
-0.112134 0.012081 0.081109
-0.060351 -0.072132 -0.084311
-0.020199 -0.076087 -0.118246
-0.036097 -0.029559 0.117453
0.035142 -0.053367 -0.036600
-0.111775 0.005821 0.089651
0.036379 -0.047986 -0.147953
0.000846 0.073212 -0.066064
-0.108518 0.017929 0.042338
-0.045759 0.075615 -0.015401
-0.075882 0.058659 0.127512
0.051058 0.013975 -0.156702
-0.097235 0.005562 0.130569
-0.105537 -0.035149 0.044033
-0.055638 0.070945 0.108163
0.000302 0.031941 0.130241
0.109115 0.030878 0.102218
-0.091571 -0.061599 0.046869
-0.072159 -0.020051 0.127198
0.103047 -0.029559 0.071474
-0.059354 0.048161 0.132482
-0.035184 -0.075222 -0.117876
-0.059290 -0.067344 0.098126
-0.046086 0.078309 -0.050483
0.107531 -0.030730 0.113235
-0.108284 -0.011837 0.079916
0.104070 0.035441 0.067807
-0.059151 -0.071143 0.115809
-0.038523 -0.034525 0.132511
-0.066737 -0.032242 0.126985
0.061088 0.029978 0.031306
-0.043071 -0.069352 -0.150453
-0.101731 -0.042246 0.078141
-0.084337 -0.026137 0.134597
0.030662 0.029975 0.024444
0.101907 -0.000059 0.128163
-0.103805 -0.046097 0.085752
-0.060351 -0.072132 -0.084311
-0.057915 -0.069768 -0.134155
0.006372 -0.035559 0.049686
0.095438 0.030316 0.051415
-0.071496 0.028237 0.135054
-0.079411 0.065509 0.091733
0.104070 -0.035559 0.067807
-0.085839 0.063360 0.090212
-0.085831 -0.036157 0.133018
0.008241 0.029441 0.023478
-0.037248 0.066517 0.123585
-0.064771 0.066017 -0.134051
-0.110278 0.007072 0.113627
0.103047 0.029441 0.071474
-0.021521 -0.065780 0.078756
-0.036470 0.033235 0.132183
-0.065201 -0.033757 0.132933
-0.111016 -0.007818 0.082255
-0.061221 -0.040043 0.134697
-0.061601 -0.036911 0.132883
-0.104134 0.040042 0.108912
-0.084026 -0.030762 -0.147953
-0.104111 0.009590 0.083872
-0.006545 0.074183 -0.011657
-0.071491 0.064407 0.093660
-0.072011 -0.021257 0.133937
-0.106230 -0.006928 0.086092
0.049227 -0.016080 -0.065767
-0.093895 0.028738 0.130683
-0.060003 0.044532 0.134184
-0.060605 -0.055592 0.132522
0.014424 0.067943 0.006982
-0.058762 0.067733 0.116951
-0.020196 -0.078395 -0.118623
-0.110517 -0.005793 0.085949
0.104082 -0.030950 0.065273
0.031504 -0.032059 0.034909
0.011710 0.034881 0.033190
-0.082751 -0.051762 -0.116421
-0.110855 -0.017890 0.094709
-0.103749 0.014766 0.082728
-0.076227 -0.065767 0.119393
0.018767 -0.058943 -0.147953
-0.063647 0.073834 0.095125
0.015823 0.032996 0.006577
-0.105049 -0.000059 0.117135
-0.075559 -0.062904 0.092912
-0.108106 0.005573 0.118195
0.067364 -0.031680 0.034218
-0.085801 -0.005217 0.133964
-0.059138 0.071826 0.113503
-0.093890 0.039885 0.127499
-0.083052 -0.067245 0.098792
-0.095820 -0.031661 -0.116698
-0.096497 0.029691 0.107672
0.038908 -0.000059 0.028460
-0.105912 0.030659 0.080814
-0.076423 -0.049958 0.119523
-0.062740 -0.063313 -0.150453
-0.035710 -0.029559 0.130993
-0.038327 0.034871 0.132471
-0.020196 0.078424 -0.118631
-0.106856 0.038271 0.082993
-0.026448 -0.069666 -0.156702
-0.109825 -0.027271 0.080977
-0.094424 -0.000059 -0.147953
-0.005244 -0.074964 -0.150453
0.010196 -0.033526 0.020359
0.109825 0.030899 0.092413
-0.079383 -0.005516 0.127202
0.010580 -0.035559 0.140728
-0.048080 0.047502 0.130854
0.013318 0.034877 0.028252
-0.072672 0.073822 -0.017295
-0.107267 0.034578 0.095969
-0.061402 -0.064465 0.127174
0.022351 0.064875 -0.022244
0.011287 -0.032452 0.020264
0.009828 -0.035002 0.020103
-0.056465 0.056109 0.120728
0.011336 0.068518 0.028240
-0.036769 0.033436 0.132245
-0.099751 -0.043315 -0.019798
0.110529 -0.029109 0.081516
-0.082559 0.068062 0.092971
-0.037363 0.052237 0.131326
-0.090660 -0.038418 -0.116157
-0.102916 0.044865 0.083507
0.052764 -0.001590 -0.150453
-0.056436 0.057781 0.124666
-0.021732 0.034875 0.108574
-0.022037 0.049878 0.106720
-0.095522 -0.044375 0.123684
0.012150 -0.035559 0.138783
-0.063627 -0.043852 0.134784
-0.025002 0.068250 0.092627
-0.037307 -0.029559 0.130541
-0.034172 0.029992 0.134081
0.055461 -0.009877 -0.078408
-0.063858 0.070241 0.118948
-0.056645 0.045811 0.128246
-0.090890 -0.000958 -0.147953
-0.020234 0.032332 0.108822
0.014507 0.034888 0.008668
-0.106856 -0.038390 0.082993
-0.061384 0.067987 0.123294
0.055728 -0.007221 -0.150453
-0.084545 0.041466 0.119546
-0.060605 0.055474 0.132522
-0.063444 0.066688 0.094786
-0.029696 0.032334 0.115314
0.052481 0.022924 -0.072649
-0.102589 0.026877 0.123398
-0.081886 0.005197 0.134198
0.062702 -0.000059 0.155304
-0.084922 0.060545 0.080019
0.036740 -0.048297 -0.045784
-0.096645 0.053904 0.086253
-0.036929 0.078626 -0.085057
-0.088857 0.028233 -0.147953
-0.081527 0.060744 -0.083866
-0.027735 0.076651 -0.084893
0.045344 0.031319 -0.156702
-0.048744 0.071844 0.108077
-0.110188 -0.007698 0.082175
-0.013658 -0.072178 -0.156702
0.015889 0.068787 -0.019969
-0.090805 -0.005672 0.133525
-0.099568 0.006250 0.129488
-0.106356 -0.002309 0.077533
0.034349 0.055485 -0.076873
-0.106833 -0.000059 -0.000334
-0.100878 -0.051274 0.087267
-0.082040 -0.006408 0.135282
0.050494 -0.021995 -0.085652
0.014563 -0.066575 -0.133566
-0.024194 0.068277 0.106861
0.036342 -0.048807 -0.044788
-0.074620 0.013684 0.135156
-0.032926 0.034881 0.116113
-0.105248 -0.017367 0.075932
0.015776 -0.034257 0.005976
-0.032574 0.071230 0.113260
-0.077493 0.029269 0.124285
-0.107342 0.009590 0.081508
-0.067493 0.072968 0.094608
-0.086634 -0.062933 0.089973
0.067046 -0.000059 0.035135
-0.024518 0.029441 0.135044
-0.061730 -0.036685 0.132886
-0.006367 -0.075249 -0.063838
-0.096672 -0.001406 -0.150453
0.029699 0.030058 -0.016376
-0.112188 0.011227 0.081607
-0.068541 -0.031974 0.134837
0.004420 0.031941 0.042196
-0.111069 -0.007189 0.109031
-0.111959 0.006269 0.090581
-0.022728 0.033401 0.111490
-0.022204 -0.068311 0.075111
0.069846 -0.031893 0.036153
-0.098741 -0.000059 -0.132982
0.039937 0.030904 0.155479
0.000530 -0.070006 -0.150453
0.049355 -0.008240 -0.156702
0.098925 -0.031067 0.056862
-0.024751 0.067400 0.111270
-0.093890 -0.040004 0.127499
-0.038462 0.062013 0.124594
-0.089592 -0.061554 0.089119
0.031504 -0.032059 0.034909
-0.105248 -0.017367 0.075932
-0.040633 -0.069322 -0.156702
0.030628 -0.055039 -0.032832
-0.043523 -0.062950 0.122735
0.014340 0.032331 0.032196
-0.037759 0.078363 -0.014978
-0.070552 0.069018 0.093485
-0.078551 0.068093 -0.034213
0.109251 0.029441 0.091199
-0.105060 0.033994 0.081387
-0.104288 0.044980 0.085483
0.007873 -0.069753 -0.132882
-0.063572 -0.074798 0.096954
0.002172 0.075420 -0.067195
0.031351 -0.000059 0.152706
-0.024942 -0.068385 0.099735
0.053650 0.000208 -0.079771
-0.063077 -0.057415 -0.156702
-0.015720 -0.031079 0.141072
-0.094032 0.059619 0.089390
0.006174 0.066674 0.036059
-0.091571 -0.061599 0.046869
-0.074337 -0.053764 -0.150453
-0.021328 -0.033529 0.106823
0.075218 -0.031421 0.148337
0.009761 0.034882 0.019786
0.011541 -0.068434 0.028966
0.017296 -0.000059 0.005079
0.046475 -0.031893 0.154048
0.025094 0.056601 -0.156702
-0.103561 -0.046341 0.084964
-0.039468 -0.034836 0.132472
-0.081272 -0.033951 0.134477
0.033852 -0.044678 -0.156702
-0.110271 -0.015112 0.078506
-0.035846 0.033402 0.131214
0.051815 -0.031801 0.154258
0.087034 -0.031244 0.140821
-0.063925 -0.034708 0.132914
-0.110527 0.012324 0.078785
0.051345 -0.017928 -0.075558
0.053969 -0.007281 -0.126922
-0.035124 0.072830 0.101625
-0.088935 -0.006261 0.123406
-0.092851 0.051857 0.084849
-0.107668 -0.005059 0.115373
-0.075183 -0.065959 -0.101027
-0.039522 -0.034999 0.132456
0.093500 -0.031434 0.051956
-0.008764 0.035441 0.103049
-0.065479 -0.055364 -0.156702
-0.085019 -0.063654 -0.067984
-0.023221 0.067697 0.107709
-0.092059 -0.014730 0.133269
0.013412 0.034872 0.029464
-0.107457 0.014766 0.079906
-0.034334 -0.032208 0.132054
-0.104824 -0.007181 0.124555
-0.011114 0.075988 0.033597
-0.087142 -0.058640 0.119570
-0.003436 0.030961 0.145847
-0.061381 0.068662 0.122440
-0.037711 -0.000059 0.130966
-0.038874 0.029441 0.130138
-0.084548 0.025960 -0.156702
-0.006480 0.066618 0.047911
-0.071566 0.062225 -0.116773
-0.020196 -0.075510 -0.130057
-0.070363 -0.014600 0.128793
-0.087597 0.007001 0.134886
0.109769 0.029016 0.077489
-0.063988 0.049117 0.134228
-0.001658 -0.065815 0.042952
0.009388 0.072384 -0.115058
-0.063159 -0.067665 0.123364
0.016641 -0.032392 0.004198
-0.080527 0.055655 0.127580
-0.060620 -0.053091 0.133373
-0.110622 -0.005365 0.087731
-0.027178 0.072022 -0.156702
0.074801 0.031682 0.038172
-0.059945 0.050303 0.133590
0.046109 0.035441 0.035025
-0.090022 -0.057064 -0.051227
-0.089547 -0.013588 -0.147953
-0.003961 -0.032453 0.048372
-0.105316 -0.027569 0.118784
-0.078382 -0.027243 0.135074
-0.059128 -0.072537 0.111132
-0.107792 -0.005538 0.088373
-0.091642 -0.049963 0.123800
0.012612 0.061679 -0.156702
-0.008867 0.029441 0.103066
0.007593 -0.070023 -0.016970
-0.022016 -0.034990 0.109599
-0.038263 0.029441 0.129739
-0.101628 -0.045736 0.083683
0.000000 -0.068270 0.039535
-0.033517 0.069333 -0.147953
0.014949 0.031678 0.150558
-0.070206 -0.027755 0.134474
-0.106940 0.032158 0.108565
0.109376 -0.000059 0.100555
-0.093480 -0.047514 0.123752
-0.101421 -0.042001 0.083373
-0.020219 -0.075395 0.006336
-0.034552 -0.068729 0.117803
-0.106856 0.038271 0.082993
-0.111305 -0.005465 0.089599
-0.109167 0.009124 0.080932
-0.109848 -0.005567 0.086901
0.004120 0.068237 -0.156702
0.032821 -0.054936 -0.031430
-0.101689 0.004941 0.125104
-0.035762 -0.033521 0.131053
-0.098914 0.005103 0.128619
-0.069335 -0.040495 0.124091
-0.082577 0.004966 0.133419
-0.012902 0.072022 -0.156702
0.110528 0.030647 0.087467
-0.036378 -0.069144 0.114538
0.032589 -0.031797 0.026620
-0.100878 -0.051274 0.087267
-0.105338 -0.011030 0.123423
-0.091725 -0.014505 -0.150453
-0.019016 -0.032059 0.110098
-0.036769 -0.033554 0.132245
0.000472 -0.069445 -0.156702
-0.006492 0.071614 -0.150453
-0.002075 0.067467 0.042496
-0.066614 0.066515 0.123471
-0.036963 0.073448 0.052222
-0.011608 0.068099 0.052807
0.109962 -0.000059 0.110431
-0.101467 -0.043481 0.114268
0.024296 -0.031430 -0.004789
0.043159 0.031112 -0.147953
-0.034892 -0.032450 0.131750
-0.076227 0.065648 0.119393
-0.085139 0.067968 0.014830
-0.055376 0.077390 -0.016158
-0.052991 -0.054769 0.126617
0.034445 0.055170 -0.119618
0.014595 -0.032449 0.031581
0.012802 0.034871 0.031858
-0.062293 -0.062824 0.107801
0.026201 -0.058941 -0.023781
0.004498 0.031941 0.146675
-0.060041 -0.039712 0.132844
-0.033384 0.029441 0.131749
-0.032591 -0.071408 0.113208
-0.091915 0.057918 -0.018679
-0.080315 0.044108 0.132950
-0.108486 -0.000059 -0.024336
-0.033718 -0.035007 0.117812
0.019316 -0.035559 0.042958
0.014714 0.029975 0.151541
-0.035822 0.062494 0.125588
-0.032574 0.071230 0.113260
0.039654 -0.044347 -0.051684
-0.082374 -0.031581 0.134513
-0.100110 0.050569 0.097230
-0.074932 -0.070757 0.093392
-0.008967 -0.032059 0.057500
-0.044043 -0.064642 0.124508
0.028856 -0.060521 -0.118492
-0.071042 -0.024462 0.133879
-0.068047 -0.071169 0.114274
-0.038909 0.068171 -0.147953
-0.006975 -0.068717 -0.156702
-0.034039 0.070952 -0.156702
0.010606 -0.033529 0.018025
-0.059033 0.072909 0.098608
-0.060484 0.071259 0.118021
-0.044404 -0.069791 0.108136
-0.084741 0.047662 0.114463
-0.069181 -0.046847 0.134276
-0.037363 0.052237 0.131326
-0.096424 -0.051059 -0.019232
-0.104675 -0.005059 0.121380
0.012382 -0.065822 0.031067
-0.062298 0.062704 0.107802
-0.059262 -0.073041 0.097883
-0.066969 0.071761 0.094239
0.038908 -0.000059 0.028460
-0.033545 -0.068847 0.115597
0.010542 -0.032059 0.140776
-0.082751 0.051643 -0.116421
0.109573 -0.031035 0.088524
0.106317 0.030621 0.116511
-0.082721 -0.068147 0.093678
0.016617 -0.030969 0.004776
0.053975 -0.000059 -0.147953
-0.038642 0.033807 0.132656
-0.101353 0.039066 0.119053
-0.096645 0.053904 0.086253
-0.085506 0.066357 0.092194
0.084570 -0.030307 0.144859
0.106608 -0.031003 0.112922
-0.065528 0.055304 -0.156702
0.035790 -0.046887 -0.150453
-0.059418 -0.044616 0.132769
-0.018673 -0.032059 0.107435
0.052428 -0.022773 -0.072244
-0.091571 0.061481 0.046869
-0.081294 -0.036317 0.122980
-0.090529 -0.006652 -0.147953
0.041661 -0.042170 -0.120757
-0.077748 0.068010 0.092340
0.091799 -0.030914 0.138010
-0.105751 0.041622 0.084636
-0.006956 -0.069480 -0.147953
0.001940 -0.074701 -0.015062
-0.092879 -0.000059 0.126496
-0.042886 -0.000059 0.132523
-0.106083 0.014766 0.081030
-0.038308 -0.029559 0.129874
-0.100226 -0.052146 0.086705
-0.064771 0.066017 -0.134051
0.000472 -0.069445 -0.156702
-0.059122 -0.072916 0.108698
-0.035693 -0.074111 0.086474
0.046104 0.029441 0.034921
-0.107457 -0.014885 0.079906
-0.111518 0.012128 0.094288
-0.093568 0.056697 0.109730
0.076079 -0.031777 0.038792
-0.078623 -0.006082 0.127192
0.030662 -0.054921 -0.032763
0.087280 -0.000059 0.140679
-0.077762 0.039416 0.134395
0.012687 0.065976 0.028523
-0.008764 -0.035559 0.103049
-0.082851 0.064211 0.114802
-0.112264 -0.008675 0.084644
0.099306 -0.000059 0.054849
0.105940 0.035441 0.114365
-0.070248 0.067735 0.081416
-0.101672 -0.025392 -0.083928
0.046947 0.020073 -0.156702
0.008785 -0.071280 0.015008
-0.002843 0.035441 0.061110
0.011276 -0.067955 0.031103
-0.034724 0.070522 0.115973
0.083320 -0.029559 0.140558
-0.083741 -0.033565 -0.156702
-0.020440 -0.000059 0.139973
-0.020220 -0.075941 -0.013629
-0.036769 -0.033554 0.132245
-0.104720 0.026588 0.010739
-0.079314 0.005935 0.134187
-0.112150 -0.007100 0.086412
0.017127 -0.064775 -0.004171
-0.055332 0.075304 0.050502
-0.104759 0.037819 0.081772
-0.059698 0.070893 0.117852
0.090169 0.035441 0.138013
-0.074833 0.042122 -0.156702
-0.069094 -0.020603 0.124438
0.012699 -0.066009 0.029264
-0.032591 -0.071408 0.113208
-0.108907 -0.011263 0.079652
-0.051730 -0.000059 0.129047
-0.109308 0.009288 0.041456
0.094339 -0.031417 0.052824
-0.036576 -0.078304 -0.101835
-0.111116 -0.006947 0.083689
-0.098456 -0.051408 0.085378
0.060699 -0.032059 0.033271
-0.107900 -0.028712 0.108446
0.012143 -0.066321 0.026858
-0.085831 -0.036157 0.133018
-0.003530 -0.030094 0.146111
0.053300 0.031393 0.155156
-0.092118 -0.026103 -0.150453
-0.000220 -0.067080 -0.156702
-0.110738 0.023151 0.081345
-0.002086 -0.067586 0.042508
-0.063797 -0.074424 0.095581
-0.074339 0.053648 -0.150453
-0.010217 0.032334 0.056699
-0.077497 0.029448 0.135033
0.002751 -0.033529 0.040228
-0.079991 -0.036279 0.134443
0.020453 -0.000059 0.153147
-0.093895 -0.028857 0.130683
0.013700 -0.033523 0.028041
-0.111116 -0.006947 0.083689
0.013318 0.034877 0.028252
-0.034196 0.074861 0.073344
-0.085580 -0.027001 -0.147953
0.032852 -0.052719 -0.037366
-0.079089 0.024757 0.124363
-0.059310 -0.061232 0.128275
0.071649 -0.031860 0.036798
-0.111797 -0.006474 0.086201
0.043334 -0.042188 -0.150453
0.032231 -0.035559 0.037365
0.050232 -0.021975 -0.073462
-0.105544 -0.035567 0.011368
-0.036431 -0.074194 0.086414
-0.012691 -0.078874 -0.062869
-0.105559 -0.026597 0.118770
0.008885 0.070086 0.019309
-0.052461 0.061235 -0.156702
0.084965 -0.031351 0.043003
0.048869 0.025816 -0.070565
-0.048795 -0.056474 0.128994
-0.056302 -0.065543 0.092762
0.032984 0.031941 0.027664
0.086478 -0.031577 0.045470
-0.061420 -0.059739 0.130616
0.009333 0.072750 -0.069262
0.030863 0.031941 0.027131
0.009674 0.063247 -0.156702
-0.100674 0.043281 0.012315
0.007309 -0.071696 0.020911
-0.100218 0.002191 0.110513
-0.038233 -0.063732 0.123148
0.059618 -0.000059 0.032949
-0.111518 0.012128 0.094288
0.007330 -0.067560 -0.150453
-0.019650 0.031941 0.111602
-0.110882 0.005122 0.090530
0.012200 0.067143 0.006044
0.109115 0.030878 0.102218
-0.035045 0.070006 0.110089
-0.072275 -0.064502 0.123639
-0.090805 -0.005672 0.133525
-0.077762 -0.039535 0.134395
-0.024178 -0.068398 0.106993
-0.063077 -0.057415 -0.156702
0.092928 0.035441 0.055115
-0.035587 -0.064258 0.124096
-0.012635 -0.078460 -0.111323
-0.022267 0.034888 0.085680
0.054548 -0.015185 -0.077086
-0.070797 -0.028033 0.134906
-0.049164 0.063985 0.124095
-0.039522 0.034881 0.132456
-0.060034 0.042787 0.134214
-0.059204 0.067726 0.121790
-0.112260 -0.009446 0.083453
0.038086 -0.029559 0.153054
-0.045760 -0.075734 -0.015401
-0.004865 -0.029559 0.116585
0.033102 0.031678 0.026681
-0.088713 0.040527 0.130667
-0.091773 0.056166 0.062860
0.019900 -0.032059 0.004638
-0.076859 -0.008198 0.134811
-0.075284 0.048657 0.132893
0.015988 -0.000059 0.152378
-0.062281 0.064127 0.127210
0.008222 -0.071166 0.019211
0.030094 0.029441 0.027830
-0.013556 0.075113 -0.130716
-0.062540 0.071013 0.094665
-0.111923 -0.007182 0.093908
0.017233 0.031617 0.008134
0.066270 0.031444 0.151737
-0.079676 -0.059336 -0.100214
-0.086935 -0.027145 -0.156702
0.021183 -0.029559 0.150329
0.030678 0.054786 -0.032798
0.061064 -0.030755 0.031428
-0.063344 -0.074739 0.096124
-0.063358 -0.071834 0.094707
-0.056416 -0.059041 0.118375
0.012802 0.034871 0.031858
-0.038874 0.029441 0.130138
-0.061228 -0.075020 0.097461
-0.100530 0.047275 0.109289
-0.078902 -0.069974 0.093818
-0.042887 -0.000059 0.132524
-0.013352 0.072606 -0.150453
-0.018673 -0.032059 0.107435
-0.111111 0.015056 0.078900
0.052392 -0.013325 -0.077650
-0.061725 -0.067133 0.095338
-0.061159 -0.072954 0.095489
-0.016553 -0.035007 0.065241
0.036905 -0.000059 0.153437
-0.074951 -0.010705 0.134771
0.010205 0.068962 0.029032
0.019288 0.065560 -0.003293
-0.093379 -0.022507 -0.132636
-0.102685 0.034707 -0.052246
0.050034 -0.022451 -0.072920
-0.020195 0.072380 -0.156702
0.052869 -0.000059 0.154208
-0.100415 -0.008041 -0.116198
-0.023491 0.067846 0.108676
0.107999 -0.029182 0.072186
-0.095878 -0.000059 0.124617
0.051357 0.017842 -0.075627
-0.033384 0.029441 0.131749
-0.070776 -0.025209 0.133866
-0.059665 -0.073617 0.108774
-0.097916 0.039376 0.085701
-0.065373 0.029411 0.124282
0.016307 -0.032266 0.007443
-0.076518 -0.066811 -0.067508
0.012782 0.034871 0.031897
0.074801 0.031682 0.038172
0.002234 0.075059 -0.113847
-0.066980 -0.065913 0.094335
-0.020715 0.032331 0.110424
-0.111723 -0.005964 0.090570
-0.035896 -0.068680 0.114626
-0.033724 0.075235 -0.150453
0.000907 -0.072269 -0.132179
-0.082473 -0.000059 0.131548
-0.056415 -0.059090 0.123949
-0.073311 0.063945 -0.117484
-0.013658 -0.072719 -0.150448
-0.058771 0.067219 0.118046
-0.069163 -0.070392 -0.067534
-0.038263 0.029441 0.129739
-0.107267 -0.034696 0.095969
-0.091184 -0.013859 -0.156702
0.011599 -0.032453 0.018488
-0.038986 0.033629 0.132611
-0.037937 0.031941 0.132916
0.042214 0.040213 -0.056992
-0.099312 -0.005684 0.129148
-0.059128 -0.072537 0.111132
-0.021465 -0.067655 0.075311
0.012726 -0.065977 0.029529
-0.059992 -0.045852 0.134149
-0.109698 -0.006133 0.085177
-0.022596 0.065664 0.108944
-0.099501 -0.002309 0.112916
0.052481 -0.023043 -0.072649
0.004130 -0.068352 -0.156702
0.015889 0.068787 -0.019969
-0.088053 0.014595 0.123269
0.065392 0.031458 0.151962
0.070939 0.031369 0.150134
-0.051730 -0.000059 0.131548
-0.061462 0.074920 0.098878
-0.036470 -0.033353 0.132183
-0.097620 -0.000059 -0.121409
0.053625 0.000210 -0.079707
0.103873 0.029441 0.118360
-0.060374 0.058336 -0.147953
-0.105957 -0.027351 0.080540
-0.058939 0.071931 0.108604
-0.090974 -0.007135 0.134057
-0.036636 -0.076500 -0.050049
0.011075 -0.029559 0.029445
-0.032262 0.071374 0.112697
0.109766 -0.000059 0.091181
0.002257 -0.029559 0.128754
-0.002694 0.029441 0.143764
-0.087142 0.058521 0.119570
0.060779 -0.032017 0.032868
-0.022223 -0.050024 0.109153
-0.006680 0.035441 0.075184
0.049142 -0.032253 -0.066545
-0.023221 0.067697 0.107709
-0.036019 0.032333 0.132689
-0.043865 0.055916 0.127154
-0.107247 -0.000059 0.029669
-0.068762 -0.062127 0.127361
-0.032943 0.070329 0.114444
-0.035194 -0.063430 0.123327
-0.008147 0.075231 0.032600
-0.033911 0.071589 -0.150453
-0.006869 0.075075 0.031390
-0.038642 0.033807 0.132656
-0.088502 -0.060134 0.114842
-0.112061 0.006425 0.089702
-0.085839 -0.063479 0.090212
-0.070368 0.014451 0.124543
-0.012635 0.078341 -0.111323
-0.098736 0.038059 0.123553
0.107048 0.030882 0.111570
-0.078382 0.027124 0.135074
-0.024949 -0.068764 0.107982
0.050494 0.021876 -0.085652
0.053005 -0.009637 -0.078809
0.057201 0.029975 0.030258
-0.076802 -0.067497 -0.084538
-0.024456 -0.068358 0.109959
-0.111549 0.010272 0.080279
-0.092390 -0.042671 0.127528
-0.078577 -0.049488 -0.150453
0.090545 -0.035559 0.134159
-0.077830 0.009129 0.135388
-0.109115 -0.023172 0.108311
-0.032226 -0.032453 0.118075
0.036091 -0.030094 0.026049
0.017198 -0.062192 -0.156702
0.012264 0.066967 0.030532
-0.062081 -0.069815 0.082136
-0.072459 0.052402 0.119468
-0.037307 0.029441 0.130541
-0.058939 0.071931 0.108604
-0.105684 0.004941 0.119740
-0.074658 0.070063 0.093093
0.065441 -0.031973 0.034715
-0.071490 0.069927 0.048846
-0.032301 0.033405 0.115738
-0.024222 -0.067381 0.110898
0.006330 -0.032059 0.049643
-0.057808 0.045452 0.124002
-0.102435 0.043746 0.109101
-0.085536 -0.032486 -0.150453
0.096647 0.035441 0.130992
-0.039564 0.056350 0.130614
-0.079772 -0.068258 0.015323
-0.097460 -0.006364 0.130930
0.011336 0.068518 0.028240
-0.104675 0.004941 0.121380
-0.015171 -0.032453 0.065861
-0.032191 -0.069277 0.114110
-0.074588 0.034984 0.134936
-0.032377 -0.074619 0.072537
-0.102352 -0.042036 0.083077
0.039477 -0.049518 -0.120745
-0.071048 0.010279 0.128867
0.000477 0.067496 0.040077
0.057149 0.006001 -0.075243
0.036967 -0.032059 0.153124
-0.059051 0.065546 0.123159
-0.044279 -0.075457 -0.084617
-0.080139 -0.021066 0.135181
-0.051016 -0.062217 -0.156702
0.057645 -0.003751 -0.076307
-0.039810 0.057100 0.130255
-0.075667 -0.033157 0.124219
0.046947 0.020073 -0.156702
-0.102988 0.043317 0.044855
-0.022310 -0.065769 0.082310
-0.061799 -0.061003 0.114065
-0.077978 0.006634 0.133402
-0.042451 -0.072970 -0.150453
-0.023827 0.068217 0.082058
-0.058969 0.070219 0.115490
-0.059190 0.072922 0.098039
0.089214 0.030832 0.140361
-0.106691 -0.034639 0.081108
0.075529 0.029441 0.039083
0.014595 -0.032449 0.031581
0.092293 -0.030198 0.138533
-0.067493 0.072968 0.094608
0.111077 -0.029093 0.083840
-0.100110 -0.050688 0.097230
-0.024751 0.067400 0.111270
-0.025262 -0.033529 0.112992
-0.025476 -0.068723 0.110552
-0.013658 -0.072719 -0.150448
0.087280 -0.000059 0.140679
0.051356 -0.017965 -0.075625
-0.088770 0.013229 -0.156702
-0.066526 0.068169 -0.117640
0.107104 0.035441 0.090277
-0.095765 -0.022973 -0.133321
-0.097480 -0.049399 0.085440
0.099502 -0.030350 0.056430
0.016685 0.029968 0.004655
0.054584 -0.013507 -0.076390
-0.104680 -0.036069 0.113974
-0.097171 -0.041555 -0.084136
-0.075667 -0.033157 0.124219
-0.095296 0.056828 0.087342
-0.106708 0.004691 0.111943
0.104070 0.035441 0.067807
0.008115 -0.035559 0.051479
-0.066680 0.042080 0.124061
0.043524 0.031825 0.154096
-0.070234 -0.026192 0.127091
0.109766 -0.000059 0.091181
-0.072407 0.064074 0.093503
-0.030017 -0.073138 0.060796
-0.110527 -0.012443 0.078785
-0.076859 0.008079 0.134811
-0.084528 -0.068214 -0.018132
-0.093394 -0.055359 0.114748
0.049093 0.031030 -0.065343
0.007379 0.071422 0.021821
-0.090925 0.062447 0.090518
-0.021463 0.067536 0.075306
-0.085887 0.005545 0.134614
-0.068775 0.029474 0.133786
0.095939 -0.000059 0.135894
0.046984 -0.036697 -0.061597
-0.093250 -0.060565 0.090499
-0.015441 -0.031797 0.140397
-0.033460 -0.032059 0.132209
-0.075183 0.065841 -0.101027
