0.069074 0.068205 -0.010639
0.066061 -0.062937 -0.017613
0.033096 -0.052207 0.046238
-0.007266 0.025398 -0.092619
0.054200 0.000492 0.077483
0.051170 -0.040761 0.053752
-0.012877 0.062480 -0.033840
0.044254 0.031900 0.090080
0.046791 0.045621 0.049117
-0.041680 0.060645 -0.035668
0.080162 0.000000 0.070000
-0.020356 -0.036848 -0.094543
0.060607 -0.054482 0.036775
-0.071634 0.032908 -0.036370
0.056426 -0.050155 -0.032134
0.060727 -0.057049 -0.036952
-0.011288 0.049727 -0.093178
0.030257 -0.044449 0.091202
0.041614 0.043155 0.057995
-0.049829 -0.057348 0.081534
-0.031888 -0.055872 -0.083524
0.046791 -0.045621 0.049117
0.058270 0.029317 0.058650
-0.073798 0.000000 0.035250
0.037054 -0.051994 -0.036525
-0.078838 0.006593 0.079884
0.062590 0.056696 -0.038372
0.028977 -0.052696 -0.033670
0.023305 0.015028 -0.094499
-0.061013 0.045164 -0.033772
-0.050868 -0.055011 -0.034603
0.057837 0.000948 -0.069181
0.058749 -0.056530 -0.035032
-0.043141 -0.059119 0.078967
0.034630 -0.052706 -0.033920
-0.025365 -0.065646 0.036860
0.034596 -0.014951 -0.093352
0.053535 0.019518 0.079658
0.037061 -0.051918 -0.036938
0.063229 0.057378 0.032302
0.022297 0.049629 0.076632
0.020079 0.057661 0.036760
0.000089 0.068179 0.079999
-0.050964 -0.050312 -0.090029
0.009092 0.061703 0.036824
0.064152 0.057648 -0.032317
-0.055150 -0.052952 0.036723
0.054075 0.018101 0.074374
-0.068677 -0.024660 -0.033180
-0.037868 -0.026581 0.094484
0.062650 0.000000 -0.069215
-0.057173 -0.014954 0.093352
-0.067865 0.021031 -0.077131
-0.072437 0.023272 0.033156
0.053439 0.009115 -0.077339
-0.046288 -0.057724 -0.034645
0.067915 -0.063927 -0.017973
-0.019486 0.066347 0.078841
0.057955 -0.020476 -0.063132
-0.012753 0.059406 0.083463
-0.040408 0.055003 -0.079999
-0.077844 0.004621 0.088046
-0.015405 0.063731 0.036363
0.060422 -0.052805 0.030848
-0.017137 0.011479 0.091405
0.043516 -0.024854 0.084066
0.057048 -0.054332 0.033393
-0.062175 0.046741 0.081533
-0.075389 0.000000 0.090263
0.069990 -0.066593 -0.000996
-0.074775 0.027267 0.081601
0.069141 0.066195 -0.005731
-0.034278 -0.054897 0.083541
0.025155 0.047691 0.076666
-0.015044 0.063792 0.033863
0.050872 0.026803 0.079531
0.054010 0.036975 0.056720
0.054471 -0.008597 0.072201
-0.036512 0.059491 -0.076460
0.053439 0.009115 0.077339
-0.080175 -0.005708 0.079999
0.032394 0.044435 0.036026
0.062621 -0.001104 0.069189
-0.055259 0.051083 0.079107
0.057861 0.000000 0.069200
0.055719 0.016968 0.079999
-0.061696 0.046306 0.084902
-0.030569 -0.062702 -0.034071
-0.011288 0.068740 -0.084060
-0.030223 -0.032678 -0.094509
-0.064402 0.028065 -0.084010
0.057605 0.004705 -0.068978
-0.047560 -0.053749 0.076560
-0.051223 0.055536 -0.035599
0.059507 0.054373 0.036657
0.030713 0.052610 -0.036815
0.066160 -0.066806 -0.012899
0.042593 0.044680 0.046715
0.062637 -0.000521 -0.069201
0.080162 -0.067387 -0.018946
-0.002221 0.036848 -0.094543
0.080379 0.001189 0.067488
0.047146 0.036062 0.061344
0.013279 -0.030564 -0.094537
0.036843 -0.053947 -0.038382
-0.044837 -0.052733 -0.036171
-0.026403 0.020804 -0.092619
0.056678 -0.039967 0.033202
-0.070375 -0.028560 0.035749
0.028885 -0.055852 0.036159
0.054510 0.039992 0.031949
0.052861 -0.016518 0.070215
-0.007084 0.060825 0.091238
-0.036687 -0.004023 -0.092619
-0.065166 0.028224 -0.091253
0.051169 0.026579 -0.070684
-0.036211 -0.062055 -0.034710
0.064067 -0.057473 0.032611
-0.075241 -0.004237 -0.090235
-0.055745 -0.041523 0.091207
0.031252 -0.042098 -0.083765
0.016393 -0.063308 0.081554
-0.043818 0.018951 -0.094487
-0.049698 0.053241 -0.033679
0.080162 0.026163 -0.064920
0.055003 -0.017395 -0.071160
0.061064 0.008665 0.066176
0.021582 0.060742 0.081544
0.055184 0.013117 0.079770
-0.043398 -0.022424 0.094528
-0.065684 -0.042077 -0.035377
0.065051 0.065417 -0.018011
-0.040753 0.061789 0.084901
-0.065684 0.042077 0.035377
-0.071442 -0.032831 0.035207
0.064160 -0.064214 0.021425
0.049924 -0.054175 0.033971
0.066838 0.062362 0.022580
-0.064287 -0.033127 0.035829
0.022033 0.052659 -0.079999
0.029313 0.044332 -0.076725
0.000473 -0.063056 -0.090042
-0.022665 0.068179 -0.079999
0.065074 -0.062066 -0.029404
-0.036734 -0.060063 0.036798
0.061816 0.009300 0.068480
0.034186 0.042875 0.035999
0.061181 -0.054967 0.034925
-0.036211 0.062055 0.034710
0.002157 -0.057991 0.076486
-0.019438 -0.058883 -0.083472
0.062808 0.054634 -0.036976
0.040106 -0.044346 0.048488
0.020416 -0.022989 0.094527
0.053105 0.017401 -0.087968
-0.071491 -0.028708 -0.087911
0.008837 -0.057513 0.091220
-0.067589 -0.037351 0.079347
0.080379 -0.025232 0.062610
0.041614 0.043155 0.057995
0.058053 0.013129 0.069524
-0.033720 0.065338 -0.081565
0.062029 0.055785 0.034127
0.054796 0.053387 0.036182
0.027042 0.046167 0.076693
0.003837 -0.059023 -0.091228
0.050011 -0.053289 -0.036957
-0.041423 0.060065 -0.034681
0.001714 0.037232 0.094581
0.068227 0.065635 0.003685
-0.045497 -0.019133 0.094534
0.048869 0.005745 0.084399
-0.026382 0.045972 -0.093352
0.026707 -0.010368 0.094573
0.036972 0.052814 0.033950
-0.016050 -0.068930 0.081590
0.021029 -0.059077 0.034666
-0.079592 -0.004472 0.085104
0.049359 -0.031731 0.084949
0.063934 -0.059820 -0.033535
0.046282 -0.030594 -0.076964
-0.073122 0.029756 -0.036308
0.014126 -0.060102 -0.036799
-0.015311 -0.025398 -0.092619
-0.073773 0.018805 -0.077170
-0.017226 -0.037483 -0.094547
0.059774 -0.056957 -0.036082
-0.022767 0.005849 -0.091405
0.062143 -0.056611 -0.031099
-0.036234 -0.059538 -0.076459
0.055959 -0.054799 0.033993
0.059990 0.026590 -0.062834
0.013935 -0.059491 -0.076460
-0.011288 0.000000 0.091000
0.039566 -0.046815 0.079999
0.031095 0.053751 -0.084893
-0.070020 -0.015901 0.091325
-0.065572 0.042748 -0.081541
0.059261 -0.051809 -0.033423
-0.036881 -0.027606 -0.094486
0.031779 -0.051819 -0.038174
0.011123 0.065359 -0.081566
-0.027051 -0.034395 -0.094522
-0.011289 0.059376 -0.083463
0.005867 -0.033670 0.094516
0.019419 0.056930 -0.076505
-0.011288 0.038057 0.094562
-0.011288 -0.068418 -0.085034
-0.035801 -0.030571 -0.094538
0.059247 0.056854 0.036485
-0.044187 -0.060791 0.079999
0.001387 0.063097 -0.076397
0.010429 -0.063928 0.036849
0.011701 0.054897 -0.083541
0.039153 -0.041117 -0.076781
-0.044610 -0.052659 0.079999
0.051970 -0.027747 0.081598
0.009927 -0.062189 -0.034062
-0.077860 -0.004386 0.088047
0.023006 0.052039 0.036159
0.059957 -0.057385 0.033885
-0.006687 0.066587 -0.087857
-0.045281 -0.055819 -0.036225
0.058612 -0.021601 0.065268
-0.072040 -0.004040 -0.091412
0.019115 -0.057143 -0.076501
0.056711 0.000000 0.079999
0.080379 0.001189 0.067488
0.006148 0.056841 -0.083507
0.052255 0.025687 -0.067785
-0.060774 -0.038390 0.079999
0.065051 -0.065417 -0.018011
-0.039616 0.052432 -0.083584
0.039534 0.046786 -0.081534
0.067342 -0.067404 -0.013233
0.068416 0.065729 0.007248
0.049817 0.055181 0.034763
0.055959 0.054799 0.033993
0.055887 0.009662 -0.076592
-0.064749 -0.042744 -0.084911
-0.075348 0.012623 0.077278
0.014941 -0.054970 0.091210
-0.068555 -0.025036 -0.033187
-0.019533 -0.066428 0.036863
-0.047279 -0.015669 -0.094546
0.049602 0.013070 0.032978
0.049310 0.000000 0.084500
0.032351 0.053902 -0.034545
-0.057820 0.037785 0.083840
-0.009306 0.059393 -0.076462
-0.024857 0.062742 -0.033845
-0.030223 -0.032678 -0.094509
0.048783 -0.039862 -0.054705
0.048701 -0.028126 0.064889
0.062395 0.056795 -0.038186
-0.019510 0.066207 -0.035726
-0.069991 0.032127 -0.033543
-0.061345 0.033085 0.083922
0.062583 0.056702 0.038362
0.000964 -0.003981 0.091405
0.030947 -0.054347 0.040122
-0.030291 -0.061598 0.033825
-0.051329 0.050021 -0.090030
-0.068201 0.019791 0.084154
0.055526 -0.016213 -0.066732
0.053253 0.022790 -0.084991
0.011701 0.054897 0.083541
0.031485 -0.053440 -0.084893
0.037105 -0.051521 0.036150
-0.068523 -0.024577 0.035679
0.050055 0.052933 0.033674
0.057598 0.005708 0.079999
0.057406 -0.039794 -0.030446
-0.062848 0.032263 0.091235
0.032631 -0.053860 0.034556
-0.071491 -0.028708 0.087911
0.019221 -0.030500 -0.094006
0.049753 0.055764 -0.035905
-0.075328 -0.012620 0.077278
-0.003945 -0.068065 -0.084925
-0.062888 -0.030784 0.083962
0.005945 0.066253 -0.084916
0.013198 -0.030638 -0.094538
0.013168 -0.007946 -0.092619
0.045978 0.025036 -0.035687
0.054796 0.042697 0.031999
-0.023329 -0.061176 0.033818
0.042593 0.044680 -0.046715
0.061231 -0.057470 0.036302
-0.068608 0.038183 0.036471
-0.069035 0.017262 0.084198
-0.015095 0.064923 0.034107
0.000079 -0.068115 -0.081585
0.025554 -0.055577 -0.033952
-0.057622 -0.050384 0.084896
0.057589 -0.055182 0.033742
0.001866 -0.065553 0.078855
0.042172 0.042744 0.084911
0.047312 0.014388 -0.084248
0.054345 0.020095 -0.065400
-0.064287 0.033127 -0.035829
0.045201 -0.045680 -0.045435
0.017209 0.052582 -0.076581
0.050316 -0.024323 0.066974
-0.052682 -0.051719 0.036661
-0.028444 0.033670 -0.094516
0.050500 0.029447 -0.084959
0.037054 0.051994 0.036525
-0.005363 -0.059111 -0.076467
-0.071102 0.008829 -0.077344
0.045453 -0.029716 -0.090089
0.061665 0.057304 0.037021
-0.041849 0.045808 -0.092213
0.044254 0.031900 -0.090080
0.062145 -0.059396 0.033311
-0.008732 0.066786 -0.036864
0.049207 0.006791 0.091390
0.052796 -0.012682 -0.075801
-0.056266 -0.043464 0.079999
0.056669 0.039759 -0.033195
-0.038506 -0.058651 -0.076475
-0.008128 0.064251 -0.076377
0.015508 -0.053267 0.083570
0.025662 0.013398 -0.094557
0.062802 0.054637 0.036970
-0.018064 -0.038921 -0.094596
0.016688 0.052875 -0.076576
-0.018174 0.063778 0.090044
0.042172 0.042744 -0.084911
0.011155 0.065377 0.079999
0.062637 0.000521 -0.069201
-0.076381 0.012030 0.033189
-0.017137 -0.011479 0.091405
-0.074172 0.027029 0.084970
-0.005440 0.011479 0.091405
0.061939 0.055811 0.033753
0.062532 -0.054671 -0.036867
0.026888 0.046035 0.083696
0.053780 -0.014687 0.087983
-0.071442 -0.032831 0.035207
-0.071644 -0.024796 0.077066
0.056678 0.039967 -0.033202
0.049141 0.003517 0.084438
-0.057820 0.037785 -0.083840
-0.066444 -0.037501 0.087876
-0.063680 0.041276 -0.087864
0.061665 0.054717 0.036488
-0.022994 -0.036025 -0.094535
-0.051157 0.051258 -0.076604
-0.015269 0.012252 0.091405
0.027427 0.056495 -0.035972
0.034186 -0.042875 -0.035999
-0.002313 -0.066130 -0.035725
0.080379 -0.054167 -0.040289
0.061240 -0.054534 -0.036838
0.080379 -0.060587 0.029776
0.051217 0.000238 -0.035254
0.062079 0.054955 0.036160
-0.058458 0.043341 -0.090042
-0.068608 -0.038183 0.036471
0.026209 0.056662 -0.034992
-0.029786 -0.059240 0.079999
-0.064548 -0.028234 -0.077006
-0.017834 0.060616 0.091238
0.064700 -0.013226 -0.064793
-0.003714 0.058974 -0.076469
-0.000596 -0.061579 0.036325
-0.006759 -0.063710 -0.036362
-0.041770 -0.060832 -0.036822
0.053441 0.009121 0.076613
0.063934 -0.059820 -0.033535
-0.072338 -0.015060 0.079999
0.034186 0.042875 0.033498
0.052012 0.027766 0.079999
-0.028841 -0.056945 0.076505
0.039603 -0.050188 0.039616
-0.076755 0.018315 -0.034932
-0.023541 0.003981 0.091405
0.056201 0.052926 0.033275
0.000752 0.061176 0.036318
0.044581 -0.024055 -0.091275
-0.055139 0.051938 -0.034553
0.045260 -0.035366 0.087884
0.060963 0.059647 0.027945
-0.011288 0.039493 0.094595
0.046490 0.030774 -0.067408
-0.034428 -0.055036 -0.076538
0.051268 -0.025726 -0.079550
-0.038721 0.062718 0.084903
0.032076 0.047158 -0.090034
-0.076647 -0.003338 0.077440
0.056712 0.000000 -0.029751
-0.048507 -0.055367 -0.087839
0.060955 0.059651 -0.027977
0.055962 -0.054805 -0.033983
0.047878 0.021104 -0.079999
-0.027815 0.061969 0.090038
0.068092 0.065478 -0.005578
-0.074589 0.027766 -0.079999
-0.040408 0.055003 0.079999
-0.057617 -0.046970 0.033570
0.057861 0.000000 0.069200
0.037065 -0.051897 -0.036333
0.062320 -0.056749 -0.038245
0.058749 0.056530 -0.035032
-0.061599 0.039644 -0.090052
0.059442 0.056837 -0.034462
0.062029 0.055785 0.034127
0.037105 0.051521 0.036150
-0.050235 0.006604 -0.094597
-0.019243 0.063450 -0.036358
-0.073915 -0.027620 0.084967
0.054010 -0.036975 0.056720
0.065203 0.059657 -0.028652
0.027814 -0.053660 0.036761
-0.067377 0.036780 0.033626
0.080379 0.054167 -0.040289
0.042034 -0.043489 0.054758
0.056741 0.007570 0.085083
0.060866 -0.058907 -0.032071
-0.015883 0.068941 -0.081590
-0.059639 -0.039777 -0.079999
0.061447 0.057145 -0.037187
0.062630 -0.054731 0.036791
0.037364 0.049362 0.040870
-0.057234 0.030297 0.092213
0.066959 0.067744 0.007633
-0.060200 -0.048565 0.036655
-0.071223 -0.034379 0.081568
0.060026 -0.053325 -0.033505
0.059774 0.056957 0.036082
-0.068968 0.024792 0.079999
0.060274 -0.025482 -0.060604
0.028314 0.002146 -0.094630
0.000089 -0.068179 -0.079999
-0.041691 0.057143 0.076501
-0.044821 -0.017086 0.094492
-0.066352 0.030051 0.079999
-0.027795 -0.062310 -0.076411
0.066279 0.066037 -0.018479
-0.065576 -0.035995 0.076870
0.054661 0.039928 0.035211
0.043393 0.040803 0.060409
-0.076647 -0.003338 -0.077440
0.068146 -0.064250 0.016915
-0.064287 0.033127 -0.033328
0.060351 -0.056932 0.037185
0.036863 -0.053822 -0.034750
-0.080114 0.005702 0.081740
0.038926 -0.042584 0.056839
0.058862 0.056109 0.033458
0.048309 0.019891 -0.079999
-0.032465 0.060527 -0.090034
0.062127 0.055708 0.034527
0.044254 0.031900 0.090080
0.026159 -0.006297 0.094548
0.057526 -0.056280 -0.035193
0.021241 -0.018951 -0.094487
0.050033 -0.053096 0.036223
-0.049414 -0.046080 0.083695
0.066373 -0.063353 0.016281
0.080379 0.067228 0.006159
0.000473 -0.063056 0.090042
0.049310 0.000000 -0.084500
0.033096 0.052207 -0.046238
0.057550 0.005704 0.081740
-0.044052 -0.050187 0.076623
0.031887 -0.053945 -0.081530
0.021241 -0.018951 -0.094487
0.033632 0.054307 -0.037936
0.056711 0.000000 -0.077496
0.057598 -0.005708 -0.079999
0.011706 -0.054912 0.083541
0.011706 -0.054912 0.083541
0.033144 0.040603 0.076790
0.062143 -0.056611 -0.031099
-0.015311 -0.025398 0.092619
0.006340 -0.066149 0.084916
0.057176 0.005158 -0.073707
-0.030964 -0.064247 0.035708
0.063256 0.058662 -0.027574
0.058450 -0.056654 0.035913
-0.056440 -0.049100 0.087846
0.020337 -0.050634 -0.083616
-0.065059 0.042353 0.084912
0.042482 -0.042353 -0.084912
0.066115 0.005232 0.066045
0.051916 -0.040095 -0.033450
0.049745 -0.055819 -0.037188
0.068416 0.065729 0.007248
-0.001836 0.038337 0.094591
0.060309 -0.053866 -0.033722
0.034514 0.000000 -0.093821
-0.057173 -0.014954 0.093352
0.060866 -0.058907 -0.032071
-0.078208 -0.012279 -0.035969
-0.074897 -0.014816 -0.077240
0.058186 0.054198 -0.036497
-0.062111 -0.046786 0.081534
0.045436 0.034385 -0.060623
0.056985 -0.025693 -0.063574
-0.036780 0.057065 -0.036246
-0.011288 0.049727 -0.093178
0.051805 -0.021639 -0.087946
-0.067128 0.038096 0.079334
0.015399 0.060410 0.034033
-0.078106 0.005963 -0.033732
0.029331 0.053681 -0.033877
-0.078898 0.006682 -0.035866
0.069897 -0.066482 0.003828
-0.046391 0.048359 0.083655
0.043393 0.040803 -0.060409
0.052512 -0.029378 -0.063261
0.064152 0.057648 -0.032317
-0.076447 -0.022986 -0.081624
-0.042516 0.051114 0.076606
-0.048795 -0.005939 0.094550
0.038138 -0.051185 0.038073
0.051735 -0.017072 -0.077201
0.034808 -0.038749 -0.076822
0.019939 -0.051114 -0.076606
-0.054531 -0.051182 0.033876
-0.069889 -0.014388 0.084248
-0.045583 -0.052039 0.036159
-0.025324 -0.065431 -0.035719
0.050055 -0.052889 0.036174
0.049310 0.000000 0.084500
-0.068677 0.024660 0.035681
0.064697 0.060038 0.027407
0.069515 0.068763 -0.006299
0.052744 -0.022398 0.072698
0.010163 -0.032902 0.094549
0.067293 -0.068122 0.003790
0.054656 -0.039759 0.035208
0.034657 -0.030297 -0.092213
0.029254 0.050745 0.076613
0.003805 0.045981 -0.093351
-0.062501 0.000000 0.093084
-0.034283 0.054912 -0.083541
-0.073122 0.029756 0.036308
0.053780 -0.014687 -0.087983
0.046082 -0.038506 -0.081553
-0.006694 -0.068941 -0.081590
0.053427 0.040236 0.033051
0.056611 0.032954 -0.059406
0.018463 0.056779 -0.090028
0.061560 0.004863 0.066624
0.036843 -0.053947 -0.038382
0.058849 0.056781 0.036211
-0.035588 0.062482 0.078908
-0.025365 0.065646 -0.036860
0.025554 -0.055577 0.033952
0.058492 -0.055367 0.032886
0.046791 -0.045621 -0.049117
0.060673 0.024578 0.060988
-0.011289 -0.059368 -0.076462
-0.065589 0.033970 0.090071
-0.040560 0.026018 0.094527
0.057892 -0.055645 0.034049
0.056690 -0.009247 0.073163
0.051916 0.040051 0.035949
-0.069577 0.015806 -0.077223
-0.054971 0.044435 -0.033526
0.054211 0.000000 -0.077499
-0.020924 0.036696 0.094541
0.002520 -0.060956 -0.033814
0.021309 0.059646 0.035655
0.060472 -0.054562 -0.035916
-0.068677 -0.024660 -0.033180
0.057537 -0.005702 -0.081740
0.055959 0.054799 0.033993
-0.052760 0.046729 0.079999
-0.037114 0.061839 -0.078920
0.064086 0.000000 0.068856
0.040801 0.041657 -0.087863
-0.036734 -0.060063 0.036798
-0.064676 0.043593 -0.036570
0.054285 0.025378 0.065303
-0.047334 0.052986 -0.090027
0.053932 -0.005084 0.077205
-0.045882 -0.015028 0.094499
0.051352 0.031691 0.061911
-0.077295 0.009668 0.088013
0.019170 0.051324 -0.083604
0.021610 -0.060791 -0.079999
0.062808 0.054634 -0.036976
0.045012 0.037351 -0.079347
-0.011288 -0.069094 0.081589
0.080379 0.000000 0.067509
-0.011287 -0.059376 0.083463
0.062808 0.054634 -0.036976
0.056261 -0.006593 -0.079884
-0.015168 0.066514 -0.035728
-0.071893 -0.032360 0.036359
0.051938 0.027865 0.081598
0.057650 0.000000 0.083362
0.064697 -0.060038 0.027407
-0.060037 -0.045525 0.087853
-0.070375 0.028603 -0.033249
0.055003 -0.017395 -0.071160
0.062621 -0.001104 0.069189
0.059005 -0.054313 -0.036598
-0.017815 0.038965 -0.094597
-0.072179 -0.013070 0.032978
0.052664 0.004237 -0.090235
0.003805 0.045981 -0.093351
0.005238 -0.061969 -0.090038
0.052512 -0.029378 0.063261
0.030096 0.050033 0.076625
0.039160 0.041124 0.076781
0.080379 0.000000 -0.067509
0.007646 0.032678 -0.094509
-0.073122 -0.029756 0.036308
-0.024857 -0.062742 -0.033845
-0.075037 0.022862 -0.079600
0.069624 0.066153 0.007424
0.065196 -0.065906 -0.012539
0.054345 0.000000 0.075763
-0.011288 0.068418 -0.085034
-0.062714 -0.035165 0.035864
-0.047474 0.050959 -0.033639
0.048924 0.025468 -0.070709
-0.015345 0.060835 -0.091238
-0.008732 -0.066786 0.036864
0.040106 0.044346 0.048488
0.060550 -0.054478 0.036769
0.063256 0.058662 -0.027574
-0.078296 0.016968 -0.079999
0.050055 0.052889 -0.036174
-0.001625 0.066041 -0.087855
-0.034902 0.057690 -0.033757
0.057457 0.000000 0.073975
-0.015405 -0.063731 0.036363
0.008463 0.032171 -0.094506
-0.004126 -0.066359 -0.087856
-0.011288 0.025715 0.092619
0.015967 -0.061903 -0.035682
-0.067837 0.035366 -0.087884
-0.076124 0.018177 -0.033951
0.059964 -0.051601 0.030683
-0.011288 -0.025715 0.092619
-0.049478 -0.009706 0.094577
-0.030964 0.064247 0.035708
0.049310 0.000000 -0.077499
-0.059788 -0.035342 0.083883
0.021475 0.050187 0.076623
0.052761 -0.012665 0.077277
0.032631 0.053860 0.034556
0.028785 -0.055907 0.037172
-0.014374 -0.037853 0.094549
-0.075247 -0.011850 0.032957
-0.014142 0.037871 0.094549
0.000964 -0.003981 -0.091405
-0.072437 0.023272 -0.033156
-0.078236 -0.016954 -0.081661
-0.017214 -0.059098 0.076467
-0.054062 0.053440 0.084893
0.048918 -0.005750 -0.084399
0.043393 0.040803 0.060409
0.035918 -0.051322 0.043314
0.057641 -0.004726 -0.081748
0.062395 0.056795 -0.038186
0.001436 -0.002015 0.091405
0.052927 0.023927 0.063777
-0.002746 0.063793 0.076385
0.050539 -0.020918 0.077133
-0.073783 0.014125 -0.090171
0.054471 0.008597 0.072201
0.056251 0.006592 -0.079884
-0.077879 0.000000 -0.033206
-0.041798 0.030500 -0.094006
0.041971 0.028234 0.077006
0.060926 0.054826 0.034525
-0.073531 0.023636 0.033393
-0.026414 -0.059041 -0.091228
-0.036419 0.062655 0.035691
0.045962 0.025744 0.079999
-0.073779 0.001091 -0.035269
-0.017226 -0.037483 0.094547
0.069679 -0.068969 0.003972
-0.024290 -0.037232 -0.094581
-0.071887 0.000000 0.084500
0.060274 0.025482 0.060604
0.056071 0.053729 -0.036234
-0.005363 -0.059111 0.076467
0.018445 -0.062370 0.081550
0.062802 0.054637 0.036970
-0.011288 -0.025715 0.092619
-0.072923 0.029689 -0.035147
0.058466 -0.054626 0.031144
-0.057173 -0.014954 -0.093352
0.004045 -0.065420 -0.036859
0.039603 0.050188 -0.039616
0.040271 -0.032263 0.091235
-0.015311 -0.025398 0.092619
0.059656 0.054263 0.035570
0.039153 -0.041117 -0.076781
-0.071887 0.000000 0.077499
0.064714 -0.013161 -0.064805
0.063688 -0.063545 -0.023089
0.044697 0.039884 0.058203
-0.006768 0.064202 0.036863
0.059005 -0.055857 0.031846
-0.077998 -0.013312 0.035989
-0.037518 0.054970 -0.091210
0.034083 -0.054219 0.038002
0.050410 0.021499 0.072692
0.011624 0.011674 -0.092619
0.051702 -0.020453 -0.068748
-0.079679 0.000000 0.085291
0.037669 0.048445 0.049056
-0.052471 -0.044786 0.091202
0.012325 -0.057690 -0.033757
0.041462 -0.039208 -0.060427
0.062029 0.055785 -0.034127
0.061231 0.057470 0.036302
-0.002313 -0.066130 0.035725
-0.030291 -0.061598 -0.033825
-0.065589 0.033970 -0.090071
0.055003 0.017395 0.071160
-0.077844 0.004621 -0.088046
0.080162 -0.037525 0.059086
0.031429 0.042272 0.076761
0.042593 0.044680 -0.046715
-0.058418 -0.047806 0.033818
0.054443 0.036305 0.057167
0.020821 0.022424 -0.094528
-0.041423 -0.060065 0.034681
0.055012 0.007405 0.088028
0.032076 0.047158 -0.090034
0.043086 0.049161 0.045158
0.048874 -0.005782 0.077398
-0.078754 0.006001 0.034706
0.034685 0.039764 0.091211
-0.042049 0.056941 0.076505
0.055022 0.053450 -0.036185
0.001594 0.000000 0.091405
-0.055139 0.051938 0.034553
-0.078827 -0.006592 -0.079884
0.002928 -0.062838 -0.076402
-0.011288 -0.037960 -0.094545
-0.034801 0.060778 0.036810
-0.015269 -0.012252 0.091405
0.034737 0.054443 -0.036924
0.034950 -0.054054 0.038129
0.002267 0.057914 -0.083489
-0.078631 0.000000 -0.033876
-0.061735 0.045816 -0.034449
-0.035901 -0.061145 0.034045
0.058492 0.055367 0.032886
0.050003 0.053370 -0.036759
-0.047043 -0.053183 -0.090027
0.033863 0.049100 -0.087846
0.031167 0.054547 -0.079999
-0.025324 -0.065431 -0.035719
-0.079576 0.004712 0.085103
-0.005398 -0.059103 -0.083468
-0.060612 0.034217 0.083902
0.025554 -0.055577 0.033952
0.051217 -0.000238 0.035254
0.054796 -0.053387 -0.036182
0.055184 0.013117 0.079770
-0.078296 -0.016968 -0.079999
-0.038912 0.027781 -0.094529
0.035896 -0.050476 0.081530
-0.075993 0.005754 0.035351
-0.015842 0.068308 0.084926
-0.068492 -0.019293 0.077162
0.004474 0.034395 0.094522
0.053962 0.000000 -0.034514
0.034657 -0.030297 0.092213
0.039603 0.050188 0.039616
0.015458 -0.061133 -0.087842
0.063261 0.018158 0.066063
0.055959 -0.054799 0.033993
0.058634 -0.053538 0.035311
0.055816 -0.054644 0.033914
0.040488 -0.039548 -0.076808
0.054911 -0.004782 0.072714
-0.017553 0.037452 -0.094547
-0.019243 0.063494 -0.033858
0.026371 0.056923 0.035631
-0.046808 -0.012840 -0.094509
0.032076 0.047158 -0.090034
0.026896 0.056812 0.084894
-0.021981 -0.061579 -0.036325
0.054907 0.039837 0.030446
0.039958 0.035778 -0.033374
0.059261 0.051809 -0.033423
0.060026 0.053325 -0.033505
0.027208 -0.056601 -0.084894
0.042924 -0.041076 0.051915
0.062808 -0.054634 0.036976
0.026707 -0.010368 -0.094573
-0.026639 -0.057481 -0.083496
0.054211 0.000000 -0.077499
0.048096 -0.044312 0.050508
0.005307 -0.057145 0.083502
-0.075993 -0.005798 -0.032851
-0.019533 -0.066428 -0.036863
-0.015728 0.066598 -0.087857
0.056099 0.053737 -0.036236
0.056555 0.053853 -0.036277
-0.010317 -0.039490 -0.094596
-0.008759 -0.065926 0.034761
-0.035901 -0.061145 -0.034045
-0.003342 -0.024456 0.092619
0.058648 0.053551 -0.035314
-0.069369 0.016250 -0.084216
0.051702 -0.020453 -0.068748
0.054075 -0.018101 0.074374
0.010846 -0.030467 0.094497
0.029710 -0.054905 0.041442
0.062145 0.059396 0.033311
0.060452 -0.025507 -0.063294
0.080162 -0.062822 0.030875
0.012329 -0.057752 0.033758
0.049104 0.021362 -0.090130
-0.034201 -0.011674 0.092619
-0.053841 -0.042112 0.083765
0.061864 0.000000 0.066900
0.056741 0.007570 0.085083
0.050539 -0.020918 -0.077133
0.026859 -0.045998 0.083697
0.043136 -0.038025 0.057583
-0.016007 -0.068297 0.084926
-0.025365 -0.065646 -0.036860
0.045893 -0.043467 0.051491
0.026406 -0.056979 0.035850
0.031429 0.042272 0.076761
0.061330 0.057449 0.036476
0.062580 -0.056700 -0.038365
0.000089 -0.068179 -0.079999
-0.022994 -0.036025 0.094535
0.057992 -0.055795 0.034173
-0.053719 -0.054514 0.081531
0.056925 -0.055817 0.034651
0.066279 0.066037 -0.018479
-0.038970 0.063308 -0.081554
0.058450 0.056654 -0.035913
-0.075247 0.011850 -0.032957
0.051668 -0.017425 -0.074346
-0.008324 -0.039401 0.094598
0.037053 -0.052001 -0.036740
0.055155 -0.000427 -0.072955
-0.037131 -0.061878 -0.078919
-0.040753 0.061789 -0.084901
0.036339 0.046406 -0.048485
0.040106 0.044346 0.048488
-0.003342 0.024456 -0.092619
0.042034 0.043489 -0.054758
0.025441 0.055387 -0.033866
0.039022 -0.039644 0.090052
-0.041680 0.060645 -0.035668
0.051907 -0.039837 0.033445
-0.072923 -0.029689 0.035147
-0.078697 0.015164 0.081672
0.067691 -0.066308 0.018641
-0.033501 -0.064753 0.084910
0.051352 0.031691 0.061911
0.056370 0.053214 -0.033256
0.011834 -0.054994 -0.076539
-0.056083 -0.047153 0.076675
0.034842 -0.045795 0.076699
-0.035535 -0.060063 0.033798
0.026496 0.057113 0.036780
-0.065572 0.042748 0.081541
-0.039556 -0.053940 0.091207
0.062583 0.056702 -0.038362
0.055096 -0.029700 -0.061575
0.013616 0.059554 0.076459
0.054923 0.040159 -0.030455
0.057824 -0.052817 0.035304
-0.074456 -0.023936 -0.034056
-0.028887 0.061891 -0.036331
0.080379 0.067228 0.006159
0.042974 0.036031 0.076870
-0.007266 0.025398 0.092619
-0.025365 -0.065646 -0.036860
0.009311 0.055872 0.083524
0.054923 -0.040159 -0.030455
0.019561 0.021535 -0.094482
-0.011288 0.062289 0.090891
0.062637 -0.000521 0.069201
-0.033732 0.065377 0.079999
0.054911 -0.004782 0.072714
-0.008821 0.063840 -0.033864
-0.049314 0.002583 -0.094574
0.037601 0.051535 -0.042085
0.068532 -0.068814 -0.000891
0.028752 -0.050021 0.090030
0.061330 0.057449 0.036476
0.045453 -0.029716 -0.090089
0.059507 -0.054373 0.036657
-0.011311 0.064263 -0.076377
-0.014142 0.037871 -0.094549
0.001714 0.037232 0.094581
0.062433 -0.056819 0.038158
-0.074589 -0.027766 -0.079999
-0.070865 -0.032557 -0.034213
-0.059224 -0.036498 0.076861
0.058270 -0.029317 -0.058650
0.064086 0.000000 0.068856
0.052744 0.022398 0.072698
-0.053744 0.054547 0.079999
0.034657 -0.030297 0.092213
-0.055541 -0.052427 0.035552
-0.067837 0.035366 0.087884
0.066446 -0.067396 -0.000844
-0.048507 -0.055367 0.087839
0.053439 0.009115 0.077339
0.058612 -0.021601 -0.065268
-0.037003 0.000000 -0.092619
-0.009700 0.062480 0.036341
-0.045607 0.015616 -0.094497
-0.039786 -0.052582 0.076581
0.054075 0.018101 -0.074374
-0.045607 0.015616 0.094497
0.058053 -0.013129 -0.069524
-0.049554 0.000000 0.094603
-0.053482 -0.042492 -0.083758
-0.074059 0.017685 -0.033059
-0.068523 0.024577 -0.033179
-0.067158 0.024055 0.091275
0.039002 0.034208 0.091228
-0.033720 0.065338 -0.081565
-0.068957 -0.031608 -0.033302
-0.002746 0.063793 -0.076385
-0.070168 0.015349 0.091328
-0.063680 0.041276 0.087864
-0.060157 -0.044339 -0.036024
0.019272 0.045817 0.092212
0.024662 0.053975 0.076556
0.037601 0.051535 -0.042085
-0.078106 0.005963 0.033732
-0.041037 0.059182 -0.034012
-0.011288 0.066766 -0.036864
0.056690 0.009247 0.073163
-0.028522 -0.066253 -0.084916
-0.050333 -0.054205 0.033928
0.052512 -0.029378 -0.063261
-0.008968 -0.066785 0.078833
-0.054531 0.051182 0.033876
0.024088 -0.054338 0.076550
0.061864 0.061203 -0.002991
-0.061491 0.033254 -0.076918
0.052255 -0.025687 -0.067785
0.049378 -0.032025 0.064180
0.010190 0.063113 -0.034724
0.014986 0.062443 0.036837
0.062581 -0.056701 0.038364
0.080162 -0.026163 0.064920
0.080379 -0.045943 0.049460
-0.019235 0.024456 -0.092619
0.059964 0.051601 0.030683
0.053750 -0.021583 0.069633
0.059069 0.053950 -0.035471
-0.052697 0.049992 0.076626
0.034596 -0.014951 0.093352
-0.073845 0.025726 0.079550
0.012325 -0.057690 -0.033757
0.004868 0.062068 0.090038
0.060665 0.054526 0.034160
0.003616 -0.036478 -0.094575
0.023006 0.052039 0.033658
0.057261 0.054022 -0.036368
0.027042 0.046167 -0.076693
-0.069068 0.017359 0.077196
-0.060157 0.044339 -0.036024
-0.022654 -0.068113 0.081585
0.059247 -0.056854 0.036485
0.045893 -0.043467 -0.051491
-0.045583 -0.052039 0.033658
-0.072330 0.029446 -0.034156
-0.036743 -0.060090 -0.036799
-0.011288 -0.066766 -0.036864
0.020115 0.057172 0.033748
0.054186 -0.000997 -0.077471
-0.034906 0.057752 0.036258
-0.073122 0.029756 0.036308
0.054075 -0.018101 -0.074374
0.045161 0.021019 0.084133
0.048914 0.028708 -0.087911
-0.078062 0.015047 -0.085035
0.047000 -0.015806 0.077223
0.045526 -0.037608 0.055051
-0.078106 0.005963 -0.033732
-0.018451 0.066359 -0.087856
0.009419 -0.061614 -0.036823
-0.002382 -0.065498 0.034756
-0.005398 -0.059103 -0.083468
-0.074897 -0.014816 0.077240
0.008562 -0.061385 0.076427
-0.018174 0.063778 0.090044
0.061222 -0.057015 -0.037365
0.016979 0.053940 -0.091207
0.060963 -0.059647 0.027945
0.026406 -0.056979 0.035850
-0.017791 -0.037410 -0.094547
0.060151 -0.057457 -0.034280
-0.017179 0.059103 -0.083468
-0.042741 -0.059345 0.078963
0.060741 -0.058670 0.032452
0.049793 -0.055336 -0.038377
0.046100 0.024660 -0.035681
-0.017894 0.066465 0.078839
0.013168 0.007946 -0.092619
0.051702 -0.020453 0.068748
-0.069102 -0.037772 -0.081556
-0.015311 -0.025398 0.092619
-0.013932 0.064273 -0.076377
0.011155 0.065377 -0.079999
-0.049619 -0.046167 0.076693
0.065727 0.062292 0.021117
-0.014495 -0.039382 0.094598
-0.006687 0.066587 0.087857
0.010366 0.063723 0.035703
0.006506 0.056884 0.076506
0.060102 0.000000 0.070580
0.042034 0.043489 0.054758
-0.021196 -0.067739 0.084923
-0.022937 0.063003 -0.036350
0.069011 -0.065389 0.012183
0.001436 -0.002015 -0.091405
0.034514 0.000000 -0.093821
0.056690 0.009247 0.073163
0.036647 0.036498 -0.076861
-0.039811 -0.024526 0.094481
0.003826 -0.020804 -0.092619
-0.050832 0.002747 -0.094625
-0.026403 -0.020804 -0.092619
0.056985 -0.025693 0.063574
0.018445 -0.062370 -0.081550
0.051538 0.000000 0.090889
0.060673 0.024578 -0.060988
0.060955 0.059651 -0.027977
0.031341 -0.054886 0.037588
-0.049478 -0.009706 -0.094577
-0.005440 -0.011479 -0.091405
0.062806 -0.054639 -0.036968
0.040825 0.046383 0.044751
0.055196 -0.042668 0.030501
-0.039811 -0.024526 -0.094481
0.055096 -0.029700 0.061575
-0.045376 0.059362 -0.084896
0.062079 0.054955 0.036160
0.059005 -0.054313 0.036598
0.019434 -0.056963 0.076504
0.048783 -0.039862 0.054705
0.031568 -0.050228 -0.046217
0.049793 -0.055336 0.038377
-0.056081 0.041159 0.091207
-0.057091 0.000000 -0.093821
-0.077984 -0.012262 0.034819
-0.068539 -0.025744 0.079999
-0.071887 0.000000 -0.077499
0.061360 0.055014 -0.035194
0.024964 -0.054587 -0.033703
-0.019831 -0.063793 -0.076385
0.052711 0.000000 0.032346
0.062434 -0.054614 -0.036945
0.058849 -0.056781 0.036211
-0.044998 -0.049312 -0.083639
0.049355 0.030644 -0.068332
0.080379 0.064989 0.018272
-0.014142 0.037871 -0.094549
0.043012 -0.036057 0.076869
0.080162 -0.069708 -0.006386
0.003913 0.067402 0.081579
0.069242 -0.065682 -0.010619
-0.046391 0.048359 -0.083655
0.021941 -0.057855 0.087839
-0.063760 0.034294 -0.079999
0.052861 0.016518 0.070215
-0.041849 -0.045817 -0.092212
0.003805 -0.045972 0.093352
0.012804 0.055950 0.091213
0.052744 0.022398 0.072698
-0.079018 0.009894 -0.085068
0.063479 0.017498 -0.063662
0.000089 -0.068179 -0.079999
0.059255 -0.016557 0.064431
0.048954 -0.005519 -0.084403
0.022033 0.052659 -0.079999
-0.059986 -0.043214 -0.076744
-0.047202 -0.011669 -0.094516
0.034932 -0.053689 0.034658
0.019419 0.056930 -0.076505
0.058910 0.055648 -0.031698
0.048783 0.039862 -0.054705
-0.064397 -0.028061 0.084010
0.051183 -0.018846 -0.077170
0.012329 0.057752 -0.033758
-0.019353 -0.064622 0.034102
-0.078754 -0.006001 0.034706
-0.034906 -0.057752 -0.033758
-0.075247 0.011850 0.032957
-0.061758 0.041084 0.076781
-0.011288 0.064114 -0.090064
-0.074456 -0.023936 -0.034056
0.016047 -0.062097 -0.036834
0.080379 0.036190 0.056984
0.080162 0.013929 -0.068591
0.045978 0.025036 -0.035687
0.041183 -0.034294 0.079999
-0.074172 0.027029 0.084970
-0.034411 0.054994 0.076539
0.062590 0.056696 0.038372
0.045886 -0.037011 0.063753
-0.067066 -0.022910 0.077099
-0.074662 0.017268 0.036054
0.049164 -0.003262 0.077442
0.036800 -0.054402 0.035902
-0.057234 -0.030303 -0.092212
0.027658 -0.006604 0.094597
0.003826 0.020804 -0.092619
0.011270 -0.058287 0.036268
-0.011288 0.067509 -0.086820
0.062808 -0.054634 -0.036976
0.046458 -0.017262 -0.084198
-0.049554 0.000000 -0.094603
0.027208 -0.056601 -0.084894
-0.077984 0.012262 -0.034819
-0.047043 -0.053183 -0.090027
-0.030871 0.064011 0.078882
0.033863 0.049100 -0.087846
0.058694 -0.054270 -0.036560
-0.045528 0.050328 -0.091201
0.064714 -0.013161 -0.064805
-0.032948 -0.063121 0.087846
0.041462 -0.039208 0.060427
-0.013271 -0.059393 -0.076462
0.042593 -0.044680 -0.046715
-0.026490 -0.067402 -0.081579
0.042034 0.043489 0.054758
0.026496 0.057113 -0.036780
0.064971 0.064195 -0.023692
0.050033 -0.053096 -0.036223
-0.047474 0.050959 -0.033639
0.063229 -0.057378 0.032302
0.052720 0.000000 0.032343
-0.076040 0.022187 -0.084995
-0.000596 0.061579 -0.036325
0.045288 -0.021031 0.077131
0.062581 0.056701 0.038364
-0.008968 -0.066785 0.078833
-0.070318 0.014739 0.091333
0.029980 0.055447 -0.036301
0.026741 -0.047508 -0.091200
0.047308 0.025874 0.090107
-0.064080 -0.030196 0.091244
0.054082 -0.022376 0.081627
0.039340 0.052177 0.041110
-0.049284 0.010368 0.094573
-0.036512 0.059491 -0.076460
0.049310 0.000000 -0.084500
-0.074093 -0.005107 0.079999
0.045886 -0.037011 -0.063753
0.049310 0.000000 0.084500
0.038450 -0.046069 -0.046461
0.061029 0.013358 0.067715
-0.057262 -0.039764 -0.091211
-0.073122 -0.029756 -0.036308
0.057615 0.052457 -0.030683
0.056669 0.039759 0.033195
0.063229 -0.057378 0.032302
0.056685 0.001079 -0.077471
0.060866 0.058907 -0.032071
0.014391 -0.060041 0.036798
0.060151 -0.057457 -0.034280
-0.071893 -0.032360 -0.036359
-0.044819 0.017084 -0.094492
0.045893 0.043467 -0.051491
-0.011288 0.046072 0.093684
-0.061310 -0.040009 -0.090051
0.059442 -0.056837 -0.034462
0.015167 -0.053613 0.076563
-0.008081 0.039382 -0.094598
0.038450 0.046069 0.046461
0.045607 -0.041440 -0.050036
0.026532 0.054817 -0.033867
0.062433 0.056819 0.038158
0.057824 0.052817 0.035304
0.037105 0.051565 -0.033650
-0.047334 0.052986 -0.090027
0.002839 0.062564 0.090040
0.040579 0.039432 0.076810
0.051216 -0.000260 0.032754
0.057955 0.020476 0.063132
-0.076755 0.018315 0.034932
0.026888 0.046035 0.083696
0.027730 0.053185 0.033678
0.000752 -0.061176 -0.033818
0.059069 0.053950 -0.035471
0.059271 -0.005096 0.070802
0.008837 -0.057513 0.091220
-0.006866 0.063996 -0.090045
0.048398 0.037997 0.053078
-0.048263 0.054684 0.036711
-0.024013 -0.002015 0.091405
0.033506 0.047153 -0.076675
-0.037868 -0.026581 0.094484
0.032394 0.044435 0.033526
-0.011288 -0.066765 0.078834
0.062590 -0.056696 0.038372
0.035710 -0.037263 0.083849
0.019272 0.045817 0.092212
-0.021711 0.007572 -0.091405
-0.080109 0.000000 -0.083927
-0.074662 -0.017268 0.036054
-0.011288 0.025715 0.092619
0.064142 -0.060131 -0.003592
0.026496 -0.057113 0.036780
0.032241 0.051803 0.033654
-0.019353 -0.064622 -0.034102
0.050316 0.024323 -0.066974
-0.069245 -0.029919 0.076976
0.037053 -0.052001 0.036740
-0.064527 0.028221 -0.077006
0.054471 0.008597 0.072201
0.041462 0.039208 -0.060427
-0.062366 -0.046358 -0.036619
-0.068115 0.038154 0.084924
0.080379 -0.025232 0.062610
-0.024440 -0.065539 0.078855
-0.063680 0.041276 0.087864
0.053862 -0.005794 -0.077397
-0.039786 -0.052582 -0.076581
-0.025905 -0.065291 0.078859
0.047395 -0.014323 -0.077249
0.039161 -0.046867 0.051013
0.057835 -0.052827 -0.035302
0.058186 0.054198 -0.036497
-0.015311 -0.025398 -0.092619
-0.035801 -0.030571 -0.094538
0.031358 0.054880 0.037591
0.045436 0.034385 0.060623
-0.064388 -0.041123 -0.033702
0.000089 0.068179 -0.079999
0.038950 0.033278 -0.076918
-0.022937 0.063003 -0.036350
0.058171 -0.053116 0.035267
0.038035 -0.034217 -0.083902
0.033856 -0.051987 -0.036876
-0.031888 -0.055872 0.083524
-0.018861 0.010422 -0.091405
0.043813 0.043185 -0.052949
-0.007021 -0.064007 0.090045
0.059196 0.056604 -0.034051
0.028742 0.055533 0.035190
-0.059061 0.037648 -0.091216
-0.062888 -0.030784 -0.083962
-0.006768 -0.064202 0.036863
0.057442 -0.000485 -0.073962
-0.057820 0.037785 -0.083840
-0.071636 -0.024811 -0.077065
0.057055 -0.050191 0.030641
0.038740 0.046715 -0.084902
-0.036492 -0.062853 0.036841
-0.011288 0.000000 -0.091000
-0.071503 -0.005787 0.077398
0.048874 -0.005782 -0.077398
0.008562 -0.061385 0.076427
0.049000 -0.024834 0.077065
0.068217 -0.065088 -0.012886
0.053427 -0.040236 -0.033051
0.022033 0.052659 0.079999
0.022784 -0.049346 0.076637
-0.018863 -0.058974 0.076469
0.053708 -0.042826 0.033097
0.045012 0.037351 0.079347
0.047591 -0.015349 0.091328
0.045886 0.037011 0.063753
-0.077537 0.017212 -0.085022
0.065663 -0.066478 -0.009871
0.025026 0.058026 0.084894
0.061190 0.060082 -0.027271
-0.079119 0.000000 -0.034757
0.059389 0.052067 -0.033384
0.056690 -0.009247 0.073163
-0.041772 -0.024517 0.094527
0.054601 -0.028119 -0.059686
-0.062366 0.046358 -0.036619
0.080379 0.013434 -0.066150
0.066438 0.064413 -0.024171
-0.059095 -0.048504 0.034496
0.045946 0.024577 0.035679
-0.075071 -0.024126 -0.035042
-0.074589 -0.027766 -0.079999
0.045607 -0.041440 0.050036
0.026977 0.000000 -0.094603
0.026795 0.002005 0.094579
0.013634 -0.059597 0.076458
0.016144 -0.062718 -0.084903
0.023509 -0.057521 -0.078995
-0.033700 -0.065359 0.081566
0.024088 -0.054338 0.076550
0.053863 0.032013 -0.060253
-0.019510 -0.066207 0.035726
0.052512 -0.029378 0.063261
0.022920 0.019133 -0.094534
0.025437 -0.055380 0.033902
0.037284 -0.048226 0.052063
-0.051157 0.051258 -0.076604
0.051169 -0.026579 -0.070684
0.058749 -0.056530 0.035032
-0.055035 0.046803 0.090034
-0.013271 -0.059393 -0.076462
-0.068523 -0.024577 0.033179
0.057992 -0.055795 -0.034173
0.057892 0.055645 0.034049
-0.037942 -0.028728 0.094531
0.062307 0.061426 0.027629
0.009888 -0.060527 0.090034
0.045980 -0.031202 0.076954
0.057232 -0.052570 0.032178
-0.062825 0.035261 0.035866
0.035881 -0.043341 -0.090042
0.061864 -0.061203 -0.002991
-0.048837 0.055761 -0.079026
0.034737 -0.054443 -0.036924
-0.061256 -0.033714 -0.076910
-0.070526 0.011630 0.077296
0.054510 0.039992 -0.031949
0.039161 0.046867 0.051013
0.056496 0.012164 0.067807
-0.019235 -0.024456 0.092619
-0.034271 -0.055107 -0.076537
0.051907 -0.039794 -0.035945
0.023814 -0.048359 0.083655
0.022719 0.054323 -0.090027
0.056370 -0.053214 -0.033256
0.054443 -0.036305 -0.057167
-0.030291 -0.061598 -0.033825
0.054718 -0.009668 -0.088013
0.009298 -0.031622 -0.094503
-0.035745 0.007946 -0.092619
-0.002179 0.009110 -0.091405
0.062618 -0.057192 -0.031585
-0.044694 0.049470 0.083636
-0.045376 0.059362 -0.084896
-0.015179 0.066736 0.036864
0.050003 -0.053370 0.036759
-0.006866 0.063996 -0.090045
0.040706 -0.044354 -0.056763
0.066438 -0.064413 -0.024171
-0.073125 -0.022734 0.036151
0.062808 0.054634 0.036976
0.003826 0.020804 0.092619
0.037212 0.035342 -0.083883
0.021309 -0.059646 0.035655
-0.011288 0.037960 0.094545
-0.011288 -0.066695 -0.087915
-0.076540 0.019838 0.036114
-0.074775 0.027267 -0.081601
-0.030291 -0.061598 0.033825
0.010743 -0.062992 -0.087846
0.006253 -0.056911 0.076505
0.049378 0.032025 0.064180
0.025176 0.056517 -0.079012
-0.073531 0.023636 -0.033393
0.049731 0.026929 0.087920
0.051218 -0.018881 0.073755
0.022033 0.052659 -0.079999
0.039545 -0.046795 0.081533
0.031779 -0.051819 0.038174
0.060125 -0.052037 -0.030710
0.020610 0.058208 0.033996
0.049041 0.024850 0.077065
-0.069130 -0.033208 0.087892
0.005904 -0.064486 -0.087850
0.034639 -0.047371 -0.050685
-0.068677 -0.024660 -0.035681
0.048424 -0.031692 0.079446
0.053863 -0.032013 0.060253
-0.075993 -0.005754 0.035351
0.026888 0.046035 -0.083696
0.066279 0.066950 0.012244
-0.015139 0.065877 0.034761
0.050033 -0.053096 0.036223
-0.018861 0.010422 -0.091405
0.002520 -0.060956 -0.033814
0.038138 0.051185 -0.038073
-0.057821 -0.037787 -0.083840
-0.080175 -0.005708 0.079999
0.034657 0.030303 0.092212
0.054200 -0.000492 -0.077483
-0.062228 -0.041949 -0.035982
0.030947 0.054347 -0.040122
-0.011278 0.062364 0.033839
-0.075247 -0.011850 -0.032957
0.064697 0.060038 0.027407
0.059912 -0.053105 0.033447
0.026532 0.054817 -0.033867
0.026218 0.005939 -0.094550
0.062527 -0.057016 0.031874
-0.069885 -0.025874 -0.090107
-0.019291 0.063939 -0.036859
0.050003 -0.053370 0.036759
-0.072950 0.010201 -0.035428
-0.076289 0.000000 0.032750
0.065298 -0.009759 -0.067993
0.057851 -0.000421 0.069193
-0.055453 0.047726 0.076665
-0.018174 0.063778 -0.090044
0.006253 -0.056911 -0.076505
0.037829 -0.045126 0.087854
-0.054464 0.053945 -0.081530
-0.064676 -0.043593 -0.036570
-0.024857 -0.062742 0.033845
0.011155 -0.065377 0.079999
0.036895 -0.047238 0.079174
0.010163 -0.032902 0.094549
-0.047239 -0.053975 0.076556
-0.062122 0.046795 -0.081533
0.058130 0.054610 -0.032503
-0.015311 -0.025398 -0.092619
0.046249 -0.019761 0.091300
0.033689 0.043464 -0.079999
0.028314 0.002146 -0.094630
0.034639 -0.047371 0.050685
0.026265 0.055772 0.079025
0.050067 -0.030122 0.060448
0.080379 0.060587 0.029776
-0.072517 0.032018 -0.081578
0.061665 0.054717 0.036488
0.034685 0.039764 0.091211
0.005518 0.064588 0.087850
0.062347 -0.005221 0.068971
0.048926 0.005787 0.077398
-0.029472 -0.018183 -0.092619
-0.038970 0.063308 0.081554
-0.044874 -0.049629 -0.076632
-0.072179 0.013070 -0.032978
0.062357 0.056772 0.038215
-0.047474 0.050959 -0.036140
-0.074547 0.027747 -0.081598
-0.068555 -0.025036 -0.035687
-0.035949 -0.060398 -0.036804
0.054200 0.000492 0.077483
-0.071887 0.000000 0.077499
0.048179 0.032976 -0.066791
-0.024857 -0.062742 0.033845
-0.056763 0.042875 -0.035999
-0.067377 0.036780 0.033626
0.054661 -0.039928 0.035211
0.080379 -0.036190 0.056984
0.027241 -0.056155 -0.035071
-0.064388 0.041123 0.033702
-0.034283 0.054912 0.083541
0.021179 -0.059923 0.036813
0.057837 -0.000948 -0.069181
-0.033847 -0.058287 -0.033767
0.053810 0.000000 -0.031250
-0.070455 -0.021104 0.079999
0.056925 0.055817 -0.034651
-0.073783 0.014125 0.090171
-0.060037 -0.045525 -0.087853
0.056120 -0.015164 -0.081672
-0.059687 0.049087 -0.036664
0.066438 -0.064413 -0.024171
0.026859 -0.045998 0.083697
-0.049554 0.000000 -0.094603
0.067398 0.068239 -0.000868
0.010924 0.064753 0.084910
0.068314 0.068565 -0.005641
0.045320 0.038477 -0.084923
0.060452 0.025507 0.063294
0.050015 -0.053264 -0.036355
0.034639 -0.047371 -0.050685
-0.066392 -0.036171 0.033381
-0.021196 -0.067739 -0.084923
0.064424 -0.013966 -0.067178
0.046061 0.020296 0.091297
-0.068439 -0.038833 -0.081552
-0.073669 -0.029710 -0.081589
-0.068523 0.024577 -0.035679
0.080379 0.064989 -0.018272
0.062145 0.059396 0.033311
0.052716 -0.013124 -0.075700
0.039924 0.000000 -0.093084
-0.055139 0.051938 0.034553
0.053740 0.006363 -0.077387
0.057409 -0.039874 -0.030450
-0.070526 0.011630 0.077296
0.057066 -0.055926 -0.034778
0.058492 -0.055367 0.032886
-0.068201 0.019791 0.084154
-0.064083 -0.029160 -0.076990
0.061665 -0.054717 -0.036488
0.049310 0.000000 -0.084500
-0.009824 -0.059406 -0.083463
0.065092 -0.064374 0.023241
-0.075241 -0.004237 0.090235
-0.066929 -0.024579 0.091272
-0.020398 -0.009110 0.091405
0.014110 -0.004023 -0.092619
0.046828 0.016412 0.077212
0.031167 -0.054547 0.079999
0.054471 0.008597 0.072201
-0.076322 -0.006319 0.077388
-0.023832 0.067300 -0.084921
0.043605 0.026199 -0.091263
0.027814 0.053660 0.036761
0.051352 -0.031691 0.061911
0.028369 -0.052791 -0.041485
0.058429 -0.049292 -0.033376
-0.035775 0.030638 -0.094538
0.036972 0.052814 -0.033950
0.039958 -0.035778 0.035875
0.064714 0.013161 -0.064805
-0.078062 0.015047 -0.085035
0.080162 0.001232 0.069978
0.005143 0.035785 -0.094569
-0.075993 -0.005798 -0.032851
0.042777 -0.046848 0.047986
0.040579 0.039432 -0.076810
-0.002179 -0.009110 -0.091405
-0.003139 0.058883 -0.083472
0.057992 0.055795 -0.034173
0.022244 0.017086 -0.094492
0.053035 -0.011488 -0.077298
-0.011288 -0.046063 0.093685
0.062808 -0.054634 -0.036976
0.032876 -0.047726 -0.076665
0.048449 -0.042530 0.048774
0.053870 0.022986 -0.081624
0.048958 0.005575 0.077401
0.049924 0.054175 -0.033971
-0.033072 0.055437 -0.083532
0.080379 0.001189 0.067488
-0.070020 -0.015901 -0.091325
0.052460 -0.022862 -0.079600
0.037061 0.051918 0.036938
-0.037670 -0.061292 0.087843
-0.011288 0.068454 -0.084923
0.043012 -0.036057 -0.076869
0.011270 -0.058287 0.036268
0.064489 -0.013655 -0.067238
0.005518 0.064588 -0.087850
0.014255 0.059568 -0.036290
0.026795 0.002005 0.094579
0.059144 0.049126 -0.030635
0.061178 0.054688 0.036257
-0.025214 0.064805 0.034747
-0.078898 -0.006682 -0.035866
-0.050362 -0.005952 0.094602
-0.011288 -0.066695 -0.087915
-0.070497 -0.011557 -0.084298
0.001436 -0.002015 -0.091405
0.029710 -0.054905 0.041442
0.036793 0.054446 -0.037192
0.054285 -0.025378 -0.065303
-0.038346 -0.062881 0.084904
0.006264 0.056945 -0.076505
0.053776 0.006367 0.077017
-0.019446 0.065574 -0.034757
-0.041680 -0.060645 -0.035668
0.046525 0.037772 -0.081556
0.061064 -0.008665 0.066176
-0.015728 0.066598 -0.087857
0.031931 -0.051864 -0.033655
0.038035 -0.034217 -0.083902
0.069569 -0.068832 -0.005763
0.034716 0.051461 -0.036149
0.054186 -0.000997 0.077471
-0.071442 -0.032831 -0.035207
0.023006 -0.052039 -0.036159
0.067851 -0.063842 -0.018299
0.055719 0.016968 -0.079999
0.049310 0.000000 0.084500
0.053862 -0.005794 -0.077397
0.025662 0.013398 -0.094557
-0.025050 -0.063861 0.034090
-0.047043 -0.053183 -0.090027
0.042593 -0.044680 0.046715
0.051735 -0.017072 0.077201
-0.015269 -0.012252 -0.091405
0.029710 0.054905 -0.041442
0.055361 0.000000 0.088162
0.058054 0.053614 -0.030821
0.055959 0.054799 0.033993
0.032751 -0.054484 0.035528
-0.028732 0.056866 -0.083507
0.032631 0.053860 0.034556
-0.041423 -0.060065 -0.034681
0.049983 -0.026354 -0.087922
0.011624 0.011674 0.092619
0.024948 -0.015078 -0.094549
0.057650 0.000000 -0.083362
0.048473 0.008981 -0.084343
-0.033255 -0.060701 -0.076439
0.039545 -0.046795 -0.081533
-0.063463 0.040425 0.033456
0.051938 0.027865 -0.081598
-0.077984 0.012262 0.034819
0.039665 0.041600 0.057884
0.050003 -0.053370 -0.036759
-0.020952 -0.066041 0.087855
0.062347 0.005221 0.068971
0.028387 0.050312 -0.090029
-0.008759 0.065926 -0.034761
-0.054464 0.053945 -0.081530
0.054521 0.040166 -0.031953
0.058694 -0.054270 0.036560
-0.053710 0.054502 -0.081531
0.027427 0.056495 -0.035972
0.080379 -0.025232 0.062610
0.059727 0.057193 0.033379
0.046578 0.037806 0.079999
-0.046699 -0.058453 0.036796
0.023038 0.052122 -0.036160
0.060274 -0.025482 0.060604
-0.040932 0.060232 -0.078948
0.048077 0.034069 -0.084939
-0.041798 0.030500 -0.094006
0.045915 0.019293 -0.077162
0.080162 -0.067387 0.018946
-0.062848 0.032263 -0.091235
-0.065572 0.042748 0.081541
0.059404 -0.056712 0.032615
-0.058418 -0.047806 -0.033818
-0.069889 -0.014388 -0.084248
0.058862 0.056109 -0.033458
-0.009306 0.059393 -0.076462
-0.015139 0.065877 0.034761
-0.071451 0.005782 0.077398
0.060673 -0.024578 0.060988
0.062808 0.054634 0.036976
-0.002179 -0.009110 -0.091405
0.061231 -0.057470 -0.036302
-0.003316 -0.058925 0.076470
-0.011288 0.062289 -0.090891
-0.070706 -0.011050 0.077306
0.029961 0.052070 0.039782
-0.055541 -0.052427 -0.035552
0.054070 0.003338 -0.077440
0.058308 0.053239 -0.035269
0.051441 0.036043 -0.057626
-0.063559 0.029665 0.083982
0.043136 0.038025 -0.057583
-0.020356 -0.036848 0.094543
0.052012 -0.027766 -0.079999
0.013168 0.007946 -0.092619
0.028839 0.045690 -0.091201
0.032756 0.054471 0.037808
0.047000 -0.015806 -0.077223
0.061560 0.004863 0.066624
0.062011 0.021542 -0.062274
-0.001625 0.066041 0.087855
-0.062122 0.046795 -0.081533
-0.004006 -0.061517 0.079999
0.022033 0.052659 0.079999
0.045893 -0.043467 -0.051491
0.051916 -0.040095 0.033450
0.060607 -0.054482 -0.036775
-0.068610 0.025590 0.079999
0.057671 0.054109 0.036428
-0.023541 -0.003981 0.091405
0.037669 -0.048445 -0.049056
0.005945 0.066253 0.084916
-0.053672 -0.053751 0.084893
-0.068439 -0.038833 -0.081552
0.056414 0.005396 0.077199
0.037461 0.045525 0.087853
-0.035713 0.055804 0.091213
0.080162 0.037525 0.059086
-0.011288 -0.067838 0.086269
0.026384 -0.056945 -0.035619
-0.070564 -0.011637 0.077295
0.039310 0.048183 -0.047482
0.029961 -0.052070 -0.039782
0.062532 -0.054671 0.036867
0.025026 0.058026 -0.084894
0.032463 0.044531 -0.036028
-0.025324 -0.065431 0.035719
0.051218 -0.018881 -0.073755
-0.075794 -0.011540 -0.035953
-0.036780 -0.057065 0.033746
-0.076016 -0.009115 -0.077339
-0.041040 -0.056779 0.090028
0.025176 0.056517 0.079012
-0.071879 0.020798 -0.090133
0.019434 -0.056963 0.076504
0.051916 0.040095 0.033450
0.051206 -0.014125 -0.090171
-0.072923 0.029689 -0.035147
0.020337 -0.050634 -0.083616
-0.000866 0.007572 -0.091405
-0.069155 0.037806 0.079999
