0.061105 -0.055181 0.034763
-0.058683 0.014323 -0.077249
0.039207 0.053062 -0.036177
0.027605 -0.057860 0.090029
-0.038147 0.045998 0.083697
0.016596 -0.057145 -0.083502
0.071961 -0.024578 -0.060988
-0.057268 0.031202 0.076954
-0.020587 0.031622 -0.094503
-0.060305 0.024794 0.077066
-0.034007 -0.054323 0.090027
-0.008149 -0.058883 0.083472
-0.025223 0.059491 -0.076460
-0.019289 0.061988 -0.036829
-0.059544 -0.028752 -0.036259
0.053881 -0.044680 -0.046715
-0.004029 -0.059292 0.083465
0.066487 -0.013118 -0.079770
0.035422 0.055028 -0.036211
0.025421 0.060122 0.036799
0.091668 0.001189 0.067488
-0.044165 0.047726 -0.076665
0.040620 -0.053681 -0.033877
0.073907 -0.057192 -0.031585
-0.045803 0.000000 -0.093821
0.049738 0.046069 0.046461
0.064584 0.030537 -0.058317
0.076380 -0.064374 0.023241
-0.008832 -0.060323 -0.091236
0.070543 0.016557 -0.064431
-0.061064 -0.013322 -0.035483
0.063486 -0.027267 0.081601
0.063204 -0.040051 -0.035949
0.091668 0.054167 0.040289
0.064695 0.039818 0.033043
0.000000 -0.037960 -0.094545
0.057182 -0.043467 -0.051491
0.066248 -0.017212 -0.085022
0.068447 0.008436 0.068521
0.041171 0.053299 0.079069
-0.055368 0.037186 0.087878
0.072317 0.013358 0.067715
-0.067466 0.006001 0.034706
0.042856 0.050228 0.046217
0.055128 0.034802 -0.076891
0.055676 0.022770 0.084102
-0.003891 -0.066736 0.036864
-0.000001 0.059376 0.083463
-0.063300 -0.027766 -0.079999
0.056895 -0.041440 -0.050036
0.046239 -0.054054 0.038129
0.048890 -0.051535 -0.042085
0.055672 -0.022770 0.084102
0.078822 -0.064817 -0.010221
0.071954 0.054526 -0.034160
0.022032 -0.062992 -0.087846
0.065809 -0.040166 0.031953
-0.036271 -0.053749 -0.076560
0.006527 -0.038965 -0.094597
-0.003085 -0.037853 0.094549
0.069341 -0.013129 0.069524
0.052750 0.039208 0.060427
0.069718 -0.049292 -0.033376
0.068731 0.000485 -0.073962
0.069244 -0.020476 -0.063132
0.000000 0.000000 0.091000
0.068946 0.004482 0.081749
0.039384 -0.045039 -0.083713
-0.022912 0.011674 0.092619
-0.021458 0.055683 -0.076527
0.065731 0.036305 -0.057167
-0.067007 0.016968 -0.079999
0.069140 -0.000421 -0.069193
-0.019732 -0.064455 -0.036853
0.060071 0.039862 -0.054705
0.091668 -0.060587 0.029776
0.030510 -0.030500 0.094006
0.000000 -0.025715 -0.092619
-0.060146 0.029064 -0.033489
-0.065069 0.014687 -0.087983
-0.048911 -0.048565 -0.036655
0.065028 0.006363 -0.077387
0.064000 0.000000 -0.032348
-0.057811 -0.027581 -0.090099
-0.064055 0.000000 -0.090294
-0.035103 0.048359 0.083655
-0.013330 -0.065746 0.036860
-0.014905 0.036478 -0.094575
-0.017552 -0.056945 0.076505
-0.013445 0.057991 -0.076486
0.071598 -0.053866 -0.033722
0.032693 0.059828 -0.036812
0.031403 0.057172 -0.033748
0.057268 -0.031202 0.076954
-0.054421 0.026041 -0.077044
0.073815 0.057016 0.031874
0.050238 0.033278 -0.076918
0.026286 0.059339 0.033786
-0.064836 0.018177 0.033951
-0.008221 -0.066207 -0.035726
-0.015093 -0.045981 -0.093351
0.064695 0.039818 -0.033043
0.067248 0.012759 -0.085049
-0.036185 -0.050959 0.036140
-0.027432 0.062718 -0.084903
0.042007 0.052624 0.036816
-0.019586 -0.064016 -0.078882
-0.061662 -0.010201 0.035428
0.079227 0.065299 0.007146
0.080162 0.065214 -0.013027
0.004595 -0.068941 0.081590
-0.058601 -0.014388 -0.084248
-0.054366 0.035966 -0.076871
0.067966 0.039967 0.033202
-0.011479 -0.005849 0.091405
0.051426 0.035165 0.035864
0.036836 0.055565 -0.033976
0.077498 0.000602 -0.068769
0.049738 -0.046069 -0.046461
0.018935 0.032678 0.094509
0.072327 0.057221 0.036703
-0.034318 0.015616 -0.094497
0.037695 -0.056979 -0.035850
0.070559 -0.005096 -0.070802
0.013510 -0.037042 -0.094580
0.063204 0.040095 -0.033450
0.002644 -0.064273 0.076377
0.091668 -0.025232 0.062610
-0.004762 -0.068930 0.081590
0.063204 -0.040095 -0.033450
-0.054995 -0.030174 -0.079999
0.061788 0.029447 -0.084959
-0.062884 0.027029 0.084970
0.066713 0.017980 -0.081654
0.071253 -0.051601 0.030683
-0.008832 -0.060323 0.091236
0.061271 -0.026354 0.087922
-0.004553 0.068308 0.084926
0.065793 0.039818 -0.031945
0.078582 0.068122 0.003790
0.069718 0.049292 -0.033376
0.064702 0.040027 0.033047
-0.006775 -0.038921 -0.094596
0.071983 0.000000 -0.070159
-0.031761 -0.060640 -0.084898
-0.043682 0.044435 -0.036026
0.072529 -0.054534 0.036838
-0.012027 -0.061208 -0.036319
0.064394 0.017401 -0.087968
0.011674 0.022912 -0.092619
0.067804 0.000000 0.086523
-0.032898 -0.060791 -0.079999
-0.057813 -0.017370 0.077195
0.072470 -0.054967 -0.034925
0.056895 -0.041440 0.050036
0.073317 -0.055785 0.034127
-0.055209 0.036830 -0.036402
0.052794 0.029160 -0.076990
0.065039 -0.021583 0.069633
0.037784 -0.057113 -0.036780
0.067007 -0.016968 0.079999
0.007162 -0.066359 0.087856
0.040999 -0.054905 0.041442
0.091450 0.001232 0.069978
0.042774 -0.053440 0.084893
0.051536 -0.035261 0.033365
-0.035397 -0.056551 -0.087839
-0.039580 -0.055011 0.034603
-0.060891 -0.013070 0.032978
0.050629 -0.052177 0.041110
0.007344 -0.068065 0.084925
-0.061064 0.013322 0.032982
0.050484 -0.033921 0.091229
-0.003880 0.066514 0.035728
-0.064324 0.011488 -0.077298
-0.051246 0.035778 0.035875
0.070536 0.056854 0.036485
0.000010 0.062364 0.036339
-0.069091 0.000000 0.081786
0.056084 -0.047621 -0.046991
0.012544 -0.067300 -0.084921
0.052406 0.034391 -0.079999
0.081057 0.066328 -0.005795
0.064049 -0.012665 0.077277
0.054263 0.036031 -0.076870
0.063300 -0.027766 0.079999
-0.024612 -0.061145 0.034045
-0.035914 -0.011669 -0.094516
0.011674 0.022912 0.092619
0.051213 0.000000 0.093084
-0.057349 -0.020296 -0.091297
0.015059 0.036364 0.094574
0.042456 -0.054547 0.079999
0.060599 0.000000 -0.084500
0.000000 -0.067838 -0.086269
0.065064 0.006367 -0.077017
-0.018925 0.061624 0.076423
-0.040041 0.050021 0.090030
-0.012718 0.063089 -0.076397
0.073434 0.059396 0.033311
0.051536 0.035261 -0.033365
-0.034007 -0.054323 0.090027
-0.054564 0.042184 -0.036545
0.012472 0.035786 0.094533
0.053114 -0.028065 -0.084010
0.072352 0.008665 0.066176
0.048260 0.052814 -0.033950
0.073722 0.054614 -0.036945
0.061293 -0.053361 0.036545
0.059245 -0.011564 -0.084298
0.073635 0.005221 0.068971
0.027432 -0.062718 0.084903
-0.052998 -0.033127 0.035829
-0.008447 0.063805 -0.076385
0.061105 0.055181 0.034763
-0.035103 0.048359 -0.083655
0.049933 0.045428 0.079206
0.046816 0.043724 0.090041
0.033533 0.017086 0.094492
0.071895 -0.054482 0.036775
0.061064 -0.013322 0.035483
-0.019276 0.061942 0.036828
0.031898 0.058208 0.033996
0.041889 0.052182 0.033661
0.015168 0.064582 -0.034744
0.051394 0.044346 -0.048488
-0.004204 -0.060825 -0.091238
0.060413 -0.024932 -0.070977
0.008543 0.063793 0.076385
0.061082 0.055336 0.038377
-0.036716 -0.009285 -0.094529
-0.003207 -0.039382 0.094598
-0.017541 0.056911 -0.076505
0.071547 0.057204 0.035688
0.064150 -0.016518 0.070215
0.091668 0.064989 0.018272
0.069983 -0.054270 -0.036560
-0.038432 0.046163 0.076693
-0.063958 -0.011850 0.032957
-0.039676 -0.050312 0.090029
0.055156 0.037501 0.087876
-0.033595 0.049642 -0.076632
-0.035706 0.016279 -0.094544
0.056895 0.041440 -0.050036
0.065731 0.036305 0.057167
0.091668 -0.054167 -0.040289
0.018882 -0.061634 0.076423
0.059237 -0.011630 0.077296
0.064715 0.040236 -0.033051
-0.061087 0.013126 0.032979
-0.039869 0.051258 -0.076604
-0.045803 0.000000 0.093821
0.015115 0.020804 0.092619
0.066291 -0.017395 0.071160
-0.032898 0.060791 0.079999
0.025593 0.027606 0.094486
0.057234 -0.024577 -0.035679
0.048260 0.052814 0.033950
0.066879 -0.017351 0.081658
0.050892 0.050188 -0.039616
-0.038335 -0.056717 -0.036775
0.057867 0.037806 -0.079999
-0.038185 -0.056812 -0.084894
0.030560 -0.045808 0.092213
0.050056 -0.033085 0.083922
-0.030560 -0.045817 -0.092212
0.051213 0.000000 -0.093084
0.011791 0.058279 -0.076481
-0.043237 -0.045131 -0.036038
0.077699 0.001167 -0.066266
0.077716 -0.000580 -0.066278
0.023122 -0.054994 0.076539
0.068671 0.007612 0.081725
-0.062490 0.001091 0.032769
0.038496 -0.056601 0.084894
-0.052998 -0.033127 0.033328
0.074091 -0.054637 0.036970
0.072080 0.054697 -0.034318
0.005890 0.059107 -0.083468
0.029465 -0.061789 -0.084901
0.057723 0.017254 0.084198
0.036315 0.058026 -0.084894
0.020804 0.015115 -0.092619
0.072947 0.055632 -0.032615
-0.002015 0.012724 -0.091405
-0.030510 -0.030506 -0.094006
-0.050822 -0.046786 -0.081534
0.057537 -0.019761 -0.091300
-0.042329 -0.050956 0.036648
0.080363 0.068205 -0.010639
0.061082 -0.055336 0.038377
0.037219 0.055367 0.087839
0.032873 0.018365 -0.094488
0.026381 0.061292 -0.087843
0.050855 -0.046815 -0.079999
-0.067007 0.016968 0.079999
0.069091 0.000000 0.081786
0.063609 0.014816 0.077240
-0.059400 0.010939 -0.084309
0.020907 0.061092 -0.033816
0.060008 0.031904 -0.067499
-0.064324 0.011488 -0.077298
-0.019516 -0.063632 -0.034731
0.069720 0.056287 -0.034681
-0.001709 -0.064306 0.036864
0.091450 0.001232 -0.069978
-0.024092 -0.055950 -0.091213
0.067262 0.000000 0.032499
0.078979 0.066308 0.018641
-0.058289 0.015806 0.077223
0.016527 -0.061969 -0.090038
-0.046771 -0.050859 -0.081530
-0.047178 0.046777 -0.036576
-0.035754 -0.053183 -0.090027
0.010692 0.061579 -0.033825
0.073611 0.055478 -0.035284
0.065234 -0.050884 -0.033638
0.075713 -0.013966 0.067178
-0.030481 -0.060832 0.036822
0.051822 -0.030833 -0.076960
-0.062490 -0.001091 -0.032769
-0.051822 0.030833 0.076960
0.062510 0.000000 -0.032750
0.067387 0.053737 -0.036236
0.042440 -0.042628 0.076754
0.054425 -0.038025 -0.057583
0.079647 -0.065262 0.012051
-0.042383 -0.053751 0.084893
-0.046329 -0.046970 0.033570
-0.036045 0.052986 0.090027
0.037084 0.054073 0.036194
0.017514 -0.033496 -0.094515
-0.018925 0.061624 0.076423
0.034593 0.015028 -0.094499
0.074606 -0.057553 -0.032009
0.045549 -0.048730 0.087847
0.058887 -0.033280 0.079418
-0.032898 0.060791 -0.079999
0.052447 0.048427 0.046152
0.073106 -0.001029 -0.066823
-0.063992 -0.024176 0.036199
0.091450 -0.037525 0.059086
0.073596 -0.061426 0.027629
-0.038410 0.053241 0.033679
0.009996 0.068368 -0.081587
0.025704 -0.058735 -0.090030
0.080561 -0.066348 0.003786
0.034798 -0.057521 0.078995
0.091668 -0.067228 0.006159
0.071201 -0.053105 0.033447
0.091668 0.045943 0.049460
0.070550 -0.051809 -0.033423
-0.054421 0.026041 -0.077044
0.061828 -0.020918 -0.077133
0.057175 -0.037011 0.063753
-0.059366 -0.034069 0.084939
-0.058274 -0.031464 -0.036307
0.042901 0.051884 -0.079093
0.043220 0.051864 -0.033655
0.031514 -0.057621 -0.036759
-0.005849 0.011479 -0.091405
0.060163 -0.005782 -0.077398
0.050449 0.046867 -0.051013
-0.038410 -0.053241 0.033679
0.062458 0.026579 0.070684
-0.008158 -0.065574 -0.034757
-0.004719 -0.068297 0.084926
-0.002965 0.039401 -0.094598
0.041249 -0.052070 0.039782
0.000000 0.067509 -0.086820
0.072016 -0.057049 0.036952
-0.055672 0.022770 -0.084102
0.071598 0.053866 -0.033722
0.074016 -0.054794 0.036717
0.066535 -0.013144 0.075818
0.023140 0.055036 -0.076538
-0.032873 -0.018365 -0.094488
-0.043751 0.044531 0.036028
0.070828 -0.000480 -0.071035
0.065358 0.003338 -0.077440
-0.032448 -0.059883 0.036812
-0.045885 0.014951 0.093352
0.073434 -0.059396 0.033311
0.045549 -0.048730 -0.087847
-0.059541 0.020054 0.079999
-0.006546 0.060616 -0.091238
-0.050855 0.046815 -0.079999
0.056827 -0.038154 -0.084924
0.033964 0.050516 -0.091201
0.011706 0.036025 -0.094535
0.062735 -0.025843 -0.071039
0.065960 -0.040097 -0.035215
-0.019280 0.062702 -0.034071
-0.050203 0.033254 -0.076918
0.037013 0.054616 -0.037480
0.068886 -0.005708 -0.079999
0.068716 -0.001031 -0.073950
-0.048868 0.044383 -0.033525
-0.020819 -0.060652 -0.090034
-0.029695 -0.025530 0.094527
0.066084 -0.053430 0.033683
-0.061662 0.010201 -0.032928
0.004553 -0.068308 0.084926
0.044977 0.043464 -0.079999
-0.057266 0.025036 0.035687
0.000000 0.067509 -0.086820
0.066814 0.016213 0.066732
-0.042523 -0.050277 0.033628
0.012472 0.035786 -0.094533
-0.035377 0.054338 0.076550
-0.068000 0.000000 0.035749
0.071710 -0.052805 0.030848
0.072278 0.056916 0.037556
-0.068821 0.000000 -0.083927
0.030459 -0.022079 -0.094481
0.079140 0.063842 -0.018299
0.071743 0.057570 0.034900
0.070622 0.000000 0.068060
0.069280 -0.055795 -0.034173
0.059989 -0.028126 0.064889
0.072214 0.054826 0.034525
-0.003609 0.059322 0.076463
0.055105 0.035606 0.063723
0.052998 0.033127 0.035829
0.065945 -0.039759 0.035208
0.068930 -0.004726 0.081748
-0.015093 0.045972 0.093352
-0.016527 0.061969 0.090038
0.015068 0.066780 -0.084918
-0.008003 -0.063939 -0.036859
0.078460 0.067986 -0.005499
0.014049 -0.065410 0.078857
0.065069 -0.014687 -0.087983
0.045371 0.054219 0.038002
0.062956 -0.017425 -0.074346
-0.058081 0.016250 0.084216
0.056814 0.037608 0.055051
-0.049724 -0.045164 0.033772
0.073158 -0.055831 -0.033466
0.069125 0.000948 0.069181
-0.051426 -0.035165 0.035864
0.015115 -0.020804 -0.092619
0.070828 0.000480 0.071035
0.075989 0.013226 -0.064793
0.057778 0.030774 -0.067408
-0.003850 -0.065877 0.034761
0.069694 -0.055189 -0.032780
0.045927 0.047371 0.050685
0.064541 0.022790 -0.084991
0.074091 0.054637 -0.036970
0.073925 0.000521 0.069201
0.025414 -0.060102 -0.036799
0.051536 0.035261 -0.033365
-0.019786 -0.057632 0.091221
-0.032898 -0.060791 -0.079999
-0.017437 -0.056841 -0.083507
0.036836 0.055565 -0.033976
0.055672 -0.022770 -0.084102
0.063271 0.027753 -0.081598
0.077481 0.001211 -0.068757
0.080658 -0.066458 -0.000985
-0.055640 -0.024579 -0.091272
-0.058081 0.016250 -0.084216
0.000000 0.000000 -0.091000
0.031898 0.058208 0.033996
-0.004553 0.068308 0.084926
-0.034327 -0.052122 -0.036160
0.078948 0.066273 -0.018864
0.024456 -0.007946 -0.092619
0.043067 -0.051819 0.038174
0.065889 -0.028119 0.059686
0.071245 0.057385 -0.033885
0.007946 -0.024456 0.092619
0.091450 0.000000 0.070000
0.000000 0.069122 0.079999
0.011725 -0.058270 0.083482
0.050441 -0.041117 0.076781
0.061300 0.053289 0.036957
0.073871 -0.056702 -0.038362
-0.013671 0.062681 0.036344
0.062458 0.026579 -0.070684
-0.050446 0.045816 0.034449
0.014216 -0.062838 0.076402
-0.049968 -0.033714 0.076910
-0.012718 -0.063089 -0.076397
0.052902 -0.043155 0.057995
-0.013808 -0.060956 0.033814
-0.043237 0.045131 0.033538
0.027336 0.062097 0.036834
-0.067730 0.009894 -0.085068
0.027336 0.062097 -0.036834
-0.030134 0.060065 0.034681
-0.046333 -0.050384 0.084896
0.044977 0.043464 -0.079999
-0.037522 0.055161 0.087840
0.068520 -0.052570 0.032178
-0.011813 0.063475 0.036852
-0.050446 -0.045816 -0.034449
0.070944 0.054263 0.035570
-0.016244 0.057317 -0.076498
-0.063992 0.024176 0.036199
0.066398 -0.013888 0.075653
0.037522 -0.055161 0.087840
-0.034798 0.057521 -0.078995
0.046220 0.053689 0.034658
0.012027 -0.061208 0.036319
-0.013926 0.064805 -0.034747
0.021458 -0.055683 -0.076527
0.043821 0.054751 -0.036635
0.046247 -0.054300 0.035728
0.061803 -0.029706 -0.065612
0.070059 0.055928 0.033295
-0.030574 0.052642 -0.091204
-0.007572 -0.010422 0.091405
-0.056920 -0.037287 0.034299
0.072317 -0.013358 -0.067715
-0.033993 -0.055863 0.033725
0.000000 0.000000 0.091000
-0.041408 0.049992 0.076626
0.034327 0.052122 -0.036160
0.008976 -0.066130 -0.035725
0.070828 0.000480 -0.071035
0.023506 -0.029444 0.094492
-0.066083 -0.017835 0.085019
0.065809 -0.040166 -0.031953
-0.021660 -0.063121 0.087846
0.069597 0.053239 -0.035269
0.036252 -0.054587 -0.033703
0.091668 -0.060587 0.029776
0.032468 0.059923 0.036813
0.006605 0.066465 -0.078839
0.037995 -0.010368 -0.094573
-0.045973 0.039768 0.091211
0.056814 -0.037608 0.055051
0.060902 0.000000 -0.091447
-0.048911 -0.048565 0.036655
0.052750 0.039208 0.060427
0.011720 0.058244 0.083483
0.081015 -0.066277 0.006072
0.063196 0.039794 0.035945
-0.061995 -0.020425 0.077142
0.020804 0.015115 -0.092619
-0.059418 -0.011050 0.077306
0.012027 -0.061208 0.033818
-0.039543 0.002747 -0.094625
0.060599 0.000000 -0.084500
0.023618 -0.057752 0.036258
0.071760 -0.054562 0.035916
0.012905 -0.063277 0.036849
0.061322 -0.053096 -0.036223
0.012675 0.063097 -0.076397
-0.057469 -0.037611 0.035296
0.068097 0.055700 0.034543
0.073646 -0.056772 -0.038215
0.065039 -0.021583 -0.069633
0.000000 0.000000 -0.091000
0.064049 -0.012665 0.077277
0.063486 -0.027267 -0.081601
0.071586 0.053844 0.033711
0.053460 0.042744 0.084911
0.039085 -0.053641 -0.036761
0.063609 0.014816 0.077240
-0.055156 -0.037501 -0.087876
0.042127 0.050812 -0.045138
0.004268 -0.064007 0.090045
0.078577 -0.064518 0.011727
0.022032 -0.062992 -0.087846
0.059195 0.033955 0.057896
-0.043243 -0.051182 0.033876
-0.053460 -0.042744 -0.084911
-0.032898 0.060791 0.079999
0.063204 -0.040095 -0.033450
-0.065848 0.005891 -0.033081
0.062640 -0.031691 0.061911
0.061322 0.053096 -0.036223
0.040074 -0.055907 0.037172
0.066443 -0.000427 -0.072955
0.070358 0.053950 0.035471
0.014870 -0.062963 -0.036844
0.080803 0.068763 -0.006299
0.026456 -0.053613 0.076563
0.059737 0.042530 -0.048774
-0.068440 0.000000 -0.085134
0.038540 0.057348 -0.081534
0.060413 -0.024932 0.070977
-0.053672 -0.041040 -0.079283
0.051995 -0.044354 0.056763
0.049738 0.046069 0.046461
0.012252 -0.003981 -0.091405
-0.007572 -0.010422 0.091405
-0.056548 0.035366 0.087884
0.063204 0.040095 -0.033450
0.043740 -0.052919 0.033899
0.073317 -0.055785 -0.034127
-0.030510 -0.030506 0.094006
-0.032109 -0.022424 -0.094528
0.041249 -0.052070 -0.039782
0.060429 0.003517 0.084438
-0.055840 0.038096 0.079334
-0.063958 0.011850 0.032957
0.012027 0.061208 -0.036319
0.068371 -0.009959 -0.081708
0.065960 0.040097 -0.035215
0.056895 0.041440 -0.050036
-0.068287 0.004712 -0.085103
0.073868 -0.056700 -0.038365
0.064823 0.019518 0.079658
-0.025704 0.058735 0.090030
0.060599 0.000000 0.084500
0.070432 0.049126 -0.030635
0.042236 -0.054347 0.040122
-0.044433 -0.040603 0.076790
0.057182 -0.043467 0.051491
-0.022779 -0.030027 0.094494
0.005925 0.059098 -0.076467
0.046799 0.046463 -0.051944
0.051213 0.000000 0.093084
0.068992 0.042546 0.030506
-0.033993 -0.055863 -0.033725
-0.030331 0.052796 0.091204
-0.046605 0.046661 0.036065
0.043688 -0.052763 0.045250
0.059090 -0.030932 0.087902
0.022212 0.064753 -0.084910
0.057204 0.019293 0.077162
0.019872 0.064359 -0.036852
0.009001 -0.066351 -0.036863
-0.047130 -0.047806 0.033818
0.068355 -0.055926 -0.034778
0.039869 -0.051258 0.076604
-0.065534 -0.012459 -0.087996
0.065731 0.036305 0.057167
0.069836 0.000000 0.072132
-0.030392 0.060645 -0.035668
0.077716 -0.000580 0.066278
0.051920 -0.041469 -0.054249
0.049427 -0.051185 0.038073
-0.065092 -0.012030 -0.033189
0.058116 0.016412 -0.077212
-0.023614 -0.057690 0.033757
0.050407 -0.046306 -0.084902
-0.057266 -0.025036 -0.033187
0.062250 -0.034361 -0.055838
0.018183 0.018183 -0.092619
0.059758 -0.026184 0.077041
0.061082 -0.055336 0.038377
0.012252 0.003981 0.091405
0.047206 0.051322 0.043314
0.032898 0.060791 0.079999
0.078746 0.067546 0.012560
0.069074 -0.052917 -0.030710
0.067658 0.053214 -0.033256
0.022912 -0.011674 0.092619
0.078148 -0.065078 0.022433
0.062627 0.027620 -0.084967
0.063196 0.039794 -0.035945
0.056814 0.037608 -0.055051
-0.059379 -0.027882 -0.035737
0.073066 -0.055018 -0.035776
-0.054288 -0.035995 -0.076870
0.070678 -0.052067 -0.033384
-0.047872 0.047522 -0.079169
-0.062485 0.018805 -0.077170
-0.066555 0.004621 -0.088046
0.073122 0.000475 -0.066834
0.003609 -0.059322 0.076463
-0.043851 0.051938 0.034553
-0.029292 -0.058130 -0.033765
0.054421 -0.026041 -0.077044
0.066006 -0.009668 0.088013
0.045946 0.030303 -0.092212
0.027028 0.061311 0.034699
0.043647 -0.054152 0.038875
-0.041408 0.049992 -0.076626
-0.040601 -0.044332 -0.076725
0.063748 -0.022862 0.079600
0.068903 0.052457 0.030683
0.057234 -0.024577 -0.033179
0.036045 -0.052986 -0.090027
-0.034088 0.059362 0.084896
0.035991 0.015669 0.094546
0.071547 -0.057204 -0.035688
-0.033595 0.049642 0.076632
0.066200 0.004782 -0.072714
-0.030483 0.024509 0.094527
0.064031 0.012663 0.077277
0.066195 0.039837 -0.030446
0.079945 0.067657 -0.013514
0.068672 -0.052933 -0.032169
0.060206 -0.005750 -0.084399
-0.043851 0.051938 0.034553
0.031926 -0.055578 0.090027
0.065793 0.039818 -0.031945
-0.050238 -0.033278 -0.076918
-0.003891 0.066736 -0.036864
0.040620 -0.053681 -0.033877
0.077567 0.066037 -0.018479
-0.062490 -0.001091 0.032769
0.071743 -0.057570 -0.034900
-0.059087 0.028603 -0.033249
0.064216 0.023927 -0.063777
0.076509 -0.061557 -0.022973
0.071439 0.057457 -0.034280
0.026688 -0.060410 -0.034033
0.062495 -0.014125 0.090171
-0.009068 -0.036848 0.094543
-0.006775 -0.038921 0.094596
-0.023614 0.057690 -0.033757
-0.050203 0.033254 0.076918
-0.024092 -0.055950 0.091213
-0.014297 0.035061 -0.094527
-0.017514 0.033496 0.094515
0.034088 -0.059362 0.084896
0.069900 0.021601 -0.065268
-0.017779 -0.062354 0.036834
0.065633 0.020095 0.065400
-0.030560 0.045808 0.092213
0.065105 -0.012399 0.071405
-0.028184 -0.024917 0.094481
-0.045083 0.043358 -0.079999
-0.024247 -0.060063 -0.033798
0.039207 -0.053062 -0.036177
0.014870 0.062963 -0.036844
-0.060891 0.013070 -0.032978
0.046532 -0.037785 0.083840
-0.006546 0.060616 -0.091238
0.066814 -0.016213 -0.066732
0.007946 -0.024456 0.092619
-0.063208 -0.026201 -0.036239
-0.066773 0.015047 -0.085035
0.048890 0.051535 -0.042085
-0.066487 0.013118 -0.079770
0.000000 0.000000 0.091000
0.061041 0.055764 -0.035905
-0.025715 0.000000 -0.092619
0.017514 -0.033496 -0.094515
0.003085 0.037853 0.094549
0.076586 -0.009759 -0.067993
0.068117 -0.031746 0.057228
0.066265 -0.042848 0.035263
0.045475 -0.042875 -0.035999
0.067804 0.000000 -0.086523
0.014127 0.062564 -0.090040
0.072352 0.008665 -0.066176
-0.005926 0.059111 0.076467
0.073879 0.056696 0.038372
0.046220 0.053689 0.034658
0.034327 0.052122 -0.036160
0.064715 -0.040236 -0.033051
0.025398 0.004023 0.092619
0.051777 -0.039548 -0.076808
0.068695 0.039794 0.030446
-0.061020 -0.026929 -0.087920
0.062944 0.011986 -0.090184
0.000000 0.046063 -0.093685
-0.051078 0.046358 0.036619
0.065951 -0.034972 -0.055067
0.037474 -0.056621 -0.035022
0.067201 0.053688 0.036223
0.009001 -0.066351 0.036863
0.035706 -0.016279 0.094544
0.056608 0.038477 0.084923
0.067989 -0.000536 -0.077484
-0.058880 0.015349 0.091328
0.013061 0.060603 0.079999
-0.067610 0.006682 0.035866
-0.026456 0.053613 0.076563
0.062845 -0.004668 -0.079999
-0.056577 0.021031 -0.077131
0.030459 -0.022079 0.094481
-0.004082 -0.064225 -0.036863
0.071204 0.057746 -0.031099
-0.022983 -0.055107 0.076537
-0.043243 -0.051182 -0.033876
0.040041 -0.050021 -0.090030
-0.041686 0.052079 -0.087842
0.074425 -0.058410 0.027937
0.044920 0.054307 -0.037936
0.018875 0.061612 -0.076423
-0.017192 0.064486 0.087850
-0.025398 -0.004023 -0.092619
0.052114 0.046383 0.044751
0.032693 0.059828 -0.036812
0.046486 0.049088 0.042451
-0.004440 0.066598 -0.087857
-0.053109 -0.028061 -0.084010
-0.057349 -0.020296 0.091297
0.026688 -0.060410 -0.034033
0.022444 0.065377 0.079999
0.046135 0.045800 0.076699
0.015289 -0.065206 0.035717
0.061604 -0.024323 -0.066974
0.080091 0.066170 -0.000972
-0.012439 0.058156 -0.083484
0.040174 -0.055852 0.036159
-0.046329 0.046970 -0.033570
0.062458 -0.026579 0.070684
0.062381 0.029710 0.081589
-0.063609 -0.014816 0.077240
-0.004023 -0.025398 -0.092619
-0.057266 -0.025036 -0.035687
0.081027 0.066291 -0.006073
0.054065 -0.046848 0.047986
0.047635 -0.049195 0.050767
-0.003981 0.012252 -0.091405
0.061662 0.010201 0.035428
0.002015 -0.012724 0.091405
-0.021660 -0.063121 0.087846
-0.049968 -0.033714 -0.076910
0.028726 -0.060225 0.087841
0.061788 0.029447 0.084959
-0.067470 0.000000 -0.087072
0.069147 0.000000 -0.069203
0.000000 -0.068952 0.083104
-0.066974 0.016960 -0.081660
0.044040 -0.054484 0.035528
-0.050021 -0.040009 -0.090051
0.019586 0.064016 -0.078882
0.061212 -0.054175 0.033971
0.055676 0.022770 -0.084102
0.032764 0.050187 -0.076623
-0.065358 -0.003338 -0.077440
0.014695 0.065103 0.087852
0.030510 -0.030500 -0.094006
-0.068287 0.004712 0.085103
0.061041 -0.055764 0.035905
0.067587 0.000000 0.070967
0.069230 -0.030633 0.060765
-0.035276 0.013451 0.094506
0.015093 -0.045972 -0.093352
-0.028780 0.058305 -0.036268
0.054065 0.046848 0.047986
0.061020 0.026929 0.087920
0.014216 -0.062838 -0.076402
0.066211 -0.040159 0.030455
-0.056307 0.037358 -0.079347
-0.060647 0.031731 -0.084949
0.049214 -0.044705 0.050623
0.004595 -0.068941 0.081590
-0.043751 0.044531 0.036028
0.002015 0.012724 -0.091405
0.059385 -0.044312 -0.050508
0.075992 0.000000 -0.066272
0.078582 0.068122 0.003790
-0.019002 0.061598 0.033825
0.000000 0.062289 0.090891
0.026580 0.026581 0.094484
0.073919 -0.054731 0.036791
-0.047169 0.043341 -0.090042
0.060647 -0.031731 -0.084949
0.000000 -0.064114 -0.090064
-0.060163 0.005782 0.077398
0.056489 -0.045680 -0.045435
-0.054248 -0.026003 0.084046
-0.034294 -0.052039 0.036159
-0.058837 0.025322 -0.090110
0.037374 -0.053963 -0.033692
0.071204 -0.057746 -0.031099
0.007572 -0.010422 -0.091405
0.068946 0.004482 0.081749
0.068364 0.017158 -0.068452
-0.019733 -0.034000 0.094556
0.065633 -0.020095 -0.065400
-0.034538 0.056876 0.033974
-0.042456 0.054547 -0.079999
0.073153 0.061203 -0.002991
0.050892 -0.050188 -0.039616
0.091668 0.045943 -0.049460
0.045912 0.038558 0.083827
0.050484 -0.033921 -0.091229
0.054284 -0.042748 -0.081541
0.065250 0.000000 0.034511
0.064085 -0.012682 -0.075801
0.038220 0.055575 -0.034344
0.072029 0.058670 0.032452
0.000000 0.062289 -0.090891
-0.025398 -0.004023 -0.092619
-0.043682 -0.044435 0.036026
-0.065684 0.018348 -0.036085
-0.026746 0.061133 0.087842
-0.058116 -0.016412 -0.077212
0.031403 -0.057172 0.033748
0.057842 0.039560 0.056238
-0.020819 -0.060652 -0.090034
-0.043862 0.052952 -0.036723
0.019582 -0.064011 0.078882
0.068886 -0.005708 0.079999
0.040620 0.053681 -0.033877
-0.011720 -0.058244 -0.083483
0.076586 -0.009759 -0.067993
0.011789 -0.058274 0.076481
0.064005 0.013124 0.075700
0.035276 -0.013451 -0.094506
-0.063300 0.027766 0.079999
-0.055156 -0.037501 0.087876
0.071640 0.056932 -0.037185
-0.013556 -0.057914 0.083489
0.073868 0.056700 -0.038365
0.047935 0.036498 -0.076861
0.013134 0.058058 0.076485
0.078127 -0.062362 0.022580
0.038026 -0.002583 -0.094574
0.027057 0.062881 0.084904
0.072327 -0.057221 -0.036703
0.034073 -0.049346 0.076637
0.000000 0.000000 0.091000
0.036252 0.054587 0.033703
0.079820 0.068814 -0.000891
0.066948 0.016954 0.081661
-0.068371 0.009959 -0.081708
0.064715 0.040236 -0.033051
-0.004595 0.068941 0.081590
0.068103 0.050062 -0.030639
0.057780 -0.017359 -0.077196
0.074425 -0.058410 0.027937
0.002549 0.066563 0.035728
0.070069 0.009119 0.070303
0.068117 0.031746 0.057228
-0.017156 0.033670 -0.094516
-0.030560 -0.045817 0.092212
0.017786 -0.066766 -0.081575
0.036236 -0.015078 0.094549
0.073721 -0.056819 0.038158
0.025398 -0.004023 -0.092619
0.069244 0.020476 -0.063132
-0.020804 0.015115 -0.092619
-0.017156 0.033670 0.094516
0.042629 0.054886 0.037588
0.065759 -0.008597 0.072201
0.045676 0.051551 -0.044725
-0.043237 0.045131 0.036038
0.073907 0.057192 -0.031585
0.046333 0.050384 0.084896
0.034318 -0.015616 -0.094497
0.057321 -0.025590 -0.079999
0.080363 0.068205 -0.010639
-0.064040 -0.012620 -0.077278
-0.039935 -0.055536 0.035599
0.015334 0.065420 0.036859
0.048572 -0.048226 0.052063
-0.063093 0.021639 0.087946
0.067790 -0.049834 -0.035388
0.091668 0.045943 0.049460
-0.063208 0.026201 0.036239
0.079506 -0.065088 -0.012886
-0.061192 0.023098 0.035654
0.074544 -0.058662 -0.027574
0.008976 -0.066130 -0.035725
-0.012234 0.065612 0.087853
-0.034538 0.056876 0.033974
0.069004 -0.053700 0.032243
-0.044433 -0.040603 0.076790
-0.065069 0.014687 0.087983
0.071616 0.012455 -0.065479
-0.024923 -0.062055 -0.034710
0.070037 0.056530 -0.035032
0.019238 -0.061964 0.036828
0.059366 0.034069 0.084939
0.050449 0.041124 0.076781
0.030963 0.059103 0.087840
0.060599 0.000000 0.084500
0.037695 -0.056979 -0.035850
-0.040601 -0.044332 0.076725
-0.062490 0.001091 -0.035269
0.067825 0.053848 0.036275
0.030707 0.056930 -0.076505
-0.021176 0.060527 0.090034
-0.053387 -0.043593 -0.036570
-0.036716 -0.009285 0.094529
-0.063300 -0.027766 0.079999
0.091668 -0.036190 -0.056984
0.021783 -0.055437 -0.083532
0.072519 0.057470 0.036302
-0.021966 -0.060701 0.076439
-0.002644 0.064273 -0.076377
-0.051246 -0.035778 -0.035875
0.077403 -0.005232 -0.066045
-0.061662 0.010201 -0.035428
0.091668 0.067228 -0.006159
-0.065358 -0.003338 0.077440
-0.013429 -0.059458 -0.091230
0.008149 0.058883 -0.083472
-0.039935 -0.055536 -0.035599
0.026230 -0.054970 -0.091210
0.022135 -0.030467 0.094497
-0.003891 -0.066736 -0.036864
0.070925 0.052562 -0.033371
0.080912 -0.066153 0.007424
0.060212 0.025468 -0.070709
-0.064705 0.005754 0.035351
0.078247 -0.067744 0.007633
-0.014076 0.065646 0.036860
0.061995 0.020425 -0.077142
-0.038126 -0.046080 -0.083695
0.002468 0.063840 -0.033864
0.070742 -0.056868 -0.035767
0.017541 -0.056911 -0.076505
0.063196 -0.039837 -0.033445
0.033405 -0.049470 -0.083636
0.059747 0.031710 0.079445
0.062505 0.000260 -0.032754
0.066535 -0.013144 -0.075818
0.039019 -0.053185 0.033678
-0.047773 0.037648 -0.091216
0.023140 0.055036 0.076538
-0.030481 0.060832 -0.036822
-0.050484 0.033921 0.091229
0.054619 0.036349 0.063043
0.038366 -0.046211 -0.076692
-0.061843 -0.016730 -0.090156
0.036252 0.054587 -0.033703
0.042127 0.050812 -0.045138
0.063801 -0.029378 -0.063261
0.068716 -0.001031 -0.073950
-0.065358 -0.003338 0.077440
-0.057388 0.024660 0.033180
-0.038026 0.002583 0.094574
0.043237 -0.045131 0.036038
0.031403 -0.057172 0.033748
0.002853 -0.037871 -0.094549
0.000000 -0.012883 0.091405
-0.059087 0.028603 0.033249
-0.059934 -0.034379 0.081568
0.063486 -0.027267 0.081601
-0.061087 0.013126 0.035479
0.064908 0.019570 -0.073801
0.076124 0.061577 0.030261
0.065039 0.021583 0.069633
0.064150 -0.016518 -0.070215
0.072327 0.057221 -0.036703
0.060599 0.000000 -0.084500
0.069280 -0.055795 -0.034173
0.074549 0.018158 0.066063
0.039657 0.052791 -0.041485
0.061698 0.021499 -0.072692
-0.006527 0.038965 0.094597
0.006265 -0.037452 0.094547
-0.066695 0.012262 0.034819
0.069694 -0.055189 -0.032780
-0.035706 0.016279 0.094544
0.059737 -0.042530 0.048774
0.003085 0.037853 -0.094549
-0.013510 0.037042 -0.094580
-0.009663 -0.066041 -0.087855
0.051559 -0.032263 -0.091235
-0.067408 0.015164 -0.081672
0.065105 0.012399 -0.071405
0.071264 0.017426 -0.066662
0.045885 0.014954 -0.093352
0.070555 -0.049496 -0.030642
0.071616 0.012455 0.065479
-0.023618 0.057752 0.036258
-0.055640 -0.024579 -0.091272
-0.025398 0.004023 0.092619
0.080363 0.068205 -0.010639
0.063204 0.040095 0.033450
-0.047130 -0.047806 -0.033818
0.007972 -0.058925 -0.076470
0.070678 0.052067 -0.033384
-0.060891 0.013070 -0.035478
-0.059400 0.010939 -0.084309
0.035519 0.012840 -0.094509
-0.061041 -0.029446 0.034156
-0.017629 0.066149 -0.084916
0.044920 -0.054305 0.037936
-0.042329 0.050956 0.036648
-0.059275 -0.011637 0.077295
0.033549 -0.052733 0.036171
-0.001589 -0.062480 0.033840
0.067693 -0.024331 0.061553
0.077177 -0.005511 0.068520
0.070828 -0.000480 0.071035
0.063512 -0.043021 0.033501
0.047206 -0.051322 -0.043314
-0.029292 -0.058130 0.033765
0.022143 0.030477 0.094497
0.046220 0.053689 0.034658
0.072214 -0.054826 -0.034525
-0.007344 0.068065 0.084925
0.072947 -0.055632 -0.032615
0.059385 -0.044312 0.050508
0.060590 -0.020798 -0.090133
0.046016 -0.054304 -0.035707
0.006886 -0.063778 0.090044
0.073611 0.055478 -0.035284
0.031926 -0.055578 0.090027
0.071743 0.057570 0.034900
-0.067466 -0.006001 -0.034706
0.061087 0.013126 -0.032979
0.065500 0.000000 0.077499
-0.055128 -0.034802 -0.076891
0.073066 -0.055018 0.035776
-0.021451 0.032902 -0.094549
0.071204 0.057746 -0.031099
0.045885 0.014954 -0.093352
0.072649 -0.055014 0.035194
0.049120 0.047659 -0.052820
-0.065848 0.005891 0.033081
0.075355 0.057473 0.032611
0.068117 -0.031746 0.057228
0.009636 -0.036696 0.094541
0.056084 -0.047621 -0.046991
-0.068671 -0.007612 -0.081725
0.078631 0.067404 -0.013233
0.007409 -0.068696 0.081589
-0.013445 0.057991 -0.076486
0.073153 0.061203 -0.002991
0.068274 0.025693 0.063574
0.056725 -0.037695 0.063150
0.067489 -0.052926 -0.033275
0.070293 -0.054313 -0.036598
0.040031 -0.055533 0.035190
0.066429 -0.000937 0.072943
0.002549 -0.066563 0.035728
-0.022444 0.065377 0.079999
-0.057268 0.031202 -0.076954
-0.036315 -0.058026 0.084894
-0.045946 0.030297 0.092213
-0.050855 0.046815 -0.079999
0.039417 -0.054115 0.033872
-0.039044 0.054205 0.033928
0.079076 -0.067946 -0.010416
-0.006399 0.063970 -0.076382
-0.060429 -0.003517 0.084438
-0.056577 0.021031 0.077131
0.056489 0.045680 0.045435
0.091450 0.056165 0.041775
0.004595 -0.068941 -0.081590
0.055676 0.022770 0.084102
0.072016 0.057049 -0.036952
0.045371 0.054219 0.038002
0.064728 0.009115 -0.077339
-0.008221 -0.066207 0.035726
-0.000022 0.064263 0.076377
-0.023614 0.057690 -0.036257
0.039446 -0.054547 0.079047
0.075112 -0.059586 0.033931
0.069341 -0.013129 -0.069524
-0.050238 -0.033278 0.076918
-0.038432 0.046163 0.076693
-0.034538 0.056876 -0.033974
-0.052077 0.043008 -0.079248
-0.062099 0.010242 -0.079999
0.075317 0.059697 0.027046
0.066084 -0.053387 0.036182
0.037695 -0.056979 0.035850
-0.006512 0.064026 0.036860
0.014905 -0.036478 0.094575
0.054425 0.038025 0.057583
-0.038496 0.056601 0.084894
0.046532 0.037787 -0.083840
0.020907 0.061092 0.033816
0.032468 0.059923 0.036813
0.013556 0.057914 0.083489
0.058289 -0.015806 0.077223
-0.008221 -0.066207 -0.035726
0.073955 0.000000 0.069274
0.019872 0.064359 -0.036852
-0.042383 -0.053751 -0.084893
0.030403 -0.057143 0.076501
0.038432 -0.046163 -0.076693
0.050822 0.046786 0.081534
0.051920 0.041469 0.054249
-0.046532 0.037785 0.083840
-0.005890 -0.059107 0.083468
0.056577 -0.021031 0.077131
0.074097 0.054634 -0.036976
0.068716 -0.001031 -0.073950
-0.065466 -0.018315 0.034932
0.045083 -0.043358 -0.079999
0.059686 0.037997 -0.053078
0.077567 0.066037 -0.018479
-0.043751 0.044531 0.036028
0.000000 -0.049727 0.093178
-0.047935 -0.036498 0.076861
0.039019 0.053185 0.033678
0.070742 0.056868 -0.035767
-0.066695 -0.012262 0.034819
0.065945 0.039759 -0.035208
0.070925 0.052562 -0.033371
-0.045885 -0.014954 -0.093352
0.061292 -0.053370 -0.036759
-0.015763 -0.034395 0.094522
0.052998 0.033127 0.035829
-0.043971 0.051083 0.079107
0.064820 -0.019516 0.079658
0.067958 0.039759 0.033195
0.073122 0.000475 -0.066834
0.072352 0.008665 -0.066176
0.067201 -0.053688 0.036223
-0.037995 0.010368 -0.094573
0.044433 0.040603 0.076790
-0.064728 -0.009115 0.077339
0.061604 0.024323 -0.066974
-0.043243 0.051182 0.033876
-0.053168 0.035718 0.090065
0.030574 -0.052642 0.091204
0.071965 -0.057582 0.035324
0.016244 -0.057317 -0.076498
0.004268 -0.064007 0.090045
0.068783 0.055036 -0.033665
0.048572 -0.048226 -0.052063
-0.050311 0.039644 0.090052
0.052114 0.046383 0.044751
0.001589 -0.062480 -0.036341
-0.054804 0.024854 -0.084066
0.080531 0.065682 -0.010619
-0.039580 -0.055011 -0.034603
0.001465 -0.059406 -0.083463
-0.052319 -0.042629 0.079255
0.077840 0.064594 0.023713
-0.048252 -0.048954 -0.035496
0.070550 -0.051809 0.033423
0.061041 -0.055764 -0.035905
-0.024247 0.060063 -0.033798
0.068117 -0.031746 -0.057228
-0.027681 0.063308 0.081554
-0.056827 0.038154 -0.084924
0.072155 -0.058907 -0.032071
0.006606 -0.066465 0.078839
-0.011791 -0.058279 0.076481
0.079227 -0.065299 0.007146
-0.060605 0.032360 -0.036359
0.042456 0.054547 0.079999
-0.043746 0.046803 -0.090034
0.060599 0.000000 -0.084500
-0.039044 -0.054205 -0.033928
0.002530 -0.065926 -0.034761
0.045978 0.053691 -0.034647
-0.016431 -0.035785 -0.094569
0.057837 -0.037787 -0.081556
0.077498 -0.000602 0.068769
-0.012655 0.067926 -0.081583
0.071062 -0.056957 -0.036082
-0.035306 -0.058279 0.035637
-0.048500 -0.035342 0.083883
0.068520 0.052570 -0.032178
-0.067730 0.009894 0.085068
-0.012041 0.061176 -0.033818
-0.018183 -0.018183 0.092619
0.042456 -0.054547 -0.079999
-0.042430 -0.054514 0.081531
0.022912 0.011674 -0.092619
-0.044165 0.047726 0.076665
-0.059090 0.030932 -0.087902
0.060163 -0.005782 -0.077398
-0.042430 -0.054514 0.081531
0.036836 0.055565 0.033976
0.091668 -0.067228 -0.006159
0.072470 0.054967 -0.034925
-0.042774 0.053440 -0.084893
-0.059400 0.010939 -0.084309
0.072016 -0.057049 0.036952
-0.028523 -0.024526 -0.094481
-0.029695 -0.025530 -0.094527
0.079945 0.067657 -0.013514
-0.001681 0.063815 -0.036364
0.048341 -0.052001 -0.036740
0.000000 0.046072 0.093684
-0.048500 -0.035342 0.083883
0.036185 -0.050959 -0.033639
0.060355 0.024796 -0.077066
0.075702 0.059557 -0.028369
-0.060346 0.032908 -0.036370
0.065163 -0.050607 -0.036134
0.067251 -0.054805 -0.033983
0.073106 -0.001029 -0.066823
-0.031227 0.051114 0.076606
0.076340 -0.065417 -0.018011
0.049118 -0.045126 -0.087854
-0.051822 0.030833 0.076960
-0.058594 0.036617 -0.081560
0.073870 -0.056701 -0.038364
-0.063401 0.009307 0.090201
0.054592 0.047327 -0.043473
0.059467 -0.032976 -0.066791
-0.022444 -0.065377 0.079999
0.070730 0.056837 0.034462
-0.061833 0.029756 -0.036308
0.000000 -0.069122 0.079999
0.040031 -0.055533 0.035190
0.023614 0.057690 0.033757
-0.030331 0.052796 -0.091204
0.054300 -0.036057 0.076869
-0.015115 -0.020804 -0.092619
0.030331 -0.052796 -0.091204
-0.045128 0.048037 -0.036089
0.067979 0.009247 -0.073163
0.002644 -0.064273 -0.076377
-0.017514 0.033496 0.094515
-0.004057 0.060835 -0.091238
0.017437 0.056841 -0.083507
0.032898 0.060791 -0.079999
-0.025398 0.004023 0.092619
-0.045912 -0.038558 0.083827
-0.017795 -0.056884 -0.076506
0.054065 0.046848 0.047986
0.058596 0.025874 0.090107
-0.066919 -0.012279 -0.035969
-0.019883 -0.064411 0.036852
0.071965 0.057582 -0.035324
-0.053881 -0.041704 0.034377
-0.022912 0.011674 0.092619
0.058297 0.043927 0.047293
-0.063998 0.011560 -0.035452
0.074016 0.054794 -0.036717
-0.058594 0.036617 -0.081560
-0.007946 -0.024456 0.092619
-0.061041 0.029446 0.034156
0.062160 0.026803 -0.079531
-0.058837 0.025322 -0.090110
0.030560 0.045817 -0.092212
0.039384 -0.045039 -0.083713
-0.003850 0.065877 0.034761
0.046999 -0.037263 0.083849
0.066820 -0.011670 -0.079795
0.007572 0.010422 0.091405
0.014233 0.062834 0.076402
0.070151 -0.056109 0.033458
0.067785 0.012164 0.067807
-0.013061 -0.060603 -0.079999
-0.039044 -0.054205 0.033928
0.026286 0.059339 -0.033786
-0.039935 -0.055536 0.035599
0.036651 0.058573 0.081537
0.045371 -0.054219 0.038002
0.020507 -0.061159 0.036318
-0.059597 -0.019891 -0.079999
0.060247 0.005575 -0.077401
0.077735 0.067396 -0.000844
0.037013 -0.054616 -0.037480
0.080561 -0.066348 0.003786
0.000000 0.000000 0.091000
-0.066695 0.012262 -0.034819
0.070432 0.049126 -0.030635
-0.063992 -0.024176 -0.036199
-0.005849 -0.011479 -0.091405
0.000000 -0.068449 -0.084922
0.056300 0.037351 -0.079347
0.062735 0.025843 0.071039
-0.050029 -0.046715 -0.084902
0.060590 -0.020798 0.090133
0.049120 0.047659 0.052820
0.062381 0.029710 -0.081589
0.045919 0.052706 -0.033920
-0.054421 0.026041 0.077044
0.064695 0.039818 0.033043
0.070037 -0.056530 -0.035032
0.055209 0.024350 0.077074
-0.058038 0.036284 0.084931
0.025638 0.053817 0.083560
0.065251 0.000000 -0.034514
0.030510 0.030506 -0.094006
-0.065466 0.018315 -0.034932
0.071080 0.057502 0.031466
0.034294 -0.052039 -0.033658
-0.052794 -0.029160 -0.076990
0.045676 0.051551 0.044725
-0.063486 0.027267 -0.081601
0.067658 -0.053214 -0.033256
0.000000 0.046072 -0.093684
0.054300 -0.033970 0.090071
0.048776 -0.035387 0.076881
-0.065251 -0.019838 0.036114
0.042629 -0.054886 0.037588
-0.005925 -0.059098 -0.076467
0.071439 0.057457 -0.034280
-0.008149 -0.058883 0.083472
-0.033405 0.049470 -0.083636
0.041249 -0.052070 0.039782
0.072953 0.054717 -0.036488
0.077511 0.000000 0.068780
0.002556 0.066786 0.036864
0.061343 -0.052933 0.033674
0.026275 -0.062443 0.036837
-0.058596 -0.025874 0.090107
-0.008158 -0.065574 0.034757
-0.063958 -0.011850 0.032957
0.065687 0.000000 -0.089130
0.070069 0.009119 -0.070303
0.051822 -0.030833 0.076960
0.048749 0.045525 0.087853
0.068819 -0.052581 -0.035379
0.057204 0.019293 -0.077162
0.071839 -0.054478 0.036769
0.043365 0.047158 -0.090034
-0.015093 0.045972 -0.093352
0.062458 0.026579 0.070684
-0.051213 0.000000 -0.093084
0.070828 -0.000480 0.071035
-0.008158 -0.065574 -0.034757
0.071439 0.054465 -0.035768
-0.061041 0.029446 -0.034156
0.044165 -0.047726 -0.076665
-0.058116 -0.016412 -0.077212
-0.000010 0.062364 -0.033839
0.073122 0.000475 -0.066834
-0.028326 -0.052427 -0.083584
0.006546 -0.060616 -0.091238
0.069280 0.055795 -0.034173
0.066443 -0.000427 0.072955
0.070828 -0.000480 0.071035
-0.057837 0.037787 0.081556
-0.046333 -0.050384 -0.084896
0.076832 -0.009248 -0.065553
0.033710 0.049312 -0.083639
0.064555 -0.016795 -0.087972
0.046131 -0.045795 0.076699
-0.059418 -0.011050 0.077306
-0.008245 -0.066428 -0.036863
0.064008 0.000000 0.032343
-0.019883 -0.064411 -0.036852
0.056895 0.041440 -0.050036
0.078582 -0.068122 0.003790
0.038176 0.046035 -0.083696
0.077727 0.064413 -0.024171
0.071390 0.000000 0.070580
0.050214 -0.042584 0.056839
0.068946 0.004482 -0.081749
-0.044165 0.047726 0.076665
-0.059275 -0.011637 0.077295
-0.027977 -0.052875 -0.076576
-0.030761 0.056941 0.076505
0.068274 -0.025693 -0.063574
0.071439 0.057457 -0.034280
-0.022990 -0.054897 0.083541
-0.066695 -0.012262 -0.034819
-0.060305 0.024794 -0.077066
0.018882 -0.061634 0.076423
0.070432 0.049126 -0.030635
0.015093 0.045981 0.093351
-0.060605 -0.032360 -0.036359
0.024567 -0.030564 0.094537
0.074517 -0.057378 0.032302
-0.025398 0.004023 -0.092619
0.073879 -0.056696 0.038372
-0.025715 0.000000 0.092619
0.024922 -0.059597 -0.076458
0.073766 0.055247 -0.035857
-0.057204 -0.019293 0.077162
0.003207 0.039382 -0.094598
-0.048868 -0.044383 -0.033525
-0.059597 -0.019891 0.079999
0.028184 0.024917 0.094481
0.067900 -0.032954 0.059406
0.064031 0.012663 -0.077277
0.057182 0.043467 0.051491
-0.009110 -0.009110 0.091405
-0.045885 -0.014954 0.093352
0.000000 0.049727 0.093178
-0.030560 -0.045817 -0.092212
0.077728 0.000000 -0.066289
0.057778 -0.030774 -0.067408
0.048341 0.052001 0.036740
-0.067466 0.006001 -0.034706
0.016431 0.035785 -0.094569
0.051246 -0.035778 0.035875
-0.065033 -0.006319 0.077388
0.045973 0.039764 0.091211
-0.066649 0.000000 0.088162
0.062559 0.027704 -0.061857
-0.020804 0.015115 -0.092619
-0.015709 0.058890 0.091227
-0.016507 -0.062310 -0.076411
-0.065251 0.019838 0.036114
0.066084 0.053387 0.036182
0.060599 0.000000 -0.084500
0.074606 -0.057553 -0.032009
0.080658 -0.066458 -0.000985
0.052140 0.046590 -0.049361
0.032764 0.050187 -0.076623
-0.004601 -0.066586 0.087857
0.073919 0.054731 -0.036791
0.076259 0.064195 -0.023692
0.043529 0.051803 0.033654
-0.049724 0.045164 -0.033772
0.034402 -0.059922 -0.081541
-0.065151 0.005794 -0.077397
0.074790 0.061865 -0.028843
0.065163 0.050607 -0.036134
0.043647 0.054152 0.038875
0.074097 -0.054634 0.036976
-0.007162 0.066359 -0.087856
0.031926 -0.055578 -0.090027
0.068960 -0.054109 -0.036428
0.023614 0.057690 0.036257
-0.039935 -0.055536 -0.035599
0.052794 0.029160 -0.076990
0.059686 0.037997 0.053078
0.068893 0.004705 -0.068978
0.071264 -0.017426 0.066662
-0.038335 0.056717 0.036775
0.068107 0.000000 0.076134
0.081027 0.066291 -0.006073
0.071253 -0.051601 -0.030683
0.065793 -0.039818 0.031945
-0.062888 -0.022227 -0.087943
-0.028184 -0.024917 0.094481
0.068960 0.054109 0.036428
0.059090 -0.030932 -0.087902
0.058880 -0.015349 0.091328
-0.062509 0.000000 -0.035250
-0.043352 0.041342 0.083778
-0.037447 0.006297 -0.094548
-0.016507 -0.062310 0.076411
0.030510 -0.030500 0.094006
0.073909 -0.001104 -0.069189
0.051777 -0.039548 0.076808
-0.065191 0.000000 -0.089537
0.040097 0.055931 -0.037173
-0.031625 0.050634 -0.083616
-0.007972 0.058925 0.076470
0.070151 0.056109 0.033458
-0.050446 0.045816 -0.034449
0.055986 -0.039884 0.058203
-0.013569 -0.062742 -0.033845
-0.040601 -0.044332 -0.076725
-0.036185 0.050959 -0.033639
0.050599 -0.048183 0.047482
-0.030331 0.052796 -0.091204
0.048393 0.051565 -0.033650
0.067268 0.000000 0.032494
0.047206 -0.051322 -0.043314
0.062490 0.001091 0.035269
0.067825 0.053848 0.036275
0.068287 -0.004712 0.085103
0.052998 -0.033127 -0.035829
-0.057371 0.038506 0.081553
0.068695 0.039794 0.030446
0.080561 -0.066348 0.003786
0.050311 -0.039644 0.090052
-0.038410 0.053241 -0.033679
-0.012959 0.035604 -0.094532
0.067248 0.012759 -0.085049
0.014127 0.062564 0.090040
-0.042456 0.054547 -0.079999
-0.050822 -0.046786 0.081534
0.001983 0.059393 0.076462
0.074004 0.062526 -0.022421
-0.012724 0.002015 0.091405
-0.050446 0.045816 -0.034449
0.072649 -0.055014 0.035194
0.057266 0.025036 -0.033187
-0.046532 0.037785 -0.083840
-0.066054 0.012175 0.033843
0.040620 0.053681 -0.033877
-0.025204 -0.062853 -0.036841
0.049738 -0.046069 -0.046461
0.031227 -0.051114 0.076606
0.068391 0.000000 -0.085291
0.005891 -0.059103 0.083468
0.048152 0.053822 0.034750
0.081015 -0.066277 0.006072
0.048135 -0.043826 -0.076734
0.033586 0.049629 0.076632
-0.029686 -0.057915 0.036261
0.063300 0.027766 -0.079999
0.039657 -0.052791 -0.041485
0.000000 -0.012883 -0.091405
0.060157 0.005745 -0.084399
0.046177 0.052700 0.033923
0.017387 0.066871 -0.081576
0.024456 0.007946 0.092619
0.006466 -0.064018 -0.036860
-0.018935 -0.032678 -0.094509
0.073367 -0.054955 -0.036160
0.061033 0.055819 -0.037188
-0.032898 0.060791 0.079999
0.072736 0.057145 -0.037187
-0.035000 0.057724 0.034645
0.074094 0.054639 -0.036968
-0.019516 -0.063632 -0.034731
0.030331 -0.052796 0.091204
0.006527 -0.038965 -0.094597
0.059237 -0.011630 0.077296
0.065889 -0.028119 0.059686
0.037784 0.057113 -0.036780
0.037447 -0.006297 0.094548
0.091450 -0.013929 -0.068591
0.061698 -0.021499 0.072692
0.025715 0.000000 -0.092619
0.091450 0.037525 0.059086
-0.061634 -0.029689 -0.035147
-0.022444 -0.065377 -0.079999
0.032530 -0.018951 0.094487
0.034402 -0.059922 -0.081541
0.062119 0.010129 -0.079999
-0.054564 -0.042184 -0.036545
-0.030134 -0.060065 0.034681
-0.060146 -0.029064 0.033489
-0.031704 0.022989 0.094527
-0.050238 -0.033278 0.076918
0.000000 0.069122 0.079999
0.032693 0.059828 -0.036812
-0.006886 0.063778 0.090044
0.000000 -0.064146 0.090041
-0.045803 0.000000 -0.093821
-0.067694 0.006000 0.035854
-0.003160 -0.064251 -0.076377
0.075430 -0.060131 -0.003592
0.054804 -0.024854 0.084066
0.064031 0.012663 0.077277
0.059385 0.044312 0.050508
0.069230 -0.030633 -0.060765
0.064823 0.019518 -0.079658
0.022594 -0.064621 -0.084909
0.002644 -0.064273 0.076377
0.011791 0.058279 -0.076481
-0.053168 0.035718 0.090065
-0.017795 -0.056884 -0.076506
-0.013671 -0.062681 0.036344
0.008976 -0.066130 0.035725
-0.060495 -0.006791 -0.091390
-0.059912 -0.031431 -0.079450
0.064584 -0.030537 -0.058317
-0.062944 -0.011986 0.090184
0.066398 -0.013888 0.075653
0.057957 0.029919 -0.076976
0.004440 -0.066597 0.087857
0.042236 -0.054347 -0.040122
-0.007946 0.024456 -0.092619
0.058596 0.025874 0.090107
-0.052794 -0.029160 0.076990
0.072317 -0.013358 -0.067715
-0.037522 0.055161 -0.087840
0.011377 0.068179 0.079999
0.091668 -0.001189 0.067488
0.091450 -0.069708 -0.006386
0.045946 -0.030297 -0.092213
0.024905 0.059554 0.076459
0.065945 0.039759 -0.035208
0.062729 -0.036043 0.057626
0.068213 0.055817 0.034651
0.033549 0.052733 -0.036171
-0.046691 -0.037956 0.076836
-0.013330 0.065746 0.036860
0.058465 -0.022093 -0.033136
0.064997 -0.042826 0.033097
-0.045885 -0.014954 0.093352
0.041545 -0.044449 -0.091202
-0.035411 0.058453 0.036796
-0.012946 0.063262 0.036848
0.038126 0.046080 -0.083695
-0.063889 0.017956 -0.033293
-0.063992 -0.024176 0.036199
0.069280 0.055795 -0.034173
-0.006503 -0.037410 0.094547
0.070293 -0.054313 0.036598
-0.055640 -0.024579 0.091272
0.044517 0.049382 -0.044268
0.051995 -0.044354 0.056763
0.077567 0.066037 -0.018479
0.009110 0.009110 0.091405
0.068464 -0.005158 -0.073707
-0.014036 -0.065431 0.035719
-0.060590 0.020798 0.090133
-0.057957 -0.029919 -0.076976
-0.048776 0.035387 -0.076881
-0.028328 0.052432 0.083584
0.078127 0.062362 0.022580
0.068903 -0.052457 0.030683
0.018935 0.032678 -0.094509
0.003207 0.039382 -0.094598
0.030403 -0.057143 0.076501
0.071016 -0.057193 -0.033379
0.048341 0.052001 0.036740
0.061803 -0.029706 0.065612
0.077151 0.061883 -0.023278
0.046254 -0.054428 0.036954
0.069418 -0.054610 -0.032503
0.061343 -0.052889 -0.036174
0.050629 0.052177 -0.041110
-0.048868 -0.044383 0.033525
-0.030761 0.056941 -0.076505
-0.024486 0.030638 -0.094538
0.077735 0.067396 -0.000844
0.091450 0.026163 0.064920
-0.022143 -0.030477 0.094497
0.019786 0.057632 0.091221
-0.030510 0.030500 0.094006
0.065939 0.015723 0.079724
-0.060220 0.008854 -0.091375
-0.057388 0.024660 0.035681
0.042421 -0.054502 -0.081531
0.027303 0.063472 -0.081555
0.060599 0.000000 0.084500
0.080793 -0.068751 0.006298
0.038366 -0.046211 0.076692
0.030331 -0.052796 -0.091204
0.065960 -0.040097 -0.035215
0.062505 -0.000238 0.035254
-0.062099 0.010242 -0.079999
0.021478 -0.063113 -0.034724
