0.025410 -0.014032 0.094554
0.023038 0.052122 -0.036160
-0.051031 0.000000 0.094647
0.059366 0.054114 0.035492
0.062842 -0.062714 0.021996
0.037364 0.049362 -0.040870
0.056690 0.009247 -0.073163
-0.066182 -0.026199 -0.091263
-0.067595 0.037358 0.079347
0.053439 0.009115 -0.077339
0.000190 0.005849 -0.091405
0.057942 -0.030633 -0.060765
-0.069662 -0.031252 -0.036303
0.009515 -0.015115 0.092619
-0.069883 0.036617 0.081560
0.053740 0.006363 0.077387
-0.008740 -0.066563 -0.035728
0.009515 0.015115 -0.092619
-0.072308 -0.026929 -0.087920
0.054960 -0.017212 0.085022
-0.074589 -0.027766 -0.079999
0.053863 0.032013 0.060253
-0.044187 -0.060791 -0.079999
-0.036419 -0.062655 -0.035691
-0.011298 -0.062364 0.036339
0.040632 -0.041469 -0.054249
0.059964 0.051601 0.030683
-0.053811 0.050277 0.033628
0.057598 0.005708 0.079999
0.067691 -0.066308 0.018641
0.056251 0.006592 0.079884
-0.080379 0.000000 -0.081786
0.041825 -0.028065 0.084010
-0.037561 0.062444 -0.036837
0.047802 -0.030932 0.087902
0.022564 -0.019741 0.094533
0.049753 -0.055764 0.035905
0.068326 0.065749 -0.000958
0.043136 -0.038025 -0.057583
0.068802 0.066170 -0.000972
0.045436 0.034385 -0.060623
-0.072375 -0.013126 -0.032979
0.013224 0.030571 0.094538
0.050710 -0.016149 0.090159
-0.074312 0.017072 0.077201
-0.063463 -0.040425 -0.033456
-0.065655 0.035966 0.076871
-0.073779 0.001091 0.032769
0.021610 -0.060791 0.079999
0.061665 -0.054717 -0.036488
0.053427 -0.040236 -0.033051
-0.075037 0.022862 -0.079600
-0.018174 0.063778 0.090044
0.022719 0.054323 0.090027
0.041506 0.029160 -0.076990
0.003779 0.066780 0.084918
0.042482 -0.042353 -0.084912
0.042384 0.041040 -0.079283
-0.034411 0.054994 0.076539
0.031779 0.051819 0.038174
0.056598 0.012853 -0.081688
0.060259 0.057204 0.035688
0.080162 -0.026163 -0.064920
-0.078898 -0.006682 0.035866
0.011701 0.054897 0.083541
0.060673 -0.024578 0.060988
0.055526 -0.016213 0.066732
0.057703 0.042546 0.030506
-0.071503 -0.005787 -0.077398
0.038256 -0.038316 0.079999
0.058186 0.054198 0.036497
-0.041747 -0.051324 -0.083604
0.055591 -0.017351 0.081658
0.049775 0.013322 -0.032982
-0.002179 -0.009110 0.091405
0.031493 0.054258 -0.081530
-0.027795 -0.062310 0.076411
0.057835 0.052827 -0.035302
0.016688 0.052875 0.076576
-0.067066 -0.022910 -0.077099
-0.053829 0.042098 -0.083765
0.043813 -0.043185 0.052949
0.056985 0.025693 0.063574
0.051163 0.018841 -0.077170
0.051287 0.025735 -0.079550
-0.079592 -0.004472 -0.085104
-0.025416 -0.062564 0.090040
0.056969 -0.042602 0.033251
0.080162 -0.056165 -0.041775
-0.043539 -0.056168 -0.076518
0.056678 -0.039967 -0.033202
0.060665 -0.054526 -0.034160
-0.071223 -0.034379 0.081568
-0.045281 0.055863 -0.033725
0.051656 0.011986 -0.090184
0.052012 0.027766 -0.079999
0.045436 -0.034385 -0.060623
-0.075344 0.000000 0.090294
0.068569 0.065905 -0.005657
0.037212 0.035342 -0.083883
0.054907 -0.039837 0.030446
-0.078208 0.012279 -0.035969
0.056595 0.000000 -0.070570
0.060727 -0.057049 -0.036952
-0.043215 0.055578 0.090027
-0.001381 0.067739 0.084923
0.045988 -0.031774 -0.066723
-0.011288 0.000000 0.091000
0.069074 0.068205 -0.010639
0.045978 -0.025036 0.035687
-0.057173 -0.014954 -0.093352
0.044697 0.039884 0.058203
-0.044153 0.060728 0.081544
-0.041863 -0.052604 0.091204
0.040533 -0.030833 0.076960
0.041825 -0.028065 -0.084010
0.054075 -0.018101 0.074374
-0.053744 0.054547 0.079999
-0.040932 0.060232 0.078948
-0.057200 -0.038558 0.083827
-0.057173 0.014951 -0.093352
-0.003342 -0.024456 -0.092619
0.050316 0.024323 0.066974
0.031779 -0.051819 0.038174
0.057537 -0.005702 0.081740
0.010743 -0.062992 0.087846
0.048701 -0.028126 -0.064889
0.048470 -0.026184 -0.077041
-0.072815 0.028201 0.079507
-0.048736 0.006297 0.094548
-0.058287 0.037263 0.083849
0.005143 0.035785 0.094569
-0.052707 -0.050005 0.076626
-0.055150 0.052952 0.036723
0.046492 -0.017359 -0.077196
-0.011288 0.000000 -0.091000
-0.045615 0.052122 0.033660
-0.065684 0.042077 -0.035377
-0.037003 0.000000 -0.092619
-0.052632 -0.046839 0.079999
0.010190 -0.063113 0.034724
0.001183 0.035786 -0.094533
0.039153 -0.041117 -0.076781
-0.065537 -0.026003 0.084046
0.056265 -0.006599 -0.077028
-0.077295 0.009668 -0.088013
0.060665 0.054526 0.034160
0.051217 0.000238 -0.035254
0.042034 0.043489 -0.054758
-0.080376 0.000000 -0.081939
0.026425 0.057010 -0.035843
0.041462 -0.039208 -0.060427
0.059957 -0.057385 -0.033885
0.046061 0.020296 -0.091297
0.006895 -0.018183 0.092619
0.028387 0.050312 -0.090029
-0.058418 0.047806 -0.033818
0.066427 0.000580 -0.066278
0.059957 0.057385 0.033885
0.059271 0.005096 0.070802
0.028369 0.052791 -0.041485
0.022784 -0.049346 -0.076637
0.040632 -0.041469 0.054249
0.063137 -0.058410 0.027937
0.023305 0.015028 -0.094499
-0.053811 0.050277 0.033628
-0.004006 -0.061517 0.079999
0.035198 0.049088 -0.042451
0.000089 0.068179 0.079999
-0.026382 -0.045981 -0.093351
-0.064676 0.043593 0.036570
0.046525 0.037772 -0.081556
-0.075247 -0.011850 -0.032957
-0.048893 0.049798 0.079999
0.062320 0.056749 0.038245
-0.011278 0.062364 0.033839
0.060926 0.054826 0.034525
-0.073864 -0.025735 0.079550
-0.013609 0.066785 -0.078833
0.001255 -0.067300 0.084921
0.028752 -0.050021 0.090030
0.005218 0.062310 -0.076411
0.009298 -0.031622 -0.094503
-0.078106 0.005963 0.033732
0.028314 0.002146 0.094630
0.038679 0.033714 0.076910
0.028809 0.055931 -0.037173
-0.024013 0.002015 -0.091405
0.004045 0.065420 0.036859
-0.054006 -0.042272 -0.076761
0.025930 0.055367 -0.087839
0.037105 -0.051565 -0.033650
0.031948 -0.045131 0.036038
-0.011288 0.039493 0.094595
0.056201 -0.052926 -0.033275
0.059144 0.049126 -0.030635
0.066546 -0.063414 -0.017870
-0.004403 -0.063778 -0.090044
0.036793 -0.054446 0.037192
0.051202 -0.001091 -0.035269
-0.072950 -0.010201 0.032928
-0.059160 0.047522 -0.079169
0.050003 0.053370 0.036759
0.062806 -0.054639 0.036968
0.021029 0.059077 -0.034666
-0.015890 -0.066586 -0.087857
0.054010 0.036975 -0.056720
0.019286 -0.052642 0.091204
-0.048239 -0.013398 -0.094557
0.059196 0.056604 -0.034051
0.048077 0.034069 0.084939
-0.075533 -0.012875 0.035976
-0.076788 0.000000 0.035750
-0.067059 0.022905 -0.077099
0.053463 -0.022187 0.084995
-0.075782 0.011615 0.035954
-0.065589 0.033970 -0.090071
-0.020135 -0.066267 0.078842
0.054977 0.042848 0.035263
0.080162 -0.037525 -0.059086
0.049310 0.000000 -0.084500
-0.079592 -0.004472 -0.085104
0.022719 0.054323 0.090027
0.001670 -0.035604 0.094532
0.051702 0.020453 0.068748
0.062590 0.056696 0.038372
0.022719 0.054323 0.090027
0.047920 0.011557 0.084298
0.049310 0.000000 -0.084500
0.051202 0.001091 0.032769
0.036895 -0.047238 0.079174
-0.063156 -0.039432 -0.076810
-0.071879 0.020798 0.090133
-0.061793 -0.047154 0.081533
0.061064 0.008665 0.066176
-0.062501 0.000000 0.093084
-0.071001 0.031692 0.079446
-0.011288 0.069122 0.079999
0.080379 0.036190 -0.056984
0.027427 -0.056495 -0.035972
0.034657 -0.030297 0.092213
-0.067595 0.037358 -0.079347
0.056712 0.000000 0.029751
0.024231 0.012840 0.094509
0.031429 0.042272 0.076761
0.067160 0.063724 -0.018106
0.051216 -0.000260 0.032754
-0.075389 0.000000 -0.090263
-0.072950 0.010201 -0.032928
0.058612 -0.021601 0.065268
-0.068938 0.037703 0.036462
-0.051890 -0.044332 -0.076725
0.039160 0.041124 0.076781
0.057892 0.055645 0.034049
-0.058418 0.047806 -0.033818
-0.012877 0.062480 -0.036341
0.048459 0.031710 -0.079445
-0.018861 0.010422 0.091405
-0.039771 0.052551 -0.076581
0.049310 0.000000 -0.084500
-0.058418 0.047806 -0.033818
-0.070641 0.013428 0.091341
0.045886 -0.037011 0.063753
0.050710 -0.016149 -0.090159
-0.039811 -0.024526 0.094481
-0.048005 -0.009285 0.094529
0.056999 -0.004712 -0.085103
0.019170 0.051324 -0.083604
-0.075993 0.005798 -0.032851
-0.077998 0.013312 0.035989
-0.030205 -0.061600 -0.076423
0.057414 0.039955 0.030455
0.039340 0.052177 -0.041110
-0.076124 0.018177 -0.033951
0.022244 0.017086 -0.094492
0.055960 0.012759 0.085049
0.056637 -0.053661 -0.033271
0.038733 0.040009 0.090051
0.057615 -0.052457 0.030683
0.001846 0.058058 0.076485
0.000089 -0.068179 -0.079999
0.080379 -0.067228 0.006159
-0.003716 -0.010422 0.091405
-0.005440 0.011479 -0.091405
-0.064027 -0.030297 -0.091244
0.006966 -0.034850 0.094562
-0.007232 -0.060835 -0.091238
0.039195 -0.033921 0.091229
0.036346 0.049195 -0.050767
-0.049655 0.046211 -0.076692
0.003779 0.066780 -0.084918
0.029313 0.044332 -0.076725
-0.025097 -0.060956 0.036314
-0.024350 -0.060603 0.079999
0.031167 0.054547 -0.079999
-0.011288 0.069073 -0.082086
-0.033732 0.065377 -0.079999
0.050539 -0.020918 0.077133
0.029331 -0.053681 -0.033877
-0.065166 0.028224 -0.091253
0.014986 -0.062443 0.036837
0.017234 0.024526 0.094481
-0.071681 -0.021362 0.090130
-0.047560 -0.053749 -0.076560
0.033863 0.049100 0.087846
-0.046994 0.016279 -0.094544
0.067293 -0.068122 0.003790
0.010924 0.064753 0.084910
0.014304 0.027606 0.094486
-0.017815 0.038965 -0.094597
0.059404 -0.056712 0.032615
0.065298 0.009759 0.067993
-0.006759 0.063710 -0.036362
0.057650 0.000000 0.083362
0.058171 -0.053116 0.035267
0.068431 -0.068699 0.003887
0.037461 0.045525 -0.087853
-0.035949 -0.060398 -0.036804
0.053780 -0.014687 0.087983
0.049775 -0.013322 0.032982
0.054443 0.036305 0.057167
0.061565 0.055435 0.032400
0.040788 -0.043008 0.079248
0.029980 -0.055447 -0.036301
0.022260 -0.052733 0.036171
0.050830 0.010129 0.079999
0.026496 -0.057113 -0.036780
0.066959 0.067744 0.007633
0.026166 0.049907 0.079999
0.064734 0.061046 -0.022636
0.011701 0.054897 -0.083541
-0.024423 -0.058058 0.076485
-0.072923 -0.029689 0.035147
0.003328 0.065291 0.078859
0.045624 -0.019791 -0.084154
0.047146 0.036062 0.061344
0.049793 -0.055336 -0.038377
-0.072437 -0.023271 -0.033156
-0.051831 -0.050745 -0.076613
0.009298 -0.031622 -0.094503
-0.043736 0.059883 -0.036812
-0.071102 0.008829 0.077344
0.065241 0.061793 0.020809
0.053708 -0.042826 0.033097
0.015508 -0.053267 0.083570
-0.073125 0.022734 0.036151
0.050055 0.052889 -0.036174
0.058749 -0.056530 -0.035032
-0.064749 -0.042744 -0.084911
-0.042741 -0.059345 0.078963
-0.074589 0.027766 0.079999
0.057589 0.055182 0.033742
0.050005 0.053361 -0.036545
0.016688 0.052875 0.076576
-0.045615 0.052122 0.036160
-0.039556 -0.053940 -0.091207
-0.056763 0.042875 -0.033498
-0.073512 0.000000 -0.091109
-0.056763 -0.042875 0.033498
0.021610 0.060791 0.079999
0.066858 -0.063822 0.016518
-0.048795 -0.005939 0.094550
0.000077 0.068113 -0.081585
-0.072923 0.029689 0.035147
-0.071784 -0.006791 0.091390
0.050067 -0.030122 0.060448
0.057176 0.005158 -0.073707
0.014426 0.000000 0.092619
0.027143 -0.046163 -0.076693
0.000190 0.005849 0.091405
0.048179 0.032976 0.066791
-0.075348 0.012623 0.077278
0.033096 0.052207 -0.046238
0.053810 0.000000 -0.031250
0.018055 0.025936 -0.094527
-0.072375 0.013126 0.035479
-0.011288 0.046063 0.093685
0.022260 -0.052733 0.036171
0.034279 0.049703 -0.079131
-0.015556 0.064007 0.090045
-0.062825 0.035261 0.033365
-0.013271 -0.059393 0.076462
-0.008081 0.039382 0.094598
0.051202 0.001091 0.035269
0.017438 -0.060225 0.087841
-0.077426 0.000000 0.032999
0.049124 -0.024932 0.070977
-0.058473 0.050476 0.081530
-0.051890 -0.044332 -0.076725
0.051206 -0.014125 0.090171
-0.079119 0.000000 -0.034757
0.068532 0.068814 -0.000891
-0.028732 0.056866 -0.083507
-0.049465 -0.046035 -0.083696
0.052927 0.023927 0.063777
0.051907 -0.039794 -0.035945
0.013224 0.030571 0.094538
0.056672 0.039863 0.033198
-0.053829 0.042098 0.083765
0.014941 -0.054970 0.091210
0.048783 0.039862 0.054705
-0.078537 -0.012759 0.085049
0.068991 0.066021 0.007343
0.054907 0.039837 -0.030446
0.049310 0.000000 0.084500
0.067851 0.063842 -0.018299
-0.077860 -0.004386 0.088047
0.028314 0.002146 -0.094630
0.043331 0.036349 -0.063043
-0.072950 0.010201 -0.035428
0.064854 0.000000 -0.068768
-0.069885 -0.025874 0.090107
0.080379 -0.045943 -0.049460
0.026496 -0.057113 -0.036780
0.052512 0.029378 0.063261
-0.073779 -0.001091 -0.035269
-0.004786 0.037410 -0.094547
0.061816 0.009300 0.068480
0.032394 -0.044435 -0.036026
-0.020924 0.036696 0.094541
0.054443 0.036305 -0.057167
0.000964 0.003981 -0.091405
-0.070526 0.011630 -0.077296
0.000431 0.058244 -0.083483
-0.030964 0.064247 -0.035708
0.038733 0.040009 0.090051
0.062716 -0.062526 -0.022421
-0.067897 -0.038477 0.084923
0.054268 0.035559 -0.054673
-0.053626 0.050964 -0.036648
0.062630 -0.054731 -0.036791
-0.007266 0.025398 0.092619
-0.007259 0.059292 -0.083465
0.063261 -0.018158 -0.066063
-0.076040 0.022187 0.084995
0.067659 -0.066273 -0.018864
-0.071047 0.026184 -0.077041
-0.050362 -0.005952 0.094602
-0.004403 -0.063778 -0.090044
0.048783 0.039862 0.054705
0.057414 -0.039954 -0.030455
0.062322 -0.055478 -0.035284
0.003489 -0.062524 -0.033841
0.056343 0.055218 -0.034192
0.080379 -0.060587 -0.029776
0.037601 0.051535 0.042085
0.042777 -0.046848 -0.047986
-0.076972 0.018348 0.036085
0.000089 -0.068179 -0.079999
0.053875 0.050607 -0.036134
0.057066 -0.055926 -0.034778
-0.047198 0.011666 0.094516
0.046525 0.017370 -0.077195
-0.026998 0.058890 0.091227
0.047530 0.030552 -0.063366
-0.054035 0.042303 0.076760
-0.072815 0.028201 -0.079507
-0.025214 0.064805 -0.034747
-0.043818 0.018951 -0.094487
-0.019446 -0.065574 0.034757
0.041825 -0.028065 -0.084010
0.051352 -0.031691 0.061911
0.037669 -0.048445 -0.049056
-0.054971 0.044435 -0.036026
-0.075280 -0.024176 0.036199
0.042593 0.044680 0.046715
0.066193 -0.001211 0.068757
-0.068539 -0.025744 -0.079999
-0.019291 0.063939 -0.036859
0.068416 -0.065729 0.007248
0.036346 0.049195 0.050767
-0.026382 -0.045981 -0.093351
-0.077342 0.012175 0.033843
0.059366 -0.054114 0.035492
0.039665 0.041600 0.057884
-0.020356 -0.036848 0.094543
-0.002221 0.036848 0.094543
-0.036492 0.062853 -0.036841
0.026741 -0.047508 -0.091200
-0.057200 -0.038558 -0.083827
-0.049698 -0.053241 -0.033679
0.056672 -0.039863 -0.033198
-0.080114 0.005702 -0.081740
-0.055040 0.044531 0.033527
0.039603 0.050188 0.039616
0.058308 0.053239 -0.035269
0.062357 -0.056772 -0.038215
-0.057450 0.045765 0.076700
-0.005440 0.011479 -0.091405
-0.041620 0.052796 0.091204
0.064700 0.013226 -0.064793
-0.033732 -0.065377 0.079999
-0.078208 0.012279 -0.035969
0.060274 0.025482 -0.060604
0.039958 0.035778 -0.033374
0.057992 0.055795 0.034173
-0.031888 -0.055872 -0.083524
0.044795 0.047621 0.046991
0.059990 0.026590 -0.062834
-0.078236 -0.016954 -0.081661
0.057442 0.000485 0.073962
-0.060157 -0.044339 -0.036024
-0.020579 -0.063470 0.090043
0.063123 0.058417 -0.027993
0.001387 0.063097 -0.076397
0.022198 -0.052558 0.079999
-0.050235 0.006604 0.094597
-0.037744 0.053613 -0.076563
0.060677 -0.057582 -0.035324
-0.043642 -0.053237 -0.079999
-0.017179 0.059103 0.083468
0.051206 -0.014125 -0.090171
0.002520 -0.060956 -0.033814
0.036895 -0.047238 -0.079174
0.053105 0.017401 -0.087968
0.049793 0.055336 0.038377
-0.064676 -0.043593 -0.036570
-0.005440 0.011479 0.091405
-0.068557 0.031202 -0.076954
-0.070706 -0.011050 0.077306
-0.041040 -0.056779 -0.090028
0.011305 -0.064621 -0.084909
0.022719 0.054323 0.090027
0.010678 0.060701 -0.076439
-0.024006 0.063089 0.076397
0.045607 0.041440 0.050036
0.024897 0.050959 0.036140
-0.029472 -0.018183 0.092619
0.014956 -0.059836 -0.036795
0.057955 -0.020476 -0.063132
-0.002484 -0.064547 -0.034101
-0.051417 0.045681 0.091201
-0.076322 -0.006319 0.077388
-0.064080 -0.030196 0.091244
0.056496 -0.012164 -0.067807
0.030947 0.054347 -0.040122
0.036843 0.053947 0.038382
-0.002746 0.063793 -0.076385
-0.011288 0.000000 -0.091000
0.035918 0.051322 0.043314
0.015967 -0.061903 -0.035682
0.056925 -0.055817 0.034651
-0.019291 0.063939 0.036859
0.024951 0.015081 0.094549
0.056678 -0.039967 0.033202
-0.074312 0.017072 0.077201
0.034657 0.030303 0.092212
-0.003342 0.024456 0.092619
0.015929 0.058651 0.076475
0.055445 -0.054219 0.033784
-0.071442 0.032831 0.035207
0.057942 -0.030633 0.060765
0.003771 -0.036402 -0.094574
0.015967 0.061903 -0.035682
0.057113 -0.053990 -0.036347
-0.077342 0.012175 -0.033843
-0.071102 0.008829 -0.077344
0.055324 -0.054077 -0.033752
0.006340 -0.066149 0.084916
0.026791 0.054110 -0.036743
-0.019353 -0.064622 -0.034102
0.055960 0.012759 -0.085049
0.061770 0.055787 -0.033051
0.066061 -0.062937 -0.017613
-0.077137 -0.005891 0.033081
0.020821 0.022424 -0.094528
-0.071936 0.031731 -0.084949
-0.064388 0.041123 0.033702
0.065544 0.009248 -0.065553
0.050033 0.053096 -0.036223
0.019272 0.045817 -0.092212
0.051916 -0.040051 0.035949
0.012329 -0.057752 0.033758
0.060741 0.058670 0.032452
0.045709 0.036373 0.079364
-0.058418 -0.047806 -0.033818
-0.050735 0.054547 0.079047
-0.058418 0.047806 0.033818
0.022951 -0.050328 0.091201
0.009419 -0.061614 -0.036823
-0.079175 -0.012853 0.081688
0.043331 0.036349 -0.063043
0.049310 0.000000 -0.084500
-0.000627 0.063636 0.036854
0.022260 0.052733 -0.036171
0.010743 -0.062992 0.087846
0.062590 -0.056696 0.038372
-0.069102 -0.017370 -0.077195
-0.070375 -0.028560 -0.035749
-0.001625 0.066041 0.087855
0.024935 -0.053757 -0.076560
-0.064676 0.043593 0.036570
-0.030964 0.064247 0.035708
0.049310 0.000000 0.084500
-0.051031 0.000000 -0.094647
-0.024007 -0.063089 -0.076397
0.063739 -0.059212 -0.027996
-0.045518 0.056251 -0.036736
0.064703 0.000000 -0.066272
0.054398 0.000000 -0.089130
0.027730 -0.053185 0.033678
-0.020579 -0.063470 0.090043
-0.030565 -0.061942 0.036828
0.068802 -0.066170 -0.000972
-0.030205 -0.061600 -0.076423
-0.079021 0.000000 0.034618
0.031264 0.042112 0.083765
-0.072352 -0.013322 -0.035483
0.035198 -0.049088 -0.042451
-0.077998 -0.013312 -0.035989
-0.002313 0.066130 0.035725
-0.000596 -0.061579 0.033825
-0.034795 0.029444 0.094492
0.047530 -0.030552 0.063366
-0.065655 0.035966 -0.076871
0.051916 -0.040095 -0.033450
0.064734 0.061046 -0.022636
-0.048239 -0.013398 -0.094557
-0.049554 0.000000 -0.094603
-0.053672 -0.053751 -0.084893
-0.014253 0.039401 0.094598
-0.057450 0.045765 -0.076700
0.055141 -0.000937 0.072943
0.068416 0.065729 0.007248
0.062796 0.054633 -0.036975
-0.011288 0.046072 0.093684
0.055526 -0.016213 -0.066732
0.068597 -0.065553 -0.010503
-0.006694 -0.068941 -0.081590
0.059957 -0.057385 -0.033885
0.035710 -0.037263 0.083849
0.049775 -0.013322 0.032982
-0.063365 0.043008 -0.079248
0.061181 0.054967 0.034925
0.039022 -0.039644 0.090052
-0.004683 0.066465 0.078839
0.062590 0.056696 -0.038372
-0.076288 0.000000 0.035250
-0.067066 -0.022910 0.077099
0.062477 -0.055247 0.035857
-0.049698 0.053241 -0.033679
0.056637 -0.053661 -0.033271
0.056999 -0.004712 -0.085103
-0.050964 -0.050312 -0.090029
-0.019235 0.024456 -0.092619
0.080379 -0.036190 0.056984
0.053413 0.040027 0.033047
0.053962 0.000000 -0.034514
-0.074897 -0.014816 -0.077240
-0.024006 0.063089 -0.076397
-0.077589 -0.007405 -0.088028
-0.047279 -0.015669 -0.094546
0.001436 0.002015 -0.091405
-0.031172 0.064411 -0.036852
0.026737 -0.002583 -0.094574
0.011305 -0.064621 -0.084909
-0.002842 -0.063805 0.076385
-0.053744 0.054547 0.079999
-0.041747 0.022079 0.094481
0.051933 0.040308 -0.035954
0.046791 0.045621 -0.049117
-0.011288 -0.046072 -0.093684
0.059366 -0.054114 0.035492
0.005218 0.062310 0.076411
0.004421 -0.058890 0.091227
0.054075 -0.018101 -0.074374
-0.060612 0.034217 0.083902
0.050830 0.010129 -0.079999
0.051268 -0.025726 0.079550
0.060665 0.054526 -0.034160
0.000946 -0.065612 0.087853
-0.064080 -0.030196 0.091244
0.031779 -0.051819 -0.038174
0.041820 0.028061 -0.084010
-0.058458 0.043341 -0.090042
-0.052975 0.052079 -0.087842
-0.044187 0.060791 -0.079999
0.021941 -0.057855 -0.087839
0.058431 -0.056287 -0.034681
-0.011288 -0.039493 0.094595
-0.078982 -0.006000 0.035854
0.040106 -0.044346 0.048488
0.053708 0.042826 0.033097
0.080162 -0.013929 -0.068591
-0.078982 0.006000 0.035854
0.056265 0.006599 -0.077028
0.002037 -0.065715 0.036860
0.055912 -0.053688 0.036223
-0.011288 0.012883 -0.091405
-0.032092 -0.015115 -0.092619
-0.069125 0.037787 0.081556
-0.010343 -0.037957 -0.094547
-0.048736 0.006297 -0.094548
0.054211 0.000000 -0.077499
0.055196 0.042668 0.030501
0.011701 0.054897 -0.083541
-0.026382 0.045972 0.093352
-0.049414 -0.046080 0.083695
0.054601 -0.028119 -0.059686
0.032756 0.054471 0.037808
-0.019831 -0.063793 0.076385
0.050316 -0.024323 -0.066974
-0.045140 0.019741 0.094533
-0.063559 0.029665 -0.083982
0.069679 0.068969 0.003972
0.035198 -0.049088 0.042451
-0.074775 0.027267 -0.081601
-0.074589 -0.027766 0.079999
0.026233 -0.055161 0.087840
0.054912 -0.039998 -0.030450
-0.062535 0.035778 0.033374
0.009419 0.061614 -0.036823
0.011270 0.058287 -0.033767
-0.021981 0.061579 0.033825
0.040488 -0.039548 -0.076808
0.014426 0.000000 0.092619
0.062637 0.000521 0.069201
0.045436 0.034385 -0.060623
-0.065169 -0.041704 -0.034377
-0.041037 -0.059182 -0.034012
-0.035745 -0.007946 -0.092619
0.051596 -0.027029 -0.084970
0.028742 0.055533 0.035190
0.024947 0.053774 -0.076560
-0.011288 -0.025715 0.092619
0.051287 0.025735 0.079550
0.059429 0.049456 0.030641
0.060274 -0.025482 -0.060604
-0.048736 0.006297 -0.094548
0.065092 -0.064374 0.023241
-0.074456 -0.023936 0.034056
0.055988 -0.054834 -0.033992
0.062808 0.054634 -0.036976
-0.068957 -0.031608 -0.033302
0.057625 0.053493 -0.032210
-0.018861 -0.010422 -0.091405
0.048623 0.031431 0.079450
0.019419 0.056930 -0.076505
-0.057622 -0.050384 0.084896
0.052767 0.000000 0.090294
0.003837 -0.059023 -0.091228
0.055155 0.000427 -0.072955
0.020638 -0.055578 -0.090027
0.062532 0.054671 0.036867
-0.047527 -0.015081 -0.094549
-0.069883 0.036617 -0.081560
0.066599 0.061992 -0.023519
-0.033501 -0.064753 0.084910
0.032631 0.053860 0.034556
-0.051890 -0.044332 -0.076725
-0.050143 0.057136 0.081534
0.029331 0.053681 -0.033877
0.049924 0.054175 0.033971
0.058053 -0.013129 -0.069524
-0.070020 -0.015901 -0.091325
-0.013304 -0.012724 -0.091405
0.068227 -0.065635 0.003685
0.026425 0.057010 -0.035843
0.010429 -0.063928 0.036849
-0.043121 0.059081 0.078968
0.080162 -0.069708 0.006386
0.049124 -0.024932 -0.070977
0.003700 -0.063641 -0.034086
0.053439 0.009115 -0.077339
0.041614 -0.043155 -0.057995
0.056637 -0.053661 -0.033271
0.017234 0.024526 -0.094481
-0.065325 -0.037775 -0.035910
-0.009700 -0.062480 -0.036341
-0.014495 -0.039382 0.094598
-0.069991 -0.032127 0.033543
-0.019277 -0.061434 -0.079999
0.006895 -0.018183 0.092619
-0.077342 0.012175 0.033843
-0.078401 -0.009989 -0.079825
-0.041747 -0.051324 -0.083604
0.059915 -0.057746 -0.031099
-0.011288 -0.046063 -0.093685
0.054960 -0.017212 -0.085022
0.001863 0.065539 0.078855
0.080379 -0.045943 -0.049460
0.054718 -0.009668 0.088013
0.051907 -0.039837 -0.033445
0.026233 -0.055161 -0.087840
0.058431 0.056287 0.034681
-0.079119 0.000000 -0.034757
-0.047753 -0.056517 -0.079012
0.067144 0.064339 -0.012539
0.056690 0.009247 -0.073163
0.053776 -0.006367 -0.077017
-0.017975 0.066538 -0.036864
0.036545 0.047484 0.079170
-0.006687 0.066587 0.087857
-0.040753 0.061789 0.084901
0.026930 0.000000 -0.094594
-0.073531 0.023636 -0.033393
0.050033 0.053096 -0.036223
0.050003 0.053370 0.036759
0.048470 -0.026184 -0.077041
0.056969 0.042602 0.033251
-0.028725 -0.056841 -0.083507
0.003805 -0.045972 -0.093352
-0.074497 -0.026201 0.036239
0.057837 -0.000948 0.069181
0.026185 -0.056621 -0.035022
0.031568 -0.050228 0.046217
0.034624 0.038558 0.083827
0.055434 0.053562 0.036197
0.011834 -0.054994 -0.076539
-0.028841 -0.056945 -0.076505
0.031458 -0.042303 -0.076760
-0.046808 -0.012840 -0.094509
0.041971 0.028234 0.077006
0.050316 0.024323 0.066974
-0.002287 -0.066351 -0.036863
0.051221 0.000000 0.035250
0.080162 0.026163 0.064920
0.028369 0.052791 -0.041485
-0.064397 -0.028061 -0.084010
0.055324 0.054077 -0.033752
0.052664 0.004237 0.090235
-0.049284 0.010368 -0.094573
-0.048736 0.006297 0.094548
0.034717 -0.054084 -0.038096
0.061240 0.054534 -0.036838
-0.023008 -0.058244 -0.083483
-0.002457 0.060323 0.091236
-0.057454 -0.045769 0.076700
-0.078106 0.005963 0.033732
-0.077984 -0.012262 0.034819
0.062581 -0.056701 -0.038364
0.054510 -0.039992 -0.031949
0.030839 0.050812 -0.045138
-0.039403 0.024996 0.094481
-0.029074 0.066766 -0.081575
-0.071001 0.031692 -0.079446
-0.047334 0.052986 0.090027
0.042034 -0.043489 0.054758
0.054662 -0.034972 0.055067
0.066546 -0.063414 -0.017870
0.048449 -0.042530 0.048774
0.026406 -0.056979 0.035850
0.036972 -0.052814 -0.033950
-0.011288 -0.066695 -0.087915
-0.050333 0.054205 -0.033928
-0.069068 0.017359 -0.077196
0.020564 0.059119 0.078967
-0.049801 0.053130 0.036178
-0.078163 0.000000 0.033407
0.063256 -0.058662 -0.027574
-0.041037 0.059182 -0.034012
0.066546 -0.063414 -0.017870
0.080162 -0.056165 -0.041775
-0.031021 0.064455 -0.036853
0.029961 -0.052070 -0.039782
0.032358 -0.054152 0.038875
-0.021981 0.061579 0.036325
0.048398 0.037997 -0.053078
0.050961 0.034361 -0.055838
0.055685 -0.016960 0.081660
-0.012234 0.037957 0.094547
-0.072634 0.022635 -0.035645
-0.073122 -0.029756 -0.036308
0.062011 0.021542 -0.062274
-0.045827 0.056876 0.033974
0.039958 0.035778 -0.033374
0.053750 -0.021583 -0.069633
-0.019353 0.064622 -0.034102
0.008498 0.057632 0.091221
0.048077 0.034069 -0.084939
0.080379 -0.064989 0.018272
-0.051831 -0.050745 0.076613
0.054200 -0.000492 0.077483
0.009618 0.061092 0.033816
-0.035856 0.030564 -0.094537
0.064083 0.000000 0.066331
0.063739 -0.059212 -0.027996
0.043813 0.043185 -0.052949
0.048179 -0.032976 0.066791
-0.000596 0.061579 -0.033825
0.064067 0.057473 0.032611
0.066838 -0.062362 0.022580
-0.074559 -0.027753 0.081598
0.050515 -0.029706 -0.065612
-0.002842 -0.063805 -0.076385
0.049745 -0.055819 -0.037188
0.039161 -0.046867 0.051013
0.059990 -0.026590 0.062834
-0.026356 -0.066780 0.084918
0.031167 0.054547 0.079999
-0.041798 -0.030506 0.094006
0.055141 0.000937 0.072943
-0.032747 0.055683 0.076527
0.066959 0.067744 0.007633
0.062320 0.056749 -0.038245
-0.029083 -0.056884 -0.076506
-0.015556 0.064007 -0.090045
-0.030578 -0.061988 -0.036829
-0.080235 -0.004482 -0.081749
-0.011288 -0.064114 0.090064
-0.066831 -0.031900 -0.090080
0.061222 -0.057015 -0.037365
-0.039614 -0.052427 -0.083584
0.059266 -0.049496 -0.030642
-0.020356 -0.036848 0.094543
-0.033501 -0.064753 0.084910
0.064083 0.000000 0.066331
0.058849 0.056781 -0.036211
-0.042914 0.050634 0.083616
0.057159 -0.008436 0.068521
0.052767 0.000000 -0.090294
0.011155 0.065377 0.079999
-0.037114 0.061839 -0.078920
-0.062143 -0.046815 0.079999
0.053531 -0.019516 -0.079658
-0.067158 0.024055 0.091275
0.021309 -0.059646 0.035655
-0.046594 0.058279 0.035637
0.052321 0.014816 -0.077240
0.059255 -0.016557 0.064431
-0.063931 -0.040582 -0.036468
-0.019438 -0.058883 0.083472
0.067938 -0.065299 0.007146
0.064081 0.064464 -0.017500
0.050055 -0.052933 0.033674
0.065888 0.005511 0.068520
-0.075241 -0.004237 -0.090235
0.016393 -0.063308 0.081554
0.037284 0.048226 0.052063
0.058171 -0.053116 0.035267
-0.077372 -0.017835 0.085019
0.056873 0.050235 -0.030642
-0.058104 -0.043724 -0.090041
-0.026403 -0.020804 0.092619
0.059507 -0.054373 0.036657
0.049798 0.013126 -0.032979
0.056985 -0.025693 -0.063574
-0.065709 0.026041 -0.077044
0.057615 -0.052457 0.030683
0.054802 0.000000 -0.073895
-0.011288 0.046072 -0.093684
0.038256 -0.038316 -0.079999
0.066838 -0.062362 0.022580
0.020164 0.059345 -0.078963
-0.072352 0.013322 0.032982
0.014110 -0.004023 0.092619
0.026265 0.055772 0.079025
0.057837 -0.000948 -0.069181
-0.061331 -0.033074 -0.083922
-0.061696 0.046306 0.084902
0.058054 -0.053614 -0.030821
-0.033882 0.064621 0.084909
0.028387 0.050312 -0.090029
0.064835 0.061595 -0.030270
0.027814 -0.053660 0.036761
-0.076362 0.006323 0.077388
-0.003316 -0.058925 0.076470
0.062079 -0.054955 -0.036160
0.069774 -0.069085 -0.000910
-0.052760 0.046729 0.079999
0.026282 0.005670 0.094552
0.080162 -0.047638 -0.051285
0.053863 0.032013 -0.060253
0.053035 -0.011488 -0.077298
0.062799 0.054635 -0.036973
-0.059687 0.049087 0.036664
-0.059541 0.048954 0.035496
0.026265 0.055772 -0.079025
-0.011311 0.064263 0.076377
0.027252 0.057348 -0.081534
-0.061013 -0.045164 0.033772
0.012329 -0.057752 0.033758
0.034842 -0.045795 0.076699
0.037488 -0.035387 0.076881
0.005143 0.035785 -0.094569
0.058910 -0.055648 -0.031698
-0.002842 -0.063805 0.076385
0.041820 0.028061 -0.084010
0.024935 -0.053757 0.076560
-0.057234 0.030297 -0.092213
0.043012 -0.036057 0.076869
0.040248 0.035261 -0.033365
0.053295 -0.030537 -0.058317
0.040801 0.041657 0.087863
0.048924 -0.025468 0.070709
-0.037942 -0.028728 0.094531
-0.044187 0.060791 0.079999
-0.011288 0.038057 -0.094562
0.011624 0.011674 0.092619
-0.057820 0.037785 -0.083840
-0.023943 0.067926 -0.081583
0.062808 0.054634 -0.036976
-0.024798 0.037042 -0.094580
0.029894 0.044786 -0.091202
0.006226 -0.033496 0.094515
-0.047524 0.015078 -0.094549
-0.011298 -0.062364 0.033839
-0.036252 0.059583 0.076459
0.010429 0.063928 -0.036849
0.050555 0.016730 0.090156
0.059540 -0.000480 0.071035
0.037284 0.048226 -0.052063
0.062621 -0.001104 -0.069189
0.032876 -0.047726 -0.076665
0.049731 0.026929 -0.087920
0.061330 -0.057449 -0.036476
0.019221 0.030506 -0.094006
0.061864 0.061203 -0.002991
-0.044775 0.052558 0.079999
0.061181 -0.054967 -0.034925
0.034657 -0.030297 0.092213
0.005238 -0.061969 -0.090038
0.069727 -0.066277 0.006072
-0.053811 0.050277 -0.033628
-0.078759 0.000000 0.087072
0.064081 -0.064464 -0.017500
0.055283 0.004386 -0.088047
0.045201 0.045680 0.045435
-0.068677 0.024660 0.035681
-0.032465 0.060527 0.090034
0.065474 0.061929 0.022055
-0.067158 0.024055 0.091275
0.060433 0.052833 -0.030855
0.056261 -0.006593 -0.079884
-0.035745 0.007946 0.092619
-0.034201 -0.011674 0.092619
-0.015311 0.025398 -0.092619
0.032631 0.053860 0.034556
-0.011288 -0.064114 0.090064
0.035403 0.037956 -0.076836
0.057434 0.000000 0.074013
-0.029384 0.059358 0.079999
-0.060157 -0.044339 0.036024
0.049310 0.000000 0.084500
0.007594 -0.061634 -0.076423
-0.075280 -0.024176 0.036199
-0.078062 0.015047 -0.085035
0.059727 -0.057193 0.033379
-0.075993 0.005798 0.032851
0.045988 0.031774 0.066723
0.000501 -0.058274 -0.076481
-0.057980 -0.037956 0.076836
0.032358 0.054152 -0.038875
0.030949 -0.052527 -0.036820
-0.054189 -0.051884 0.079093
0.061770 0.055787 -0.033051
0.010855 0.030477 0.094497
0.046554 -0.039560 0.056238
-0.074456 0.023936 0.034056
-0.064027 -0.030297 0.091244
0.047713 0.014743 0.091333
0.034932 0.053689 0.034658
0.042960 0.026003 0.084046
0.054443 -0.036305 0.057167
0.054923 0.040159 0.030455
-0.019243 -0.063450 0.036358
0.055969 0.013315 -0.072319
-0.024798 0.037042 -0.094580
0.034387 -0.051551 0.044725
0.000964 -0.003981 -0.091405
-0.019510 0.066207 0.035726
0.015238 -0.026694 -0.094484
-0.005399 0.059107 0.083468
0.045436 -0.034385 0.060623
0.053441 0.009121 -0.076613
-0.011288 -0.066695 -0.087915
0.019675 0.059103 -0.087840
-0.011288 -0.025715 -0.092619
-0.041037 0.059182 -0.034012
-0.045691 0.059922 0.081541
0.068014 -0.065258 -0.010367
0.058270 0.029317 0.058650
0.057526 -0.056280 -0.035193
0.049359 -0.031731 -0.084949
0.051907 0.039794 -0.035945
-0.006687 0.066587 0.087857
0.056201 0.052926 -0.033275
0.056741 0.007570 0.085083
0.040106 0.044346 0.048488
-0.037744 0.053613 0.076563
0.052399 0.007134 0.090215
-0.041849 0.045808 -0.092213
-0.014844 -0.066734 -0.078834
0.080379 -0.064989 -0.018272
0.060963 0.059647 0.027945
0.060727 0.057049 0.036952
0.058130 0.054610 -0.032503
-0.007266 0.025398 0.092619
0.053253 0.022790 0.084991
-0.033732 0.065377 0.079999
-0.036927 -0.053817 -0.083560
0.035511 -0.046463 0.051944
0.039310 0.048183 0.047482
0.005238 -0.061969 0.090038
-0.036419 -0.062655 -0.035691
0.000417 0.036025 -0.094535
0.043012 -0.036057 0.076869
0.058270 0.029317 -0.058650
0.062029 0.055785 -0.034127
0.001183 0.035786 0.094533
-0.055674 0.052575 -0.036718
-0.046288 -0.057724 0.034645
-0.057262 -0.039764 0.091211
0.037053 -0.052001 0.036740
0.051216 0.000260 0.032754
0.042172 0.042744 -0.084911
-0.071495 0.005750 -0.084399
0.080379 -0.060587 0.029776
0.080379 -0.060587 0.029776
0.059144 -0.049126 -0.030635
0.057837 0.000948 0.069181
0.023006 0.052039 0.036159
-0.014253 0.039401 -0.094598
0.068532 -0.068814 -0.000891
0.044795 0.047621 0.046991
-0.027445 -0.062068 -0.090038
0.019221 0.030506 -0.094006
-0.002382 -0.065498 0.034756
0.029710 -0.054905 -0.041442
-0.044821 -0.017086 0.094492
0.026795 0.002005 -0.094579
0.045526 0.037608 -0.055051
0.057785 0.052917 -0.030710
0.048494 0.011398 0.091356
-0.038912 0.027781 -0.094529
-0.038893 0.057860 0.090029
0.055960 0.012759 0.085049
0.019272 -0.045808 -0.092213
0.008583 -0.064359 -0.036852
0.064413 0.059557 -0.028369
0.004069 0.058984 -0.091228
0.028742 -0.055533 0.035190
0.049141 0.003517 -0.084438
0.034685 -0.039768 0.091211
-0.071936 0.031731 -0.084949
0.020337 -0.050634 -0.083616
-0.030805 -0.063632 0.034731
0.022784 -0.049346 0.076637
-0.078754 0.006001 0.034706
-0.072179 0.013070 -0.032978
0.050055 0.052933 -0.033674
0.067910 0.066632 0.017641
-0.045615 -0.052122 -0.036160
0.041950 -0.028221 -0.077006
-0.055259 0.051083 0.079107
-0.024013 -0.002015 0.091405
-0.001836 0.038337 -0.094591
0.008583 -0.064359 -0.036852
0.020226 -0.057621 -0.036759
-0.045615 0.052122 0.036160
0.031167 0.054547 0.079999
-0.024013 0.002015 -0.091405
-0.078982 -0.006000 -0.035854
0.064424 -0.013966 0.067178
0.055012 0.007405 0.088028
-0.011287 -0.059376 -0.083463
-0.015556 0.064007 0.090045
-0.063110 0.030833 0.076960
0.060607 0.054482 -0.036775
-0.059095 -0.048504 0.034496
0.057066 0.055926 -0.034778
0.055445 0.054219 0.033784
0.025796 0.054073 0.036194
0.047907 -0.033955 -0.057896
-0.015179 0.066736 -0.036864
-0.055745 -0.041523 -0.091207
0.055988 -0.054834 -0.033992
-0.047198 0.011666 -0.094516
0.064714 0.013161 0.064805
0.054200 0.000492 -0.077483
-0.069068 0.017359 0.077196
0.054345 0.000000 0.075763
0.000077 0.068113 0.081585
0.001863 0.065539 -0.078855
-0.060612 0.034217 -0.083902
0.034186 -0.042875 -0.035999
-0.076439 0.005794 -0.077397
0.066359 -0.062611 0.021396
0.011509 -0.065226 -0.081565
-0.049801 0.053130 0.036178
-0.077426 0.000000 0.032999
0.031358 -0.054880 0.037591
-0.002382 -0.065498 -0.034756
-0.069885 -0.025874 0.090107
0.066410 -0.001167 -0.066266
-0.000866 -0.007572 0.091405
0.062808 -0.054634 0.036976
-0.011288 0.012883 0.091405
0.048129 0.011050 -0.077306
-0.008821 -0.063840 -0.033864
0.035527 0.043724 -0.090041
-0.076411 -0.006449 -0.035863
0.013168 0.007946 0.092619
-0.047474 -0.050959 0.033639
-0.022654 -0.068113 -0.081585
-0.067066 -0.022910 -0.077099
-0.011288 0.000000 -0.091000
0.061231 -0.057470 -0.036302
0.034737 -0.054443 -0.036924
0.010855 0.030477 0.094497
0.062532 -0.054671 -0.036867
0.061231 -0.057470 -0.036302
0.049793 -0.055336 0.038377
-0.069615 -0.031229 0.036303
-0.025029 0.063167 -0.036847
0.019272 -0.045808 0.092213
0.057942 -0.030633 -0.060765
-0.063463 0.040425 0.033456
0.008562 -0.061385 -0.076427
0.051216 0.000260 0.032754
0.051218 -0.018881 0.073755
-0.017687 -0.063975 0.076382
-0.079659 0.009959 0.081708
0.057159 0.008436 -0.068521
0.039153 -0.041117 0.076781
-0.059986 -0.043214 0.076744
0.054471 0.008597 0.072201
0.019561 0.021535 0.094482
0.037926 -0.044705 -0.050623
0.027566 -0.057136 -0.081534
0.032532 -0.054751 -0.036635
-0.035745 0.007946 0.092619
-0.075071 0.024126 -0.035042
0.048958 0.005575 -0.077401
0.027143 -0.046163 -0.076693
0.061665 0.057304 -0.037021
0.017209 0.052582 -0.076581
0.049124 0.024932 0.070977
0.028977 -0.052696 -0.033670
-0.011288 -0.025715 -0.092619
0.062322 -0.055478 0.035284
0.062728 -0.054794 -0.036717
0.080379 0.045943 0.049460
0.056370 -0.053214 -0.033256
0.060328 0.012455 0.065479
0.060584 0.054378 0.034041
-0.035801 -0.030571 0.094538
-0.053811 -0.050277 -0.033628
-0.029472 0.018183 -0.092619
0.055979 0.000000 0.032494
-0.074388 0.000000 0.079999
0.047009 -0.043927 -0.047293
-0.051417 0.045681 0.091201
0.080379 -0.054167 -0.040289
0.055988 -0.054834 -0.033992
0.055141 0.000937 -0.072943
0.080162 0.062822 0.030875
0.046792 -0.016250 -0.084216
0.050055 0.052889 0.036174
-0.006759 0.063710 -0.036362
0.064081 0.064464 -0.017500
-0.043594 -0.051601 -0.091202
-0.079288 0.000000 -0.079999
0.060926 0.054826 0.034525
0.033096 0.052207 -0.046238
-0.008787 -0.064971 -0.034107
0.036647 0.036498 0.076861
0.059389 -0.052067 -0.033384
0.009618 -0.061092 -0.033816
-0.002484 -0.064547 0.034101
0.054505 0.039818 0.031945
0.032795 -0.054699 0.036669
-0.017137 -0.011479 0.091405
-0.028481 0.064486 -0.087850
-0.040753 0.061789 0.084901
0.050033 -0.053096 0.036223
-0.036211 0.062055 0.034710
0.061770 0.055787 0.033051
0.057992 0.055795 -0.034173
-0.072025 0.004254 -0.091411
-0.076016 -0.009115 0.077339
-0.073387 0.010242 -0.079999
0.055141 0.000937 0.072943
-0.069369 0.016250 -0.084216
0.058053 0.013129 0.069524
0.052744 -0.022398 -0.072698
0.047312 0.014388 -0.084248
0.057384 -0.052933 -0.032169
0.027797 -0.053641 -0.036761
-0.054464 0.053945 -0.081530
-0.064080 -0.030196 -0.091244
0.010190 0.063113 -0.034724
0.047000 -0.015806 0.077223
0.052761 -0.012665 0.077277
0.058781 -0.009119 0.070303
-0.061765 -0.041091 0.076781
-0.068201 0.019791 0.084154
-0.068677 -0.024660 -0.035681
0.032876 -0.047726 -0.076665
-0.034602 0.060326 -0.036303
-0.069972 0.014323 -0.077249
0.049983 -0.026354 -0.087922
0.016896 0.024917 -0.094481
-0.073449 -0.026803 -0.079531
0.052255 -0.025687 -0.067785
-0.038506 -0.058651 0.076475
0.015399 -0.060410 0.034033
-0.077537 0.017212 0.085022
0.059196 -0.056604 -0.034051
-0.069130 -0.033208 0.087892
-0.076040 0.022187 -0.084995
-0.019446 -0.065574 -0.034757
0.039002 0.034208 -0.091228
-0.053626 -0.050964 -0.036648
0.061038 0.057221 -0.036703
0.047713 0.014743 0.091333
0.060351 -0.056932 0.037185
-0.019533 0.066428 -0.036863
-0.054035 0.042303 -0.076760
-0.041680 -0.060645 0.035668
-0.053719 -0.054514 0.081531
-0.067897 -0.038477 -0.084923
0.024662 0.053975 -0.076556
0.055184 0.013117 -0.079770
0.019272 -0.045808 -0.092213
0.051202 0.001091 0.032769
0.050316 0.024323 0.066974
0.049359 -0.031731 0.084949
0.056068 0.053728 0.036236
-0.047817 0.009923 -0.094525
-0.067897 -0.038477 0.084923
-0.058473 0.050476 0.081530
0.058431 0.056287 -0.034681
0.020821 0.022424 -0.094528
0.059404 0.056712 -0.032615
-0.020398 -0.009110 -0.091405
0.057942 0.030633 -0.060765
-0.024798 0.037042 -0.094580
0.022260 -0.052733 0.036171
0.066210 0.000602 0.068769
0.061659 -0.055632 -0.032615
0.032399 0.052763 -0.045250
0.059266 -0.049496 -0.030642
0.037061 -0.051918 -0.036938
-0.071434 -0.029064 -0.033489
0.062156 0.061178 -0.028104
-0.032092 0.015115 0.092619
-0.017687 0.063970 -0.076382
-0.077998 -0.013312 -0.035989
0.065474 0.061929 0.022055
0.054656 -0.039759 0.035208
0.080379 0.045943 -0.049460
0.046279 0.030591 -0.076965
0.061330 0.057449 0.036476
-0.077282 0.000000 0.032919
-0.035381 -0.055950 -0.091213
-0.026403 0.020804 -0.092619
-0.047202 -0.011669 0.094516
0.027814 -0.053660 0.036761
-0.045252 -0.050516 -0.091201
0.002520 0.060956 0.033814
0.080379 0.045943 0.049460
0.051441 0.036043 -0.057626
0.052664 0.004237 0.090235
-0.047732 -0.047691 0.076666
0.057015 0.004472 0.085104
0.061560 0.004863 -0.066624
-0.074589 -0.027766 -0.079999
-0.057234 0.030297 0.092213
0.080162 -0.069708 -0.006386
0.035198 0.049088 0.042451
-0.055259 0.051083 0.079107
-0.049698 -0.053241 -0.033679
0.045946 -0.024577 -0.033179
-0.011288 0.025715 0.092619
0.050033 -0.053096 -0.036223
0.058186 0.054198 -0.036497
0.026930 0.000000 0.094594
-0.026414 0.059023 0.091228
0.064700 -0.013226 -0.064793
0.057650 0.000000 0.083362
0.011706 -0.054912 -0.083541
0.056404 -0.024331 -0.061553
0.031142 0.054514 0.081531
0.045978 0.025036 -0.035687
0.069377 0.068592 0.007999
0.049753 0.055764 -0.035905
0.045980 -0.031202 -0.076954
0.069141 -0.066195 -0.005731
-0.046288 -0.057724 -0.034645
0.050003 -0.053370 -0.036759
-0.033320 0.062992 -0.087846
-0.068486 -0.033524 0.036344
0.036895 -0.047238 -0.079174
-0.024006 0.063089 0.076397
-0.039556 -0.053940 -0.091207
0.034596 0.014954 -0.093352
-0.051223 0.055536 -0.035599
-0.015493 -0.060825 -0.091238
0.057232 0.052570 -0.032178
0.051217 -0.000238 0.035254
-0.013304 -0.012724 0.091405
-0.026382 0.045972 -0.093352
0.039566 0.046815 0.079999
0.023305 0.015028 0.094499
-0.010317 -0.039490 -0.094596
-0.024857 -0.062742 -0.033845
0.014110 -0.004023 -0.092619
0.048494 0.011398 -0.091356
-0.078262 0.016960 0.081660
0.003805 -0.045972 0.093352
0.044352 0.024579 0.091272
-0.028095 -0.064588 -0.087850
-0.077537 0.017212 -0.085022
0.053407 -0.039818 0.033043
-0.078898 -0.006682 -0.035866
-0.069155 -0.037806 0.079999
0.058612 0.021601 -0.065268
-0.050333 0.054205 0.033928
-0.073845 0.025726 0.079550
0.014986 -0.062443 -0.036837
-0.011288 0.049727 0.093178
0.053427 0.040236 -0.033051
-0.033700 -0.065359 0.081566
0.010366 -0.063723 0.035703
0.045161 0.021019 0.084133
-0.047474 -0.050959 0.036140
0.056985 -0.025693 -0.063574
0.057947 -0.056494 0.035538
-0.008081 0.039382 -0.094598
-0.025097 -0.060956 0.036314
-0.011288 0.000000 0.091000
-0.058418 -0.047806 -0.033818
-0.011288 0.000000 0.091000
0.052927 0.023927 -0.063777
0.053776 0.006367 -0.077017
-0.063065 0.039548 -0.076808
0.043136 0.038025 0.057583
0.048096 0.044312 -0.050508
-0.057980 -0.037956 0.076836
0.031568 0.050228 0.046217
0.059540 0.000480 0.071035
0.058749 -0.056530 -0.035032
0.009927 -0.062189 0.034062
0.060000 -0.057137 0.035321
0.069074 -0.068205 -0.010639
0.049793 -0.055336 -0.038377
-0.069125 0.037787 0.081556
0.049104 0.021362 0.090130
-0.020952 -0.066041 0.087855
0.032358 -0.054152 0.038875
-0.056440 -0.049100 0.087846
0.062011 -0.021542 0.062274
-0.075993 0.005754 -0.035351
0.057589 -0.055182 0.033742
0.066373 0.063353 0.016281
0.062433 0.056819 -0.038158
0.054211 0.000000 0.029750
0.080162 -0.062822 0.030875
0.057550 0.005704 0.081740
0.048924 -0.025468 0.070709
-0.068030 0.029716 0.090089
-0.055035 0.046803 -0.090034
0.050961 -0.034361 -0.055838
0.064086 0.000000 0.068856
-0.017834 0.060616 0.091238
-0.068659 0.038506 0.081553
-0.015139 0.065877 0.034761
0.064714 0.013161 -0.064805
-0.052707 -0.050005 -0.076626
-0.011278 -0.062364 -0.033839
-0.065169 -0.041704 -0.034377
0.038768 -0.033085 0.083922
-0.057617 -0.046970 0.033570
0.065074 0.062066 -0.029404
0.060727 -0.057049 0.036952
-0.063636 0.042655 -0.079254
0.052113 -0.009307 -0.090201
0.037829 -0.045126 0.087854
0.058054 -0.053614 -0.030821
0.062630 0.054731 0.036791
0.054671 0.040097 -0.035215
0.044383 -0.022770 0.084102
-0.057091 0.000000 -0.093821
-0.006735 -0.068308 0.084926
-0.077879 0.000000 -0.033206
-0.062825 -0.035261 -0.035866
0.062322 -0.055478 0.035284
-0.064388 0.041123 -0.033702
0.046578 -0.037806 0.079999
-0.035535 -0.060063 0.033798
0.000738 0.061208 -0.033818
0.034514 0.000000 -0.093821
0.050015 0.053264 0.036355
-0.068030 0.029716 0.090089
0.028165 0.053483 0.036768
0.049310 0.000000 0.084500
-0.028917 0.066149 -0.084916
0.022719 0.054323 0.090027
-0.004604 0.066507 0.036863
0.046554 0.039560 0.056238
0.048719 -0.031904 0.067499
0.052399 0.007134 -0.090215
-0.019446 0.065574 -0.034757
0.053740 0.006363 0.077387
0.035453 -0.050005 0.084896
-0.017975 0.066538 -0.036864
0.040311 0.030784 0.083962
0.002221 -0.037042 -0.094580
0.062630 0.054731 -0.036791
-0.077984 -0.012262 -0.034819
-0.005363 0.059098 -0.076467
-0.036252 0.059583 -0.076459
0.050055 0.052933 -0.033674
0.055969 -0.013315 0.072319
0.042960 0.026003 0.084046
-0.059095 -0.048504 0.034496
0.066111 -0.062252 0.022347
-0.064749 -0.042744 0.084911
0.055887 -0.009662 -0.076592
-0.055745 -0.041523 -0.091207
-0.048736 0.006297 0.094548
0.061778 0.055018 -0.035776
0.048924 0.025468 0.070709
0.033228 -0.049382 0.044268
-0.013271 -0.059393 0.076462
0.058053 -0.013129 -0.069524
-0.016007 -0.068297 0.084926
-0.080114 0.005702 -0.081740
-0.021284 -0.068368 -0.081587
0.035045 0.050384 -0.084896
0.057955 -0.020476 0.063132
0.066002 -0.066881 0.007422
-0.074456 0.023936 -0.034056
-0.001998 0.063470 -0.090043
0.054200 0.000492 0.077483
0.028742 -0.055533 0.035190
-0.022665 -0.068179 0.079999
-0.073531 0.023636 0.033393
-0.075612 0.011488 0.077298
0.015399 0.060410 0.034033
0.034186 -0.042875 -0.033498
0.059636 0.052562 -0.033371
0.051092 0.029710 -0.081589
0.061181 -0.054967 -0.034925
-0.003716 0.010422 -0.091405
0.049775 -0.013322 0.035483
0.068217 -0.065088 -0.012886
0.019272 -0.045808 -0.092213
0.057193 -0.054563 -0.033465
-0.072375 0.013126 0.032979
0.066115 -0.005232 0.066045
0.059656 0.054263 0.035570
-0.071200 -0.031431 -0.079450
0.048129 0.011050 -0.077306
-0.074233 -0.011986 -0.090184
0.041158 0.048427 0.046152
0.038754 0.033074 -0.083922
-0.043818 0.018951 -0.094487
0.052861 0.016518 -0.070215
-0.030964 0.064247 0.035708
0.053295 -0.030537 0.058317
0.051656 0.011986 0.090184
-0.012877 -0.062480 0.033840
0.017983 -0.026018 0.094527
0.050055 0.052933 -0.033674
-0.075177 0.017956 0.033293
-0.073779 -0.001091 0.032769
-0.072025 0.004254 -0.091411
0.059271 -0.005096 0.070802
0.026932 0.055575 -0.034344
-0.066929 -0.024579 0.091272
0.061764 -0.022431 0.064599
0.022297 0.049629 0.076632
0.034727 0.054304 -0.035707
-0.006866 0.063996 0.090045
0.043136 -0.038025 0.057583
0.039958 -0.035778 0.035875
-0.073449 -0.026803 0.079531
-0.011288 0.000000 -0.091000
0.057232 -0.052570 -0.032178
0.056068 -0.053728 0.036236
0.040533 -0.030833 0.076960
-0.000596 0.061579 -0.036325
0.052716 0.013124 0.075700
0.047907 0.033955 0.057896
-0.030569 -0.062702 -0.034071
-0.070886 -0.019891 -0.079999
0.069273 -0.066348 0.003786
-0.071509 0.008854 -0.091375
0.068217 -0.065088 -0.012886
0.080162 -0.037525 -0.059086
0.032458 -0.046803 0.090034
-0.015842 0.068308 0.084926
-0.044821 -0.017086 0.094492
0.036843 -0.053947 0.038382
-0.004126 -0.066359 0.087856
0.034717 -0.054084 -0.038096
0.050055 0.052933 0.033674
0.054285 -0.025378 0.065303
-0.062366 -0.046358 0.036619
0.059366 -0.054114 0.035492
0.064700 0.013226 0.064793
-0.033501 -0.064753 0.084910
0.051271 -0.027704 -0.061857
0.003826 -0.020804 -0.092619
0.056685 -0.001079 0.077471
-0.067837 0.035366 -0.087884
-0.057173 0.014951 0.093352
0.064835 -0.061577 0.030261
0.032631 -0.053860 0.034556
0.048783 0.039862 0.054705
-0.041863 -0.052604 0.091204
-0.061345 0.033085 0.083922
0.000752 0.061176 0.033818
-0.011288 -0.068952 -0.083104
-0.044821 -0.017086 -0.094492
0.040248 0.035261 -0.035866
0.066210 -0.000602 -0.068769
-0.076289 0.000000 -0.032750
-0.025050 -0.063861 -0.034090
0.037831 -0.047659 -0.052820
0.048783 -0.039862 0.054705
0.045624 -0.019791 -0.084154
0.039665 -0.041600 0.057884
-0.022665 -0.068179 0.079999
0.015399 0.060410 -0.034033
0.057113 0.053990 -0.036347
0.055012 0.007405 -0.088028
0.063137 0.058410 0.027937
-0.050333 0.054205 -0.033928
0.039153 -0.041117 -0.076781
-0.072634 -0.022635 -0.035645
0.069897 -0.066482 0.003828
0.011558 -0.057773 -0.079999
-0.031172 -0.064411 0.036852
0.019434 -0.056963 -0.076504
0.027143 -0.046163 -0.076693
0.003771 -0.036402 -0.094574
-0.007259 0.059292 0.083465
0.045988 0.031774 0.066723
-0.070290 -0.014743 0.091333
-0.016007 -0.068297 -0.084926
0.050316 -0.024323 0.066974
-0.073284 -0.020425 -0.077142
0.062578 -0.056699 0.038366
0.065888 -0.005511 0.068520
0.080379 -0.067228 0.006159
0.058694 0.054270 0.036560
0.034596 -0.014951 0.093352
-0.079576 0.004712 0.085103
0.039665 0.041600 -0.057884
-0.035535 -0.060063 -0.033798
0.080379 -0.054167 -0.040289
-0.065589 0.033970 -0.090071
0.034596 -0.014951 -0.093352
-0.023329 -0.061176 0.033818
0.053105 0.017401 0.087968
0.056700 0.000536 0.077484
-0.080109 0.000000 0.083927
-0.074122 -0.019186 -0.036088
0.055719 0.016968 -0.079999
-0.064402 0.028065 0.084010
-0.040408 0.055003 -0.079999
0.054661 -0.039928 0.035211
0.046033 -0.025590 0.079999
-0.034201 0.011674 0.092619
-0.034795 0.029444 0.094492
-0.039786 -0.052582 -0.076581
-0.023013 0.058270 0.083482
0.032751 0.054484 0.035528
-0.066960 0.022770 -0.084102
-0.073122 -0.029756 0.036308
-0.069035 0.017262 -0.084198
-0.011288 -0.069073 -0.082086
-0.076972 0.018348 -0.036085
0.055141 -0.000937 -0.072943
0.037065 0.051897 0.036333
0.017234 0.024526 0.094481
0.019221 -0.030500 -0.094006
0.056808 0.055700 0.034543
-0.034068 -0.030027 -0.094494
0.049798 0.013126 -0.035479
0.035425 -0.037975 0.076836
0.057261 0.054022 -0.036368
-0.028432 -0.033648 0.094516
0.065092 -0.064374 0.023241
-0.003714 0.058974 0.076469
0.026888 0.046035 -0.083696
-0.074388 0.000000 -0.079999
-0.011288 0.046063 0.093685
-0.074559 -0.027753 0.081598
-0.059424 0.043826 0.076734
0.061222 0.057015 0.037365
-0.010343 -0.037957 0.094547
-0.061527 -0.033278 -0.076918
0.060791 0.054697 -0.034318
-0.053710 0.054502 -0.081531
0.056502 -0.049834 -0.035388
-0.045615 0.052122 0.033660
0.031223 -0.052455 0.036825
