0.020044 -0.004719 0.025760
0.029947 -0.013706 -0.012537
0.004998 0.019358 0.048237
0.020565 -0.014021 -0.028299
-0.005808 -0.001128 0.044720
0.004349 -0.023948 0.048977
0.014318 0.017486 -0.030258
-0.006113 -0.004877 0.045374
-0.000615 -0.025602 0.048270
0.019764 0.006107 -0.031364
-0.005669 0.000931 -0.047994
-0.004376 0.002284 0.044378
-0.030663 -0.009451 0.046712
0.002810 0.004654 0.044921
0.007393 0.024983 -0.029974
0.005972 0.006602 0.049103
-0.004973 -0.007559 0.049647
-0.026944 0.018965 0.018000
0.019049 0.007482 -0.043033
-0.016312 0.024376 0.044961
0.004199 -0.023461 -0.049630
-0.012440 -0.025206 -0.048228
0.006156 -0.024027 0.038337
0.008326 -0.023894 -0.036330
0.015864 -0.023404 0.033370
-0.009726 -0.000579 -0.048344
-0.026951 -0.015996 0.045421
-0.000507 -0.001351 -0.045003
-0.011903 0.006966 -0.048120
-0.017534 0.024525 0.045507
-0.017755 0.022844 -0.046067
-0.021211 -0.021849 -0.038800
0.005090 0.020707 0.042773
-0.016273 0.008388 -0.048915
-0.010212 0.003714 -0.044471
0.029561 -0.017569 0.006767
0.011556 -0.019923 0.047673
0.000581 0.021077 0.007850
-0.004854 0.015554 0.045066
0.023118 -0.018153 -0.007193
0.020862 0.002262 0.016253
-0.013479 0.004696 -0.048359
0.015794 0.019769 0.000000
-0.007913 -0.025981 -0.048354
0.015649 0.018395 0.035132
0.022377 -0.016519 -0.025640
-0.018010 0.024649 -0.043877
0.031065 -0.024046 -0.009010
0.006478 0.024880 0.044906
-0.013690 0.019825 -0.047553
-0.027812 -0.015526 0.040516
0.020653 -0.007772 0.029032
0.015647 -0.015940 0.045578
0.029537 -0.013828 -0.014657
0.017269 -0.014054 0.031437
-0.007032 -0.015940 -0.049027
0.000953 0.018812 0.048991
-0.000021 -0.025482 -0.048306
0.009342 -0.021601 -0.047865
-0.032062 -0.000482 -0.047208
-0.017542 0.026000 0.043403
-0.016276 0.019031 0.048294
0.006346 0.025045 -0.045039
-0.026465 0.011663 0.001033
-0.026720 -0.016221 0.046125
0.006531 0.024880 -0.043886
-0.005669 0.002783 0.045500
0.000969 0.019163 -0.049029
0.009526 -0.006281 0.051769
-0.022352 -0.002142 -0.051334
0.029045 -0.017842 -0.006384
-0.028775 -0.013575 0.040328
-0.022231 -0.019564 -0.049219
-0.011077 -0.000503 -0.044914
-0.019232 0.025288 0.018162
0.018945 -0.007517 0.032796
-0.019278 0.025212 0.018145
-0.017492 0.020039 -0.047461
0.030999 -0.018350 -0.012402
0.002231 0.021077 0.000000
-0.017372 -0.024212 -0.035983
0.004579 0.020126 0.047088
0.029581 -0.013650 -0.014270
-0.019233 0.025282 -0.018161
0.018679 0.015153 -0.025777
-0.010695 0.018283 -0.048840
-0.029133 0.011754 -0.034463
0.004147 0.019045 0.048560
0.018675 0.015160 -0.029615
0.010604 0.005542 -0.046769
0.029647 -0.020749 0.006119
-0.001911 -0.001206 0.048410
0.007261 0.025204 0.029971
0.006061 -0.017377 0.047300
-0.004858 0.017303 -0.018000
-0.023216 0.013407 0.021000
0.005762 -0.005824 0.046854
0.020286 -0.022822 0.030564
0.020565 -0.014021 -0.028299
0.006248 0.025387 0.044518
-0.002585 -0.011333 -0.050988
0.007696 -0.016874 -0.047042
0.024581 -0.023287 -0.026088
0.010060 -0.020203 0.049287
0.023671 -0.022753 -0.027286
-0.013373 -0.025602 0.038039
-0.000663 0.018887 0.049251
-0.005669 0.005266 0.047729
0.018525 0.014726 -0.030319
-0.032054 -0.005072 0.046274
-0.017792 0.026458 -0.019556
0.022546 0.001150 0.006992
0.021815 -0.001799 0.018558
0.031880 -0.023157 -0.009063
0.015690 -0.015897 0.045448
-0.031921 0.008509 -0.035461
-0.019000 0.008812 0.021000
0.004060 0.019725 -0.043442
-0.016117 0.018978 -0.048353
-0.031453 -0.007272 -0.046494
-0.031947 0.008429 -0.035485
-0.003576 0.018887 -0.049471
-0.019276 0.023467 0.018146
0.024727 -0.004562 -0.010914
0.020847 0.005185 -0.045993
-0.028775 -0.013575 -0.040328
-0.026363 -0.016547 -0.046579
0.029231 -0.024051 0.017054
-0.017720 0.021495 0.046724
0.023235 -0.000005 -0.014431
0.022546 0.001150 -0.006992
0.006501 0.025417 0.043826
-0.017443 0.020953 -0.047251
-0.016049 0.018647 -0.047974
-0.009419 0.021077 -0.014250
0.006697 0.024749 -0.043323
0.006721 -0.023921 -0.037581
0.032027 -0.021089 0.003096
0.030385 -0.013575 0.004457
0.030605 -0.023471 -0.006310
-0.030441 0.008149 -0.046703
-0.017976 0.022566 0.045517
-0.000244 0.021077 0.036571
-0.007757 0.018404 -0.049056
0.003432 -0.013067 0.052482
-0.028030 -0.015395 0.040463
0.018667 0.015144 0.030315
-0.027664 0.012935 0.017735
0.005566 -0.011757 0.048587
0.021602 -0.004561 0.026184
-0.017681 0.021549 -0.046835
0.026402 -0.007379 -0.018153
0.032622 -0.021021 0.000000
0.010686 0.005956 0.050483
-0.019083 0.022514 -0.041363
-0.016827 -0.005299 0.050354
-0.030437 0.008162 0.046701
-0.016273 0.008388 0.048915
0.026468 -0.010615 -0.020866
-0.005656 0.020139 0.048665
-0.016105 0.019068 0.048388
-0.027651 0.012192 -0.017000
-0.030302 0.012816 -0.034120
-0.007039 -0.015634 0.052752
-0.028896 0.014607 -0.044327
0.005790 -0.011257 -0.052292
0.015368 0.020244 -0.000947
-0.003802 0.000189 0.044587
0.017245 -0.013427 -0.047109
0.030144 -0.022601 0.007106
-0.005919 0.020577 0.015000
0.014412 0.017254 -0.030342
0.023071 -0.010842 -0.026880
0.002010 0.015218 0.000825
-0.002540 0.003940 0.047869
0.004947 0.024430 -0.045491
0.020664 -0.014907 -0.028311
-0.000244 0.015218 0.008071
-0.022568 -0.017946 0.047448
0.009361 -0.024068 0.035421
0.018735 0.013878 0.037825
0.015267 0.018487 0.034643
-0.000848 0.021077 0.037175
-0.017805 0.023943 -0.045092
0.018696 0.013774 -0.029715
-0.029301 -0.017355 0.037015
-0.030502 0.007903 -0.046729
0.019417 -0.006237 0.032300
0.015137 0.019631 -0.015566
0.013339 0.019933 -0.043801
0.022546 0.001150 0.006992
0.021055 0.000558 -0.006023
0.020223 -0.002099 -0.031844
-0.004860 0.017305 0.045410
-0.013786 0.018481 0.048387
-0.023208 -0.020673 -0.025864
-0.025818 0.017939 0.045267
-0.029199 -0.011054 -0.048322
-0.001594 -0.015197 -0.052706
-0.027923 0.014421 -0.032547
-0.005225 -0.004877 -0.045374
-0.027310 -0.015306 0.047297
0.014081 0.013577 -0.021000
-0.031169 -0.020673 0.033783
-0.007625 0.000827 0.045500
0.019899 -0.005744 -0.047763
0.011639 0.020034 -0.045426
0.018331 -0.016714 0.029356
0.016999 0.013252 0.046154
0.006600 0.024718 0.043840
0.015948 -0.022904 0.033519
0.031918 -0.023156 0.008333
-0.017789 0.024191 -0.045406
-0.017099 -0.005824 0.046854
-0.001333 0.000777 0.048201
-0.016347 0.025164 -0.044297
0.007818 0.010981 0.046197
0.019192 0.010713 0.000000
0.028828 -0.013641 0.007639
0.001926 -0.023486 0.050098
0.016366 -0.013950 -0.010049
0.027449 -0.013981 0.016529
-0.013780 0.018372 0.048363
-0.026480 0.011157 0.000183
0.022212 -0.018662 0.029053
0.020364 -0.024173 0.028528
0.021699 0.004247 -0.031138
0.021124 -0.005219 0.032555
-0.005657 0.019879 0.048392
-0.000367 0.002123 -0.044638
-0.006705 -0.011664 -0.051023
-0.027907 0.016961 0.031657
0.006346 0.021676 0.046776
0.017506 0.011668 -0.042567
0.029038 -0.022622 0.019698
0.013359 -0.021167 -0.035148
0.014817 -0.015163 -0.033600
0.005143 -0.024559 0.036956
0.002581 0.009577 -0.021000
0.011254 0.002806 -0.050814
0.030459 -0.022857 -0.007079
-0.025731 0.013612 0.043085
0.031869 -0.021946 -0.001355
0.018607 0.013614 0.037927
0.007573 0.023673 0.044663
-0.016266 0.022594 0.045836
0.012480 -0.016795 0.046826
0.020530 -0.007455 0.032790
0.024320 -0.010772 -0.024958
0.025672 -0.013911 -0.020752
0.008792 0.025504 -0.000750
0.006503 0.020061 0.046713
-0.028456 -0.015416 0.038033
0.008232 -0.023903 0.036372
-0.028155 -0.024173 0.024330
0.000965 0.019077 0.049074
-0.031170 -0.008827 0.039558
-0.015452 0.019726 -0.043431
0.004148 0.018980 -0.048561
0.030257 -0.020343 0.000000
0.006228 0.019978 -0.047026
0.017005 -0.015224 0.034359
0.031880 -0.023157 -0.009063
0.018946 0.013092 -0.035058
0.022009 0.005495 -0.016262
-0.015188 0.009832 -0.045208
0.006220 0.025071 0.045054
0.022101 -0.014940 0.028937
-0.020549 -0.024173 -0.036494
-0.027209 -0.020673 -0.023479
-0.017904 0.024094 0.044753
0.002014 -0.019048 -0.047610
-0.027951 -0.015177 -0.036280
0.019909 -0.004206 0.032074
-0.016061 0.020326 -0.046932
0.026390 -0.004134 -0.004492
-0.018605 0.026010 0.029836
0.018330 0.012648 0.000000
-0.030668 -0.015148 -0.032917
-0.017169 0.015742 0.046000
0.014620 -0.017046 0.047022
-0.005669 0.009608 -0.047842
0.010620 0.005464 -0.046777
0.027982 -0.013862 0.014536
-0.016140 0.020454 0.046911
0.030069 -0.014073 -0.012404
-0.002419 0.018577 0.042500
0.014937 -0.017504 -0.036317
0.006285 0.023066 0.046196
0.030277 -0.020341 0.004316
-0.020327 -0.024173 0.036532
-0.017789 0.024191 -0.045406
0.019658 0.015496 0.035597
-0.014419 0.021077 -0.023750
-0.032528 0.003952 -0.045377
-0.017169 0.011412 0.046000
-0.005669 -0.026061 -0.048318
0.030527 -0.022541 0.004309
0.030599 -0.023420 -0.006577
-0.031191 0.010733 -0.034786
0.029690 -0.016998 0.006769
-0.028145 -0.008029 -0.045318
0.018750 0.013259 0.036865
-0.018771 0.002321 -0.045998
-0.015603 0.019920 0.047248
0.010936 -0.023840 -0.035199
0.029898 -0.022456 -0.006168
0.030602 -0.023400 -0.005948
-0.016427 0.020707 -0.042773
0.020396 -0.004712 0.025215
0.020024 -0.003589 0.032006
0.019899 -0.005744 -0.047763
-0.025676 -0.001286 -0.046209
0.029821 -0.017966 -0.005689
0.009859 -0.016330 -0.046604
-0.000743 0.019825 0.047974
0.000319 0.012455 0.048488
0.023403 -0.014517 0.024735
-0.006843 0.019825 0.048228
-0.016348 0.020347 0.042960
0.021024 0.005135 -0.045260
-0.009844 0.021077 -0.023750
0.005471 0.025543 -0.043775
-0.027028 -0.015897 -0.045448
-0.005669 0.019725 0.044408
-0.025111 -0.020238 0.037037
-0.018792 -0.009802 -0.048382
0.029775 -0.015775 -0.011430
-0.017911 0.024881 0.043385
-0.018428 0.022925 -0.041318
-0.017384 0.019931 -0.047634
0.018803 0.015553 0.030309
-0.011094 0.021077 -0.039429
-0.017266 0.024758 0.026756
0.007292 0.025668 -0.000750
-0.028234 -0.015431 -0.038306
0.020849 0.005171 0.045994
0.016218 0.016912 -0.040088
0.007081 0.020577 0.042500
-0.027664 0.012924 0.017732
-0.006990 -0.004735 0.045359
-0.028144 -0.001428 -0.045232
0.007331 0.024490 0.000000
-0.030763 0.010413 -0.045459
-0.015603 0.019920 -0.047248
0.022731 -0.022140 0.006425
0.006562 0.023561 -0.045088
0.002149 -0.024184 -0.049707
0.012859 -0.016825 -0.049381
0.006419 0.024494 -0.045390
0.031800 -0.020463 -0.002426
-0.006990 -0.004735 0.045359
-0.014755 0.016678 -0.042500
0.006161 -0.024025 -0.038345
0.000856 0.013054 0.045095
-0.016198 0.021023 -0.047155
0.024524 -0.001292 0.004504
-0.017728 0.026455 -0.019723
-0.022352 -0.002142 0.051334
0.022454 0.003521 0.000000
0.030474 -0.022784 -0.006036
0.022364 0.000521 -0.017840
0.027148 -0.014546 -0.021431
0.014436 0.017328 -0.030534
0.016698 0.016350 -0.040360
0.021089 -0.001596 -0.046686
0.031880 -0.023157 -0.009063
-0.008919 0.020577 -0.042500
0.002010 0.021077 -0.010325
-0.017420 0.020152 0.047598
-0.018741 0.024987 -0.029750
-0.017887 0.012526 0.046035
-0.031191 0.010733 0.034786
-0.001308 0.008917 0.044473
-0.012441 -0.025213 0.048279
0.030393 -0.013643 -0.007527
0.018681 0.013746 0.030315
0.031860 -0.020575 -0.002101
0.020896 0.000365 0.016325
-0.009030 -0.001778 0.048470
-0.015278 0.019842 -0.047349
-0.000137 -0.024777 -0.049769
-0.007685 0.004772 -0.047781
-0.010209 0.013058 -0.044869
0.015077 -0.019449 0.034499
0.015252 0.019712 -0.000750
0.004065 0.018468 -0.048083
0.018892 0.013128 -0.035654
-0.017751 0.025408 -0.044751
0.021758 -0.000627 0.032072
-0.017265 0.019355 0.047269
0.018623 0.012601 -0.044524
0.030201 -0.013592 -0.010494
0.023961 -0.024064 -0.025569
-0.009945 -0.002877 -0.045164
0.027528 -0.010584 0.011376
-0.009719 0.019879 -0.048211
0.018215 0.018281 -0.034569
-0.000423 0.018391 -0.048787
0.031438 -0.018331 0.007500
0.010686 0.005956 -0.050483
-0.017661 0.024510 0.045483
-0.026776 -0.020673 -0.023517
-0.028896 0.014607 -0.044327
0.018331 -0.015673 -0.009500
-0.017859 0.025816 0.043715
-0.012744 0.015218 0.001429
0.007331 0.025626 0.000000
0.011260 0.000176 0.047333
-0.009781 0.018812 0.049274
-0.017345 -0.024222 0.036038
0.000554 -0.006333 -0.046076
0.005790 -0.011257 -0.052292
0.029267 -0.017791 -0.007129
0.006697 0.024749 -0.043323
0.030297 -0.022688 -0.007102
-0.016481 -0.024559 -0.036956
-0.005669 0.013865 0.044784
0.015128 0.018752 -0.031918
-0.017070 -0.011585 0.048569
0.029987 -0.020704 0.006019
0.015828 0.017483 -0.039249
-0.017600 0.024868 0.020392
-0.005668 0.019840 -0.048322
0.031139 -0.016915 0.000000
0.007263 -0.001887 0.046440
-0.001494 0.021077 0.023750
0.006672 -0.003916 0.046653
0.030242 -0.022626 0.006241
0.017965 -0.010108 0.032745
-0.002697 0.009505 0.044411
0.017888 0.017112 0.030293
0.014282 -0.015237 -0.049211
0.006671 0.024629 0.043930
0.029699 -0.017034 0.004327
0.014590 -0.017077 0.047038
0.004997 0.025356 -0.044546
0.004924 0.020186 0.043054
0.019271 -0.011000 -0.031341
-0.025674 -0.004616 -0.046318
0.019191 0.012729 -0.030302
-0.014215 -0.025364 -0.037893
0.030413 -0.021483 -0.002243
-0.026146 -0.017989 -0.038052
-0.010971 0.002123 -0.044638
0.030243 -0.022638 -0.006283
-0.008774 -0.015659 0.048997
0.017559 0.012143 -0.035730
0.006471 0.024034 0.045030
-0.012555 -0.009722 0.050819
0.002414 -0.002038 -0.049067
-0.019960 -0.024039 0.036680
0.012269 -0.016995 0.046986
0.019851 0.014606 -0.034435
0.019091 0.012646 -0.033037
0.021788 0.007496 0.000000
0.031350 -0.018333 -0.009817
0.027805 -0.010562 0.006552
0.000319 0.012455 0.048488
0.006526 0.022146 0.045765
-0.031640 0.008324 0.044946
0.018569 0.010427 -0.030571
0.016580 -0.015567 0.035345
0.020208 -0.004050 0.025059
-0.008234 0.005457 0.044288
-0.022718 -0.006173 -0.042500
0.017559 0.012116 -0.036053
-0.017645 0.026000 0.043401
-0.004973 0.005210 0.047735
0.018590 -0.007329 -0.044669
0.020197 -0.023349 -0.030438
-0.028205 0.013618 0.033529
0.006520 0.024477 0.044466
-0.000682 0.002949 -0.044551
0.015666 -0.013393 0.049013
0.030584 -0.023196 0.006366
0.014840 -0.015699 0.043427
0.026254 -0.007499 0.011166
0.022320 0.000049 0.019269
0.028947 -0.013709 -0.016693
0.004157 0.018981 -0.048550
0.018149 -0.009581 -0.033013
0.026501 -0.022686 -0.023831
0.018052 -0.010152 0.030254
-0.024214 0.019656 -0.045086
0.013509 -0.023432 -0.034546
0.014802 -0.015708 0.048813
0.018149 -0.009581 -0.033013
-0.001130 -0.025669 0.048324
-0.018356 0.026260 0.029828
-0.012636 -0.025814 0.038174
-0.025714 0.010606 0.044028
0.006498 0.023975 -0.044946
0.029334 -0.017763 -0.006386
0.019895 0.011003 -0.030850
-0.027943 0.014053 0.033711
-0.029304 -0.015388 0.037499
-0.027518 0.016414 -0.044847
0.016433 0.014626 -0.029850
-0.017343 0.020205 -0.047628
-0.001919 0.018577 0.042500
0.028971 -0.014111 -0.007225
0.020038 0.014028 -0.030343
0.029647 -0.020749 0.006119
-0.019276 0.025215 -0.018146
0.022454 0.003521 0.000000
0.007662 0.008812 0.042500
0.019800 0.013056 0.000000
-0.015892 0.018417 -0.047929
0.021125 -0.005219 -0.032555
0.017520 0.018837 0.032917
0.019515 0.013420 0.030343
0.015054 0.019750 -0.000750
0.017208 0.013936 -0.022464
0.021685 -0.002544 -0.031852
-0.025527 0.020508 0.018000
-0.005669 0.013923 -0.048333
0.016972 0.012904 0.030343
0.022731 -0.018298 -0.006333
-0.027862 -0.015269 -0.036277
0.003266 0.015597 -0.049470
-0.005669 0.013923 -0.048333
0.017022 0.012877 0.030653
0.030544 -0.022076 0.003540
0.015077 -0.019449 0.034499
-0.023005 0.021474 0.043649
0.003244 -0.013460 -0.048766
-0.015261 0.020139 0.047757
-0.019704 0.024800 0.021822
0.026035 -0.014378 0.023396
0.004259 0.019950 0.047308
0.015471 -0.016125 -0.045990
0.023235 -0.000005 0.014431
0.015690 -0.015897 0.045448
-0.017385 0.019932 0.047633
-0.010662 0.019879 -0.048119
-0.017596 0.020674 0.047318
0.008831 0.026439 0.000000
-0.026776 -0.015126 0.032483
0.005047 0.019280 -0.048268
-0.023866 0.022042 -0.018000
-0.019276 0.023467 0.018146
-0.022024 0.005956 0.050483
0.015488 0.018243 -0.036343
-0.002564 -0.015659 -0.048997
0.020468 -0.008253 -0.029395
0.018170 0.013904 0.039620
0.018894 -0.010436 0.046810
-0.016529 0.018535 0.047708
0.006590 0.020706 0.046396
0.015675 0.017712 -0.038739
-0.002098 0.003402 0.047925
0.016166 0.016959 0.040166
0.026617 -0.023734 0.022903
0.014392 -0.017285 0.047145
0.020203 0.003250 -0.031665
0.030782 -0.022513 0.003973
-0.017875 0.025845 -0.043418
-0.017391 0.019528 -0.047162
0.021591 -0.004605 0.026225
-0.011777 -0.014823 -0.048909
-0.003974 -0.000151 0.045500
0.018571 -0.007740 0.048408
-0.031169 -0.020673 -0.033783
0.019429 0.012254 -0.030295
0.019975 0.007295 0.046388
0.018228 0.013854 0.039313
0.017689 0.014763 -0.040270
0.016331 -0.024173 0.007500
0.030356 -0.013534 -0.007758
0.005732 0.023647 -0.041238
0.020416 -0.022820 0.030453
0.029093 -0.017894 -0.006228
0.009573 0.017680 0.042500
0.007970 0.022778 0.045131
0.009573 0.017680 0.042500
-0.030110 -0.009087 -0.048115
0.031751 -0.020092 0.000044
-0.005669 0.000931 -0.047994
-0.005669 -0.026074 -0.048363
0.004475 0.018503 -0.047980
0.023356 0.000019 0.012461
0.017750 -0.012259 0.047781
0.015506 0.019468 -0.015555
0.017662 -0.010909 -0.030756
0.031910 -0.023349 -0.005919
0.010172 -0.005120 0.047890
0.015012 0.020410 -0.000750
-0.010700 -0.023882 0.048105
0.024727 -0.004562 -0.010914
-0.017844 0.025738 -0.044003
0.020571 0.016091 0.030343
-0.008392 0.018577 0.019854
-0.011401 -0.005425 0.049422
0.010060 -0.020203 0.049287
-0.013919 0.009577 -0.042500
0.032092 -0.023061 0.005421
0.018736 0.014858 0.016794
-0.025714 0.010554 0.044042
-0.008386 0.017485 -0.045514
0.000581 0.021077 -0.021000
-0.010695 0.018283 -0.048840
0.007048 -0.023859 -0.037357
0.027499 -0.013969 0.016341
0.020416 -0.022820 0.030453
0.029443 -0.015916 0.000000
0.014608 -0.014729 -0.045483
0.031350 -0.018333 0.009817
0.017331 0.013082 -0.030350
-0.005669 0.002783 0.045500
0.022797 -0.022177 -0.006815
0.026665 -0.013876 -0.018587
-0.001749 0.002801 0.047988
-0.022666 -0.023668 0.036437
-0.028607 -0.010706 -0.048725
0.013910 -0.015598 -0.045578
0.032062 -0.022939 -0.007013
-0.000688 0.019163 0.049229
0.014581 -0.013908 -0.009250
0.021370 -0.004482 0.032064
0.001406 0.015218 0.010929
-0.017623 0.020131 0.046942
-0.004185 0.013061 0.044694
-0.017593 0.006366 0.045573
0.031466 -0.022537 -0.003999
0.000464 0.016993 0.049323
0.030195 -0.022386 -0.006024
-0.027983 -0.015443 0.040473
0.024561 -0.013945 0.022779
-0.026951 -0.015996 0.045421
-0.022919 -0.006923 0.021000
0.017872 0.011898 -0.030756
-0.023208 -0.020673 -0.025864
-0.015906 0.020107 0.047050
0.006498 0.023974 0.044947
0.032014 -0.022064 -0.004781
0.017872 0.011898 -0.030756
-0.000839 0.020139 -0.048414
0.021741 -0.016553 -0.026281
0.005762 -0.005824 -0.046854
-0.017547 0.024969 -0.045250
0.003970 0.019769 -0.045158
-0.022268 -0.002516 0.047616
0.008667 0.026636 -0.000750
-0.000045 -0.025282 -0.049113
0.016164 0.017692 0.000000
-0.013542 0.015774 0.045694
0.019756 0.006625 -0.030939
0.002037 -0.025601 0.038039
-0.028896 0.014607 0.044327
-0.022093 0.021540 -0.018000
-0.019083 0.022514 0.041363
-0.012156 -0.025917 0.038217
0.017901 -0.023799 0.031726
0.028982 -0.014314 0.016998
0.020374 -0.003271 0.024150
0.025899 -0.010696 -0.018242
-0.010269 0.021077 -0.028500
0.027148 -0.014546 -0.021431
0.018937 0.013316 0.035903
0.018331 -0.015673 0.009500
0.031191 -0.016905 0.007078
0.020202 0.003257 0.031664
0.016285 0.016882 -0.040013
-0.017701 0.020784 -0.047068
0.032014 -0.022064 0.004781
0.011169 0.002408 -0.047098
0.012666 0.018630 -0.041793
0.006042 -0.024098 0.038043
0.019814 -0.007764 0.027630
-0.012920 0.018887 -0.048966
-0.015898 0.014783 0.049555
0.004276 0.019953 0.047302
0.011416 -0.015996 0.046244
0.015481 0.017342 -0.044752
0.018331 -0.024173 0.009500
-0.010490 0.021077 -0.027675
0.019974 -0.009493 0.030316
0.007323 0.025039 0.029971
-0.028899 0.014603 -0.044327
0.016091 -0.013390 -0.033414
-0.001361 0.001471 -0.048128
-0.027677 -0.020673 -0.023315
-0.017701 0.020784 -0.047068
0.029987 -0.020704 0.006019
-0.017014 0.019403 0.047859
0.019426 0.012255 -0.030356
-0.025838 -0.015388 0.037489
0.023081 -0.018155 0.007173
0.013264 0.017010 -0.037520
0.003838 0.019825 -0.047290
-0.018781 -0.022702 0.048032
0.019537 -0.024173 0.028394
0.006671 0.024629 -0.043930
0.029689 -0.018417 -0.017283
0.021869 -0.000497 -0.012364
0.022032 -0.014000 0.026538
0.032020 -0.022543 -0.007500
0.028632 -0.010398 0.013994
-0.006113 -0.004877 -0.045374
-0.006364 -0.007559 -0.049647
-0.007249 -0.000337 0.044640
0.007081 0.020577 0.042500
-0.003391 -0.025955 -0.048352
0.029883 -0.022422 0.006148
0.008783 0.025281 -0.003276
-0.005420 -0.024379 -0.048157
0.006159 0.020322 -0.047500
0.000581 0.021077 -0.007850
0.020651 -0.001487 -0.047314
0.018875 0.012948 -0.035670
0.018626 0.018549 -0.032476
0.014120 0.017015 -0.041972
-0.011034 0.016836 0.045582
0.017650 -0.015167 0.033277
-0.007585 0.000361 0.044570
0.017513 0.017128 0.030376
-0.026169 0.013924 0.018000
-0.017640 0.024829 -0.045324
-0.013714 0.019879 -0.047700
-0.019099 0.025255 0.020696
0.017293 0.015315 0.040651
0.019605 -0.008229 -0.047367
0.011398 -0.022778 0.035638
-0.005669 -0.024621 -0.050221
-0.017879 0.025722 0.043699
0.006525 0.024840 -0.044002
-0.000281 -0.024057 0.050160
-0.016099 0.018356 -0.047885
-0.017669 0.025465 0.044763
-0.001393 -0.002877 -0.045164
-0.028445 0.013158 0.033854
0.013421 0.019909 -0.000322
0.005762 -0.005824 -0.046854
-0.030256 -0.020673 0.030920
0.019339 -0.024173 0.029410
0.005216 0.019366 -0.048191
0.032061 -0.021676 -0.004126
0.031839 -0.020375 0.001098
-0.018007 0.026053 0.038882
-0.010030 0.008917 0.044473
0.018578 -0.014211 -0.032311
0.017201 -0.011527 -0.033218
-0.001922 0.020139 -0.048563
0.019975 0.007295 0.046388
0.006625 0.024805 -0.043320
-0.020856 0.022439 0.044793
0.017559 0.012143 -0.035730
0.015375 0.011987 -0.035174
-0.002098 0.003402 0.047925
0.003970 0.019769 0.045158
0.028661 -0.013625 -0.010353
0.006217 0.024997 0.045117
0.002055 0.005954 0.044784
0.016270 0.016480 0.026909
0.032106 -0.023432 0.006310
-0.016276 0.019031 0.048294
0.015157 0.019254 -0.022340
-0.002124 0.019725 -0.044285
-0.019612 0.010426 0.046256
0.028937 -0.012815 0.007500
-0.018034 0.024750 -0.043323
-0.010490 0.021077 -0.000825
0.018450 0.013634 0.038482
0.027528 -0.010584 -0.011376
-0.017573 0.025480 0.044770
0.019660 0.016717 -0.034643
-0.018109 -0.021446 -0.049878
0.017905 0.016862 0.038206
0.020577 0.007308 -0.045046
-0.001069 0.021077 0.038000
0.021075 0.009342 0.016126
0.017517 0.017122 0.029850
-0.021906 0.021696 0.018000
0.004970 0.025001 -0.045057
0.032810 -0.022005 0.002250
-0.016077 0.019162 0.048387
-0.022491 -0.000695 0.047424
0.005177 0.018515 0.047721
0.015176 0.020286 -0.000952
0.006170 -0.024173 0.035500
0.016560 0.016471 0.040365
-0.016117 0.018978 -0.048353
0.019229 0.008575 0.030748
0.031357 -0.021918 -0.001435
0.006228 0.019978 -0.047026
-0.002081 -0.025860 -0.048313
0.013914 0.020568 -0.022274
0.017097 -0.015042 0.031610
0.031121 -0.024030 0.007500
-0.025678 -0.009320 0.046122
0.001406 0.021077 0.036571
-0.019254 -0.022486 0.047958
0.019431 -0.006195 0.032295
0.019154 0.007900 0.046729
-0.007617 0.000809 0.044525
0.030623 -0.014456 -0.007093
-0.018605 0.026010 0.029836
0.020451 0.006620 0.000000
-0.016402 0.026005 -0.043259
-0.028155 -0.024173 -0.024330
0.004963 0.020769 0.045184
0.003624 0.009985 -0.048747
-0.006843 0.019825 0.048228
0.016230 0.016938 0.030350
-0.018781 -0.022702 -0.048032
-0.007174 0.009865 0.044373
0.026492 -0.024058 -0.022224
0.018180 0.013005 -0.030343
0.019681 -0.024073 0.029827
0.005349 0.018598 0.047645
0.017637 -0.015167 -0.033270
0.003596 -0.022900 0.050035
0.020570 -0.018697 0.030645
-0.007585 0.000361 0.044570
0.005581 0.000827 0.042500
-0.017884 0.024776 0.043912
0.006956 -0.001455 0.049950
0.025462 -0.002694 0.008798
-0.000959 -0.024171 0.050172
-0.025684 0.002569 -0.045789
-0.017343 0.020205 0.047628
0.004565 0.020423 -0.047499
0.009246 0.012327 0.046000
0.018922 0.012775 0.035692
-0.003062 0.004401 0.047820
-0.002585 -0.011333 0.050988
0.013920 0.020575 0.022031
0.006956 -0.001455 -0.049950
0.006721 -0.023921 -0.037581
0.029002 -0.013949 0.016711
0.007287 -0.020833 -0.047785
0.004149 0.019164 0.048507
-0.000712 0.018591 0.048907
-0.019347 0.025156 -0.018122
0.006658 0.023896 -0.044844
0.023742 -0.014482 0.024247
0.018165 0.012553 -0.015866
0.002499 0.019840 -0.047609
-0.028521 0.015998 0.032957
-0.017244 0.019423 -0.047353
-0.001494 0.021077 -0.020620
0.032014 -0.022064 -0.004781
0.015298 0.018690 0.030343
0.022410 -0.014797 -0.026215
0.003866 0.019879 -0.047437
-0.029301 -0.017355 -0.037015
0.030582 -0.023196 0.006576
-0.005669 -0.025358 0.049831
0.018224 0.013957 -0.039249
0.006251 0.021716 0.046854
-0.022231 -0.019564 -0.049219
-0.009744 -0.015197 0.052706
0.006256 0.006366 0.045573
0.013371 -0.023827 -0.034241
-0.027322 -0.013280 -0.000050
0.000581 0.021077 -0.021000
0.017000 0.012570 -0.030685
-0.005669 -0.025873 -0.049173
-0.016218 0.020793 0.046711
-0.000660 0.018980 0.049280
0.031350 -0.018333 -0.009817
0.014863 -0.022924 -0.034066
0.030544 -0.022076 -0.003540
0.025943 -0.007526 -0.013425
0.005068 0.020528 0.042863
-0.009419 0.021077 -0.041075
0.018736 0.014858 0.016794
-0.016919 0.000827 0.021000
-0.017648 0.018315 -0.042500
-0.011034 0.016836 0.045582
0.030186 -0.022348 0.006016
0.002231 0.015218 0.019000
0.017002 0.019060 -0.030343
-0.018543 0.000593 -0.049734
-0.009836 0.002152 0.048057
-0.017648 0.018315 0.021000
0.022454 0.003521 0.000000
0.010641 0.022095 0.044266
0.006323 0.024541 -0.045464
-0.015084 -0.018291 0.047530
0.031832 -0.020303 0.000043
0.018803 0.015553 -0.030309
0.016352 0.015548 0.026381
-0.021589 -0.004760 0.051609
0.002510 0.019840 0.047607
-0.000423 0.018391 0.048787
-0.011919 0.021077 -0.007850
0.016528 0.018880 -0.032312
0.030599 -0.023420 0.006577
0.032027 -0.021089 0.003096
0.026697 -0.014109 -0.018602
0.031456 -0.021831 0.000000
0.017307 0.015346 0.040565
0.004146 0.018981 0.048553
-0.021958 0.005464 -0.046777
-0.029722 -0.011476 -0.046914
0.008792 0.025504 -0.000750
0.031936 -0.021542 0.004429
0.031139 -0.016915 0.000000
-0.007852 -0.024288 -0.048148
0.012850 0.019562 -0.021228
-0.018419 0.016077 0.046000
0.031730 -0.019943 0.007064
-0.005962 0.018518 -0.049130
-0.017508 -0.024173 -0.035500
-0.005669 0.013923 0.048333
0.020677 0.003037 -0.046837
-0.009419 0.021077 0.020454
0.027805 -0.010562 0.004348
-0.008802 -0.025926 0.048320
-0.005669 -0.015995 0.049033
-0.029873 -0.008023 0.039413
0.022444 0.001104 -0.014121
-0.003652 0.004772 0.047781
-0.021553 0.020816 -0.041551
0.005002 0.025382 -0.044452
-0.026180 -0.014524 0.049135
0.019376 -0.006034 -0.032640
-0.030256 -0.015141 -0.032787
-0.015614 0.019954 0.047302
0.004579 0.020126 0.047088
0.006197 0.024558 0.045487
0.024935 -0.014348 0.022275
0.005177 0.018515 -0.047721
0.018049 -0.015078 0.032771
0.005972 0.006602 -0.049103
0.006657 0.003128 0.042500
0.031438 -0.018331 0.007500
-0.019213 0.025123 0.020701
0.029699 -0.017034 0.004327
-0.000635 0.019879 0.048114
0.015357 0.018135 0.037736
0.001406 0.021077 0.027071
0.004970 0.025001 0.045057
-0.006831 -0.000731 0.044680
-0.001418 0.000088 -0.048273
0.001406 0.015218 0.027071
0.016697 0.016351 0.040359
-0.001494 0.021077 0.023750
0.019206 0.013512 -0.030586
0.010831 -0.005624 0.042500
0.021097 -0.006422 -0.027913
0.010828 0.023451 0.000000
0.006561 0.024972 -0.043320
0.018775 -0.011722 -0.033238
-0.006424 -0.008650 0.046319
-0.000848 0.015218 -0.010325
-0.017816 0.024215 0.044887
0.024760 -0.013983 -0.025325
-0.027180 -0.015767 -0.044718
0.029443 -0.015916 0.000000
-0.004746 0.017184 -0.038454
0.018639 0.014659 -0.023758
0.018525 0.014726 0.030319
0.001926 -0.023486 0.050098
0.006595 0.024680 0.043945
0.030796 -0.024047 -0.011403
-0.018671 0.025043 0.029747
0.030385 -0.013575 -0.004457
-0.019083 0.022514 0.041363
-0.011919 0.021077 -0.020650
0.028877 -0.013761 -0.004337
0.019220 0.013150 0.030624
-0.015485 0.018982 0.048559
0.021862 -0.000564 0.031639
0.031997 -0.020457 0.000042
0.011092 0.020104 -0.041630
0.017097 -0.015216 -0.034204
0.004144 0.018918 -0.048541
-0.027746 0.017725 -0.022417
-0.028030 -0.015395 -0.040463
0.028091 -0.013830 -0.013982
0.018537 -0.009105 0.029515
0.005581 -0.008673 -0.021000
-0.010481 0.018812 -0.049191
0.020292 -0.001580 0.031788
0.020159 -0.004250 -0.025268
-0.017508 -0.024173 -0.035500
-0.002562 0.017390 -0.045524
0.028971 -0.014111 -0.007225
0.007455 -0.009802 -0.048382
0.018623 0.012601 -0.044524
0.006212 0.019934 -0.047050
0.002969 0.000664 0.048782
0.030863 -0.022573 -0.015028
0.000979 0.018492 -0.048624
0.029821 -0.017966 -0.005689
-0.001494 0.021077 0.014250
0.019038 0.007528 0.043028
0.002414 -0.002038 -0.049067
0.005581 -0.008673 -0.021000
0.005490 -0.005299 0.050354
0.007941 -0.023683 0.036861
0.026013 -0.014211 -0.020205
0.015078 -0.019452 -0.034501
0.000581 0.021077 0.030150
0.008579 0.023065 -0.044727
0.030165 -0.022261 -0.006014
0.006707 0.004674 0.049305
-0.018543 0.000593 0.049734
-0.016311 0.025122 -0.045006
0.031868 -0.020650 -0.002362
-0.019083 0.022514 -0.041363
0.017872 0.011898 -0.030756
-0.005669 0.000931 0.047994
0.030544 -0.022076 0.003540
0.003221 0.015134 -0.045761
-0.017535 0.024535 -0.045502
0.030918 -0.021468 0.001214
-0.026146 -0.017989 -0.038052
0.021097 -0.002848 -0.046052
0.005762 -0.005824 0.046854
-0.011919 0.015218 -0.036350
-0.003712 0.000827 0.045500
0.018516 -0.012400 0.032220
-0.005669 0.017605 0.045469
-0.014139 -0.000709 -0.048927
-0.019280 0.025209 0.018144
0.018257 0.013032 0.030637
0.007323 0.025039 -0.029971
0.010686 0.005956 0.050483
-0.019156 0.010981 0.046197
0.020354 -0.008210 -0.032483
-0.018397 0.026474 0.018708
0.007455 -0.009802 -0.048382
-0.025565 0.018273 0.018000
-0.016181 0.019292 -0.048299
0.018809 0.013410 0.036845
0.022731 -0.022140 -0.006425
-0.021958 0.005464 0.046777
-0.004973 -0.007559 -0.049647
-0.001651 0.008623 -0.047946
0.007887 -0.008938 0.052048
0.003081 0.021077 0.042500
-0.028725 0.014583 0.045034
0.022927 -0.022183 0.007024
0.032041 -0.022688 0.007056
-0.006759 0.018980 -0.049537
0.030046 -0.013606 -0.011766
0.009477 0.008353 0.046473
0.004970 0.025001 0.045057
-0.012744 0.015218 -0.036571
-0.017801 0.022624 -0.045630
-0.010497 0.019163 0.049229
0.021608 -0.004533 0.026153
-0.022000 -0.022743 0.036803
-0.017748 0.021694 0.046190
0.004509 0.014324 0.045846
-0.001919 0.020577 0.042500
-0.013409 0.011353 -0.048603
0.013359 -0.021167 -0.035148
0.011581 -0.008673 0.042500
-0.016375 0.025370 -0.043761
0.017908 0.014539 -0.039920
-0.014419 0.021077 -0.041075
-0.032457 -0.002850 0.046053
0.018801 -0.008124 0.032515
-0.013752 -0.002038 0.049067
0.002010 0.015218 0.010325
0.021266 -0.023335 0.029528
-0.021670 0.023543 -0.022125
-0.024878 -0.015094 -0.031873
0.021990 -0.002586 -0.023905
-0.008919 0.018577 -0.042500
0.015680 -0.018785 -0.034227
-0.017652 0.020627 -0.047253
0.032070 -0.023012 -0.006868
-0.022507 0.002408 -0.047098
-0.027358 0.011156 0.000183
-0.011094 0.015218 -0.008071
0.028602 -0.022633 -0.020527
-0.020815 0.008353 0.046473
0.028097 -0.013805 0.013983
-0.006656 0.017098 -0.033519
0.002231 0.021077 -0.009500
0.018667 0.015144 -0.030315
-0.023790 0.019269 0.045507
0.005351 0.018599 -0.047644
-0.006479 0.017303 0.018000
-0.031336 0.003243 -0.047230
-0.017623 0.020131 0.046942
-0.015846 0.014324 -0.045846
0.020380 0.000050 0.031614
0.016433 0.014626 -0.030327
0.026979 -0.022674 0.023152
-0.001494 0.021077 0.033250
-0.016529 0.018535 0.047708
0.029691 -0.017298 0.006388
-0.006479 0.017303 0.018000
-0.015322 0.018812 -0.048498
-0.023884 -0.018127 -0.049068
0.005780 0.019505 -0.047792
-0.012744 0.015218 -0.029929
0.020946 0.000600 -0.014020
0.019768 0.009470 -0.045555
0.018937 0.013316 -0.035903
0.006108 0.021087 -0.047189
-0.009030 -0.001778 -0.048470
0.005762 -0.005824 -0.046854
0.017099 -0.011802 0.032946
0.012859 -0.016825 -0.049381
0.014532 -0.014835 -0.045494
0.018261 0.013758 0.039381
0.026430 -0.007483 0.008882
-0.018543 0.000593 0.049734
-0.005434 -0.026118 -0.048340
0.030502 -0.022227 0.005414
-0.021718 0.020694 0.041564
0.020374 -0.003271 -0.024150
0.006550 0.012526 -0.046035
0.015174 0.020300 -0.000750
0.030297 -0.022688 0.007102
-0.017047 0.013266 0.045957
0.028662 -0.023715 0.019508
-0.028615 -0.013418 0.047108
0.023316 -0.001466 0.018866
0.022303 -0.024173 0.026606
0.020263 -0.010871 0.028043
-0.021201 -0.016331 0.046601
0.017888 0.017112 0.030293
0.018761 -0.010284 -0.047578
0.016773 -0.022889 0.033009
0.017307 0.015346 0.040565
0.019952 0.010979 0.030476
0.016825 0.016156 0.040430
-0.005214 -0.001090 -0.044716
0.006346 0.021676 -0.046776
0.015253 0.019693 0.000000
0.031730 -0.019943 -0.007064
-0.011094 0.021077 -0.020429
0.024113 -0.001380 -0.014778
0.019149 0.012996 0.030640
0.022731 -0.018298 -0.006333
-0.020864 -0.006281 -0.051769
0.004333 0.018988 -0.048521
-0.025731 0.013612 0.043085
-0.012353 0.018273 0.048597
0.028053 -0.011240 0.000000
0.032052 -0.021511 0.003883
0.018578 -0.014211 0.032311
0.009638 0.008077 -0.046502
0.004410 -0.024837 -0.037369
0.004881 0.020797 0.046710
-0.004691 0.002521 0.045500
0.010372 0.021817 -0.044858
0.007266 -0.024122 -0.036460
-0.016368 0.024061 0.043893
-0.025419 0.013577 0.021000
-0.019046 0.026308 0.020788
0.030782 -0.022513 0.003973
0.029630 -0.023199 -0.018213
-0.008275 0.004401 0.047820
0.018257 0.013032 0.030637
-0.029951 0.009737 -0.035092
0.030479 -0.022844 0.006159
-0.028919 0.015364 0.033264
-0.020121 0.024717 -0.018000
-0.010030 0.008917 -0.044473
0.007988 0.023316 -0.021037
0.025672 -0.013911 0.020752
0.024760 -0.013983 0.025325
-0.016144 0.020041 -0.043147
0.019149 0.012996 -0.030640
0.012932 -0.018677 -0.047633
-0.017310 0.006602 0.049103
-0.025696 0.006372 0.045095
-0.011919 0.021077 -0.020650
-0.027903 0.016979 0.031447
-0.025714 0.010554 0.044042
-0.024320 -0.018703 0.047561
-0.017799 0.024218 0.019560
0.029888 -0.022433 0.006152
-0.016254 0.012327 0.046000
0.006503 0.020063 -0.046712
-0.005259 0.002761 0.044330
0.021894 0.001450 -0.031427
-0.016600 0.018875 0.047748
0.007886 0.011423 -0.049908
-0.007832 -0.004455 0.045329
-0.017804 0.024725 0.045125
0.008927 0.023474 0.043450
0.009411 -0.024066 -0.035402
-0.009576 -0.020117 -0.047722
0.005433 0.025395 -0.044479
0.020342 0.015942 -0.032477
0.024320 -0.010772 -0.024958
-0.025681 0.001655 0.045930
0.015828 0.017483 -0.039249
0.030323 -0.020658 -0.005418
0.017099 -0.011802 -0.032946
-0.000670 0.018812 -0.049188
-0.028205 0.013618 0.033529
-0.018671 0.025043 0.029747
0.022251 -0.000634 0.020820
0.001003 -0.025296 -0.048254
-0.006647 -0.000867 0.045500
-0.002078 -0.025878 0.048315
-0.016700 0.018606 0.047638
-0.007625 0.000827 0.045500
-0.018741 0.024987 0.029750
-0.011094 0.015218 -0.017571
-0.004691 -0.000867 0.045500
0.012188 0.022131 -0.022196
-0.017804 0.024707 -0.045136
0.023426 -0.014045 0.027211
-0.016833 0.018942 -0.047556
0.016972 0.012904 -0.030343
-0.000304 0.016836 0.045582
0.005177 0.018515 0.047721
0.026885 -0.023248 0.023088
-0.018419 0.020577 -0.042500
0.016419 0.016595 -0.040466
0.018903 0.011674 0.045330
0.031766 -0.020259 -0.007063
-0.005669 0.017704 -0.045491
0.007970 0.022778 0.045131
-0.018830 0.026433 0.020779
-0.016198 0.021023 0.047155
-0.016290 0.024595 -0.045409
0.006161 -0.024025 0.038345
0.007292 0.025668 -0.000750
0.005014 0.018670 -0.047788
0.006665 0.023540 -0.045050
0.024561 -0.013945 -0.022779
0.015923 0.017437 -0.039189
0.000471 -0.014511 -0.052634
0.006204 0.020457 -0.047428
-0.008802 -0.025926 0.048320
0.004063 0.018253 0.048081
0.032087 -0.023146 0.005553
-0.018398 0.023938 0.018708
0.015597 0.015827 0.030343
-0.028155 -0.024173 -0.024330
0.010702 0.005878 -0.050491
0.022143 -0.001546 -0.022415
0.021261 -0.004662 0.032496
0.019395 0.017834 0.033050
-0.018061 0.024104 0.019066
-0.000651 0.019825 0.047966
0.014120 0.017015 -0.041972
-0.005669 0.018179 -0.049198
0.015751 0.017552 -0.039315
0.012744 0.017691 -0.021000
0.020848 -0.000014 0.018005
0.013910 -0.015598 -0.045578
-0.009030 -0.001778 -0.048470
0.009581 0.013577 0.046000
-0.026482 -0.012905 0.000050
0.000319 0.012455 -0.048488
0.015748 -0.014725 -0.032611
0.006564 0.023926 -0.044881
-0.019699 0.024792 -0.022063
-0.000367 0.002123 0.044638
0.003763 -0.025071 0.037641
0.010574 -0.003742 -0.047745
-0.003205 0.018515 0.049059
-0.000848 0.021077 0.019825
0.020882 0.000272 -0.016914
-0.002562 0.017390 -0.045524
0.006346 0.021020 -0.047062
0.001148 -0.025852 0.038193
0.019839 0.002841 0.043548
0.006376 0.025380 -0.044471
-0.009844 0.021077 0.020620
0.016923 -0.015152 -0.033617
0.016739 -0.015357 -0.035231
0.020039 0.003031 -0.047253
-0.032801 0.004036 -0.036715
0.009845 0.022833 0.043514
-0.005669 -0.020477 0.047760
0.030605 -0.023471 -0.006310
-0.003652 0.004772 0.047781
0.003081 0.021077 0.041075
-0.014930 -0.022892 0.050034
-0.015481 0.019079 -0.048552
0.019361 0.007194 -0.046805
0.020779 -0.000615 -0.019769
0.016895 0.015917 0.040674
0.013220 0.016944 -0.039739
-0.027649 -0.016191 0.038223
-0.013569 0.021077 -0.009500
-0.026939 -0.024173 -0.030630
-0.018419 0.011077 -0.046000
0.016331 -0.013816 -0.007500
0.016258 0.017039 0.039743
0.006438 -0.023232 -0.048084
-0.009576 -0.020117 0.047722
0.019339 -0.024173 0.029410
0.016544 -0.015922 0.034573
-0.005669 0.000931 -0.047994
0.014081 -0.008673 0.042500
0.030282 -0.024048 -0.013820
-0.031273 -0.007260 -0.047267
-0.017014 0.019403 0.047859
0.024935 -0.014348 0.022275
0.002072 0.011353 0.048603
-0.017758 0.024236 0.019637
0.017009 -0.018763 -0.033408
-0.003586 0.019163 0.049448
0.007347 -0.023418 -0.038280
0.018520 0.014223 0.030319
0.016095 0.017092 0.039877
0.006489 0.020727 -0.046436
-0.019403 0.025126 0.018104
0.010931 -0.002516 -0.047616
0.025153 -0.014729 0.024918
-0.017537 0.019390 0.047090
0.006215 0.020183 -0.047379
0.014940 -0.017507 0.036320
0.005566 -0.011757 -0.048587
-0.025959 0.017133 0.030007
0.021894 0.001450 -0.031427
-0.006969 0.002290 0.044377
0.028119 -0.013775 0.019033
0.021665 -0.010906 -0.028742
0.011234 0.003286 -0.050764
-0.016135 0.020448 -0.046916
0.004579 0.020126 -0.047088
0.011044 -0.018110 0.047489
-0.017751 0.020624 0.046576
-0.017995 0.003128 0.021000
-0.017722 0.020669 0.046672
-0.002945 0.018577 -0.019854
-0.031620 0.008384 -0.044940
-0.006550 0.002596 0.044347
0.030893 -0.022572 0.014984
0.017005 -0.015224 0.034359
0.007519 0.000210 -0.046219
0.008587 0.025251 0.007050
-0.001494 0.021077 0.023750
0.031751 -0.020092 -0.000044
0.030600 -0.023383 -0.005915
-0.011808 -0.014511 0.052634
-0.019355 0.024028 0.043395
0.010987 -0.022080 0.036140
0.003985 0.020140 0.047745
-0.008919 0.018577 -0.042500
-0.000665 0.019163 0.049228
-0.000045 -0.025282 -0.049113
-0.027494 -0.015469 -0.040606
-0.031941 0.008450 0.035479
0.021862 -0.000564 0.031639
0.005972 -0.024172 -0.037290
0.000975 0.019077 -0.049073
0.024476 -0.001327 0.000000
0.019932 0.001099 0.043741
-0.017717 0.020015 -0.046789
0.018534 0.013747 -0.038287
0.030470 -0.022740 0.005977
-0.014419 0.021077 -0.033250
0.030297 -0.022688 0.007102
-0.016137 0.020432 0.046875
-0.026666 0.015913 -0.045868
0.014624 0.014029 -0.030343
-0.006479 0.017303 -0.045291
-0.027833 -0.015281 -0.036276
-0.016901 0.019616 -0.047996
0.019042 0.012849 0.033032
0.025213 -0.004329 -0.017544
0.020572 -0.002141 0.022591
-0.017720 0.021495 0.046724
0.018235 -0.009798 -0.030020
-0.010704 0.018591 -0.048906
-0.005962 0.018406 -0.049106
0.018875 0.012948 0.035670
-0.017894 0.025750 0.043417
0.028680 -0.024173 0.016837
0.030772 -0.021708 0.002398
-0.030886 0.010531 0.044728
0.016167 0.016958 -0.040167
-0.027651 0.012208 -0.017016
0.014166 0.015088 -0.030343
0.015115 0.018605 -0.034664
-0.028615 -0.013418 -0.047108
-0.009723 -0.015505 -0.048981
0.014032 0.017502 -0.035660
0.009750 -0.023299 -0.036134
0.030525 -0.024173 -0.007500
0.011169 0.002408 0.047098
-0.012161 -0.024555 -0.049746
-0.031469 0.001243 0.037427
0.005038 0.025543 0.043753
0.019974 -0.009493 -0.030316
-0.017627 0.025968 -0.043730
0.013995 0.017339 -0.039091
0.031616 -0.023672 0.007500
0.024935 -0.014348 -0.022275
0.000967 0.018274 0.048627
0.003106 -0.002657 0.045689
0.016237 0.016856 0.030387
-0.009713 0.019840 -0.048141
0.015481 0.017342 0.044752
0.018946 0.013092 0.035064
-0.004480 -0.025332 0.049828
0.017009 -0.018763 0.033408
-0.012555 -0.009722 -0.050819
0.029143 -0.017964 0.006169
0.014017 0.017509 -0.035842
-0.022000 -0.022743 0.036803
-0.011094 0.021077 0.010929
0.002497 0.019825 0.047529
0.015586 0.017791 -0.038797
-0.014448 -0.023868 -0.049673
0.013656 -0.017723 0.048341
0.023316 -0.001466 -0.018866
-0.029225 0.014851 0.033440
0.011169 0.002408 -0.047098
-0.027209 -0.020673 -0.023479
-0.017099 -0.005824 -0.046854
0.024152 -0.007640 -0.019904
-0.018419 0.016077 0.046000
0.016923 -0.015152 -0.033617
0.004579 0.020126 0.047088
0.030326 -0.013466 0.008153
-0.017652 0.020627 -0.047253
0.018578 -0.014211 0.032311
-0.011094 0.021077 -0.020429
0.030554 -0.023080 0.006986
0.015506 0.019468 -0.015555
0.019690 -0.024073 -0.029820
-0.027634 0.011924 -0.016035
0.024302 -0.001341 -0.012736
0.032070 -0.023012 -0.006868
-0.027180 -0.015767 -0.044718
-0.019143 0.025102 -0.022047
0.018973 -0.014039 0.029934
0.005010 0.018752 -0.047860
0.032112 -0.023037 0.005335
0.030796 -0.024047 -0.011403
0.008331 0.015742 0.046000
0.032855 -0.021940 0.001566
0.032103 -0.023365 -0.005966
-0.007585 0.000361 -0.044570
0.020075 0.016988 -0.032513
0.016170 0.017056 0.039806
0.018135 0.014088 -0.039483
0.016100 -0.014575 0.032357
0.010931 -0.002516 -0.047616
0.028986 -0.014161 0.007196
0.018331 -0.015673 0.009500
0.031378 -0.022665 0.004385
0.010839 -0.024005 0.034920
-0.022978 0.015078 -0.042500
-0.029225 0.014851 0.033440
0.028783 -0.014348 -0.017655
0.006611 0.012976 -0.049745
0.017901 -0.023799 0.031726
0.002635 0.003402 -0.048495
0.014889 0.019866 -0.000750
-0.000660 0.018980 0.049280
-0.028427 0.014699 -0.033353
0.021537 -0.002938 0.032315
-0.017787 0.026458 -0.019565
-0.001919 0.020577 0.042500
-0.012744 0.015218 -0.029929
0.018403 -0.008922 -0.032944
0.029676 -0.017296 0.007118
0.003106 -0.002657 -0.045689
-0.023889 -0.018122 0.049067
-0.016139 0.020443 0.046893
0.019091 0.012646 -0.033037
-0.009589 0.002801 -0.047988
-0.012437 0.007118 -0.044662
0.009285 0.024411 0.000000
-0.029727 -0.011466 -0.046913
-0.009836 0.002152 -0.048057
0.021107 -0.007740 0.025808
0.011234 0.003286 0.050764
-0.026776 -0.014656 -0.023517
0.018331 -0.015673 -0.009500
0.001406 0.015218 0.027071
-0.002419 0.020577 0.042500
-0.007913 -0.025981 -0.048354
0.000622 -0.023596 -0.048075
0.015804 0.019785 -0.000750
0.016238 0.016853 -0.029850
0.004428 0.009577 -0.021000
-0.000744 0.019725 0.044141
0.015515 0.018580 -0.031921
0.012473 0.020778 -0.043718
0.021185 0.006744 0.031297
-0.032051 -0.005083 0.046275
0.012646 -0.019760 -0.037292
0.018753 0.015348 -0.030219
0.016945 0.012600 -0.030343
0.003244 -0.013460 -0.048766
0.007433 -0.022685 0.048030
0.017551 0.012567 -0.030685
-0.016182 0.019292 0.048299
0.018973 -0.014039 -0.029934
-0.010971 0.002123 -0.044638
-0.017496 0.020051 0.047455
-0.016831 0.019681 0.047976
-0.030875 -0.009516 0.039676
0.031766 -0.020259 0.007063
0.017341 -0.024173 -0.030909
0.003266 0.015597 0.049470
-0.026549 -0.013155 0.000050
-0.017104 0.013719 -0.049667
-0.022682 0.000563 0.051050
0.031839 -0.020375 -0.001098
-0.013752 -0.002038 0.049067
0.029334 -0.017763 0.006386
0.016703 -0.014296 0.047196
-0.019278 0.025212 0.018145
0.019229 0.008575 0.030748
-0.018045 0.004674 0.049305
0.001005 -0.014334 -0.052615
-0.000839 0.020139 -0.048414
0.017918 0.013659 -0.045128
0.006177 -0.024147 0.037383
0.030277 -0.020341 -0.004316
0.010313 0.003276 -0.021000
-0.032922 -0.000612 0.037870
0.002810 0.004654 0.044921
0.032085 -0.022146 -0.004682
-0.017157 -0.024173 -0.038560
0.020653 -0.007772 -0.029032
-0.010842 -0.011337 0.047433
0.016786 -0.011599 0.048821
-0.000869 0.019879 0.048135
0.005002 0.025382 0.044452
-0.008899 0.017307 -0.045504
-0.014769 -0.013067 0.052482
-0.025731 0.013612 0.043085
-0.029910 -0.011590 0.040023
0.004583 0.020149 -0.047125
0.031989 -0.023002 -0.007500
0.005433 0.025395 0.044479
0.018156 0.014187 0.039426
-0.027988 -0.015055 -0.036285
0.018403 -0.008922 -0.032944
0.030277 -0.020341 0.004316
0.021364 0.006304 -0.030931
-0.015892 0.018417 -0.047929
0.032104 -0.023085 0.005431
0.018999 -0.011310 0.033195
-0.027372 0.011663 0.001033
-0.024053 0.019851 -0.018000
0.018331 -0.015673 -0.009500
0.015895 0.019688 -0.000750
0.010931 -0.002516 -0.047616
-0.012744 0.015218 -0.029929
0.029371 -0.017811 -0.006209
0.006123 0.020497 0.047465
0.004537 0.018850 -0.048371
-0.028040 -0.020673 0.024812
0.025899 -0.010696 0.018242
-0.016394 0.024409 0.043401
0.020354 -0.008210 0.032483
0.016331 -0.024173 -0.007500
-0.020910 0.017680 0.021000
0.028388 -0.013743 -0.012473
0.028091 -0.010465 0.016355
0.012047 -0.019247 0.048497
-0.013348 0.021077 -0.010325
0.030370 -0.013933 -0.009722
0.028091 -0.013830 0.013982
-0.022671 -0.014897 -0.028129
-0.025676 -0.001286 0.046209
0.003647 0.001777 -0.045223
-0.007517 0.001447 -0.044462
-0.027372 0.011663 -0.001033
0.006453 0.022183 0.045840
0.007766 0.024246 0.000000
0.029448 -0.017966 -0.006087
-0.021718 0.020694 -0.041564
0.030419 -0.021533 -0.002382
0.020629 -0.007173 -0.032760
-0.017772 0.024467 -0.045375
0.006526 0.022146 -0.045765
-0.017310 0.006602 -0.049103
-0.000643 0.019840 -0.048045
0.010604 0.005542 0.046769
-0.027669 0.018090 -0.018000
-0.005669 0.019725 -0.044408
-0.017750 0.024246 0.045516
-0.028427 0.014699 0.033353
-0.028611 -0.010699 0.048725
-0.011034 0.016836 0.045582
-0.002564 -0.015659 0.048997
0.015923 0.017438 0.039187
0.030558 -0.022836 -0.005624
0.017551 0.012567 -0.030685
-0.004607 -0.012345 0.047539
0.017925 0.011375 -0.046356
0.029548 -0.018020 0.006021
-0.032693 -0.002900 0.038385
0.027746 -0.010566 -0.008977
-0.023759 -0.016850 -0.046873
0.002205 0.015774 -0.045694
0.032341 -0.022697 0.004546
0.016952 0.015572 0.044232
-0.017750 0.024246 -0.045516
0.004860 0.021029 0.047152
-0.019088 0.026446 -0.018221
-0.026306 0.016373 -0.045818
0.017640 -0.024076 -0.031346
-0.018135 0.025054 0.038795
-0.003103 0.005457 0.044288
-0.006656 0.017098 -0.033519
-0.005579 0.018607 -0.049190
0.015717 0.018612 -0.032227
0.008387 -0.020141 -0.047712
-0.018741 0.024987 -0.029750
0.005289 0.019196 0.048144
0.029702 -0.017034 0.006151
0.004226 -0.024235 -0.048142
-0.002419 0.020577 0.042500
-0.027933 -0.015210 -0.036278
-0.003576 0.018887 -0.049471
-0.017879 0.025722 -0.043698
0.004579 0.020126 -0.047088
0.020294 -0.022822 -0.030557
-0.015892 -0.007563 0.047036
0.019529 0.010522 -0.044729
0.021990 -0.002586 -0.023905
0.029143 -0.017964 0.006169
-0.002124 0.019725 -0.044285
0.022603 -0.000061 -0.018413
0.020319 -0.023783 -0.029907
0.016331 -0.024173 0.007500
0.019668 -0.024173 -0.029136
-0.017894 0.025750 0.043409
0.009651 -0.023003 -0.036365
0.019814 -0.007764 -0.027630
0.018649 0.015110 -0.030316
0.002876 -0.008483 -0.050688
0.007960 0.025392 -0.016621
0.026994 -0.024057 0.021451
0.021869 -0.000497 0.012364
0.001818 -0.003288 -0.049198
0.014081 0.013577 0.042500
-0.014419 0.021077 0.021000
-0.014419 0.021077 -0.023750
0.029614 -0.017711 0.006045
0.021055 0.000558 0.006023
0.005109 0.019104 0.048226
0.018403 -0.008922 -0.032944
-0.009785 0.019163 0.049313
0.018831 -0.018730 0.032097
-0.019291 -0.023065 0.038675
-0.017978 -0.024173 0.037460
0.030527 -0.023182 -0.015873
0.005856 0.018976 -0.047357
-0.011808 -0.014511 -0.052634
-0.014724 -0.013386 0.048758
0.004723 0.020326 0.046933
-0.027822 0.014152 0.046057
0.021107 -0.007740 -0.025808
-0.018727 0.023133 0.045093
0.019271 -0.011000 0.031341
0.013757 -0.017896 -0.047555
0.017937 0.011764 -0.030770
0.016262 0.012565 -0.031901
-0.021914 -0.024173 -0.036390
-0.024696 -0.020673 -0.024240
0.014624 0.014029 -0.030343
-0.015596 0.019950 -0.047308
-0.024214 0.019656 0.045086
-0.012744 0.021077 -0.027071
-0.027730 -0.024173 0.000000
-0.011919 0.021077 -0.020650
0.015793 -0.013936 0.032567
0.024501 -0.004579 0.013048
-0.020584 0.014827 -0.046000
-0.017887 0.012526 -0.046035
0.024850 -0.014752 0.025350
0.015762 0.017942 0.037716
0.032549 -0.021125 -0.001572
0.017437 -0.011346 -0.031045
0.010618 0.010331 -0.021000
-0.008363 0.017307 0.045484
-0.030180 -0.007141 -0.039248
0.021551 -0.016565 0.026516
-0.019080 0.026183 -0.020787
-0.001919 0.021077 0.004750
0.028947 -0.013709 0.016693
-0.010452 0.019879 -0.048139
0.019728 0.011415 -0.030806
-0.005657 0.019879 0.048392
0.006544 0.024754 0.043971
0.019324 0.013262 0.030612
0.007263 -0.001887 0.046440
-0.025368 0.017574 -0.045690
0.016781 0.015827 0.000000
-0.026776 -0.014656 -0.023517
-0.004691 0.002521 0.045500
0.011345 0.000563 0.051050
-0.017649 0.020072 -0.046853
0.014618 -0.016998 0.046974
0.017269 -0.014054 -0.031437
