0.070872 -0.099534 0.100043
0.092188 -0.119002 0.093822
-0.096714 0.021754 0.104267
0.080424 -0.101632 0.096596
0.087764 0.131478 0.110890
0.074994 -0.027067 0.016607
0.012716 0.122554 -0.080617
0.081530 -0.140615 0.095129
-0.074904 0.065030 -0.083375
0.079760 -0.016500 0.123379
0.038200 0.105771 -0.081289
0.084837 -0.136940 0.104538
0.015025 0.105628 -0.078465
0.086983 0.136096 0.108578
-0.073577 -0.064363 0.102266
0.108822 0.031500 0.077179
-0.091257 0.049525 -0.098963
0.072683 -0.107661 0.102930
0.066928 0.000000 0.129963
-0.068919 -0.075841 0.057766
0.021790 -0.103658 -0.086219
0.064003 0.135541 0.102466
0.071257 -0.124719 0.097735
0.032430 0.121373 -0.087689
0.020308 -0.140473 -0.078894
0.040268 0.034731 -0.162921
0.058014 -0.118067 0.094333
0.037001 -0.118158 -0.088630
-0.069244 -0.076168 0.042094
0.008857 -0.114079 -0.079112
0.030806 -0.099305 -0.074506
0.094190 0.127082 0.161019
0.016601 0.036750 -0.056860
0.012785 0.122014 -0.084036
0.011569 0.127002 -0.073454
0.030778 0.124731 -0.089028
0.075129 0.139336 0.110089
-0.068101 0.073715 0.094666
0.027154 0.125621 -0.070626
0.079973 -0.138739 0.085919
-0.033702 -0.069311 -0.167726
0.041277 -0.122984 -0.079387
0.085014 0.139187 0.092964
0.096877 0.126096 0.126643
0.078523 -0.138273 0.107113
0.023031 -0.100120 -0.081435
0.049913 -0.005347 -0.156433
0.090074 0.122352 0.097962
0.015514 -0.130971 -0.079983
0.095438 -0.035500 0.109461
0.013577 0.124394 -0.083901
-0.094293 -0.036834 -0.114362
0.051720 -0.007893 -0.162818
0.066111 0.115806 0.099395
0.021742 0.108603 -0.082721
0.082679 0.139709 0.106928
0.034179 0.140400 -0.076152
-0.084587 -0.038599 -0.162895
0.094672 0.105698 0.162778
-0.060905 -0.073338 -0.036291
0.079332 0.110979 0.158298
0.012991 -0.131283 -0.071995
0.056311 0.029000 0.007513
0.103371 -0.121304 0.145468
0.085225 -0.116175 0.097511
0.040268 0.034731 -0.162921
0.014672 0.004000 -0.031860
0.001895 0.030237 0.027238
0.028215 -0.135025 -0.085379
0.010888 -0.067823 -0.162488
0.058308 -0.123064 0.024847
-0.028511 0.074579 -0.131453
0.083401 -0.117238 0.168244
0.036478 -0.138506 -0.068223
0.098795 0.016408 0.066257
0.084535 -0.117915 0.095692
0.021280 0.128575 -0.086534
0.036143 0.105570 -0.079117
0.082669 -0.140036 0.105907
0.077337 -0.131899 0.126112
0.055179 0.016500 0.132373
0.046816 0.002960 -0.168884
0.102982 0.035500 0.097376
0.019297 -0.140529 -0.076381
0.088234 0.135548 0.100089
0.098893 -0.110509 0.124678
0.086914 -0.133779 0.116994
0.011967 0.107216 -0.081220
0.033102 -0.135423 -0.085441
0.089458 0.127067 0.094107
0.009331 -0.111570 -0.073148
0.020025 -0.128348 -0.084003
-0.104410 0.021772 -0.067801
0.036002 0.029000 0.007378
0.011480 0.120383 -0.072041
0.032194 0.030154 0.133696
-0.021351 -0.076315 -0.004950
-0.064406 -0.069535 -0.071162
0.039988 0.117996 -0.080673
0.024352 -0.106277 -0.085551
-0.028716 0.029535 0.109523
0.040929 -0.111570 -0.082214
0.083308 -0.139648 0.106496
0.087531 -0.127667 0.154236
0.104479 0.035475 0.053860
0.091372 0.130991 0.134608
0.072957 0.131591 0.116545
0.101424 0.031500 0.039608
0.082219 0.031434 0.021297
0.064248 0.116175 0.113198
0.046322 -0.030299 -0.162295
0.070127 -0.138527 0.101871
0.101131 0.031500 0.101105
-0.047830 0.079998 0.067992
-0.106349 -0.044928 0.057809
0.090152 0.127600 0.110376
0.103196 0.114960 0.151103
0.098051 -0.104442 0.162659
-0.011339 0.029000 0.042337
0.072957 0.131591 0.116545
0.093720 0.102337 0.154170
0.037378 0.137940 -0.068481
0.084264 -0.115806 0.094187
0.021340 0.137923 -0.085165
0.092128 -0.030520 0.024276
0.009840 -0.122806 -0.075613
0.031249 -0.120159 -0.089610
0.030688 0.123867 -0.087189
0.011740 -0.122115 -0.077186
0.014644 -0.137147 -0.070569
0.086965 0.135522 0.092466
0.065850 -0.135956 0.106229
0.019806 0.128362 -0.083918
0.029895 0.135179 -0.086926
0.063302 -0.137442 0.090702
-0.041505 -0.073738 -0.162504
0.026521 -0.138454 -0.081418
0.047694 0.016500 0.133274
0.010187 0.111950 -0.068209
0.007990 -0.070478 -0.011247
0.039679 0.112568 -0.080579
0.087273 0.130773 0.099038
-0.073767 0.052654 0.105061
0.019390 0.100171 -0.073367
-0.056230 -0.076972 0.076213
0.062876 -0.135525 0.099266
0.023131 -0.132523 -0.086936
-0.044908 -0.078506 0.042124
0.038464 0.103801 -0.076075
0.029885 -0.046701 -0.086714
-0.089577 -0.021423 -0.168561
0.104538 -0.110093 0.162179
0.052081 0.002866 -0.147783
0.013577 -0.135425 -0.077692
0.093625 0.105184 0.130206
-0.033452 0.066319 0.068561
-0.085097 -0.048008 -0.130239
0.064796 -0.028808 0.012155
0.065572 -0.130735 0.103714
0.015655 -0.047148 -0.002327
-0.070287 -0.070451 0.098257
0.052193 0.007588 -0.157101
0.085575 -0.139420 0.102723
0.089381 0.132654 0.110947
-0.062113 -0.075485 0.088570
0.051112 0.122894 0.027234
0.030968 -0.127421 -0.086153
-0.068536 0.071444 -0.068446
0.038377 0.136681 -0.068767
0.078562 0.136590 0.114929
-0.071389 -0.059576 0.102750
0.008077 0.068959 -0.036921
0.108798 -0.031238 0.083555
0.016770 -0.139693 -0.071183
-0.004397 0.030237 0.034805
0.037493 -0.126419 -0.079674
0.082872 -0.139693 0.106800
0.034180 -0.139589 -0.080349
0.041553 0.123029 -0.078575
0.020025 -0.128348 -0.084003
-0.093098 -0.003000 -0.160382
0.017169 -0.134800 -0.081183
0.019686 0.103369 -0.081566
0.082405 -0.030335 0.021047
0.077216 -0.123788 0.097726
0.012558 -0.121239 -0.081288
0.088264 -0.129224 0.092098
-0.074298 0.034440 0.105464
-0.110367 -0.003000 0.006157
0.063173 -0.137527 0.098021
0.064429 0.029921 0.011471
0.042562 0.031275 -0.103133
0.028085 -0.105086 -0.085743
0.070593 -0.120605 0.104050
0.031263 0.109929 -0.087476
0.104567 -0.122503 0.160790
0.048510 0.029000 0.133010
0.029612 0.030405 0.129188
0.000383 -0.068781 -0.167735
-0.062824 -0.064858 -0.162360
0.090989 -0.107312 0.098081
0.026928 -0.133078 -0.087429
0.087941 -0.135623 0.097262
0.104895 0.121923 0.159904
0.026725 0.140454 -0.081472
0.027154 -0.106729 -0.070626
-0.099874 0.001000 -0.123306
-0.032116 0.032962 0.069618
0.097424 -0.110394 0.118446
-0.083764 0.065529 -0.068458
0.015894 0.131936 -0.083386
0.037421 0.043431 -0.131475
-0.040856 0.001000 0.105309
0.082322 -0.132827 0.126235
0.079151 -0.101379 0.094067
0.081640 -0.132769 0.126353
0.019601 0.104895 -0.085992
0.030411 -0.101796 -0.077660
0.078612 0.113529 0.158505
0.062283 -0.015000 0.130905
0.016853 -0.124399 -0.085479
0.089052 -0.131271 0.097986
0.075023 -0.131844 0.118448
0.035745 0.137030 -0.081992
0.029408 -0.035395 0.129866
0.034308 -0.110955 -0.087136
-0.089519 0.027076 -0.160474
0.022350 -0.124580 -0.071704
0.034491 0.139601 -0.079774
-0.031408 0.072962 -0.160103
0.088431 -0.121936 0.090774
0.084246 0.136568 0.091975
0.110172 -0.031238 0.067705
0.032041 -0.030769 0.134317
0.074006 0.128734 0.129907
0.015909 0.132366 -0.069603
0.086876 -0.124746 0.167246
0.009708 -0.120070 -0.069904
0.040243 -0.114354 -0.080679
-0.105037 -0.003000 -0.074373
-0.021587 0.000000 0.110521
-0.098732 -0.001000 -0.162817
0.036333 0.030237 0.009510
0.017416 0.125225 -0.085623
0.076307 0.015000 0.125430
0.012651 0.131218 -0.077099
0.018588 0.140418 -0.070372
0.076211 -0.122304 0.143467
0.031516 -0.116401 -0.083689
0.022363 0.135134 -0.084982
0.075302 -0.119943 0.143728
0.102098 -0.016500 0.098671
0.031654 0.105565 -0.085000
0.033034 0.119962 -0.087862
0.011097 0.123359 -0.081473
0.031104 0.136412 -0.083841
-0.043384 -0.076926 0.066065
0.081836 0.108869 0.161186
0.033674 -0.111177 -0.089628
0.100471 0.123995 0.151885
0.016139 0.063209 -0.010271
-0.089280 0.066498 -0.004941
-0.095653 0.003621 -0.160405
0.097129 0.122920 0.129200
-0.077378 -0.072474 -0.004922
-0.097733 -0.003000 -0.140718
0.100006 -0.105311 0.162098
0.014649 -0.131620 -0.082151
0.083464 0.115097 0.097630
0.068215 -0.138175 0.107861
-0.080193 0.049733 -0.162839
0.012719 0.131237 -0.073606
0.051063 0.124719 0.027349
0.020753 -0.135126 -0.084237
0.081712 0.139379 0.108339
0.029900 0.124629 -0.086964
-0.039231 -0.073323 0.066056
0.045757 0.018676 -0.160541
0.082932 0.120605 0.100510
0.076686 0.029463 0.123784
0.030654 0.015214 0.125722
0.042900 -0.023600 -0.168523
0.081048 0.129519 0.132358
0.011852 0.122103 -0.073752
0.097012 0.128945 0.156832
0.015707 -0.031207 -0.013939
0.035812 -0.126367 -0.082881
0.071268 0.129775 0.121555
0.012316 -0.122364 -0.079834
0.030780 -0.101598 -0.076010
0.010147 -0.112119 -0.068199
0.043653 -0.118067 -0.070674
0.067985 -0.135783 0.109640
0.097124 -0.128799 0.158376
0.020557 -0.126654 -0.086502
0.009967 0.122872 -0.074021
0.076356 0.031238 0.126845
0.063443 -0.135506 0.100976
0.092166 -0.118877 0.093657
0.087367 0.128467 0.159599
0.086085 0.134870 0.105724
0.048434 0.030333 0.131283
0.052116 -0.123503 0.025817
-0.005099 0.068911 -0.099336
0.038178 -0.126475 -0.077836
0.022512 -0.128541 -0.086906
0.019936 -0.031500 0.128094
0.072087 0.116175 0.136385
0.107629 -0.029463 0.073171
-0.003880 -0.061947 0.013423
-0.012876 -0.078228 0.002103
0.047331 -0.016500 0.133281
0.010120 0.121807 -0.080691
0.014637 -0.123692 -0.082349
-0.008693 0.074023 -0.162843
0.030585 0.102208 -0.079127
0.014629 0.118067 -0.063515
-0.032670 -0.032964 0.069779
0.030513 -0.135044 -0.084635
-0.060532 0.073029 -0.068441
0.049922 -0.005022 -0.115121
-0.102511 0.053320 -0.020984
0.060729 0.110296 0.027814
0.011777 0.127102 -0.079057
0.016727 -0.029535 -0.014600
0.076413 -0.137726 0.108871
0.103980 -0.035478 0.087880
0.014839 -0.130794 -0.078311
0.031627 0.099485 -0.074113
0.030934 0.128063 -0.088088
-0.028511 0.074579 -0.131453
0.084262 0.116174 0.094170
-0.014922 0.031478 0.066308
0.098822 0.015089 0.074090
0.014428 0.033083 0.000948
0.037762 0.115185 -0.084988
0.096536 0.031500 0.108168
0.065083 0.031469 0.011201
0.084680 -0.119101 0.166017
0.017069 0.125111 -0.083347
0.025245 -0.031500 0.131649
-0.108780 -0.035535 -0.005362
0.068065 -0.114675 0.099715
0.041422 0.131790 -0.069641
0.074304 0.099077 0.102793
0.017075 0.031892 -0.001106
0.038425 -0.136618 -0.068781
0.069745 -0.126457 0.124735
0.026821 0.138456 -0.081422
0.016813 -0.104461 -0.069863
0.078562 0.136590 0.114929
0.035884 -0.110459 -0.085586
0.083772 0.113409 0.100269
-0.108580 0.001000 -0.037759
0.015157 0.106212 -0.069388
0.037746 -0.120252 -0.084056
0.010780 0.123240 -0.080880
-0.097211 -0.029460 -0.123391
0.092711 -0.126843 0.123492
0.039557 0.127057 -0.079629
0.091608 0.129832 0.115945
0.083719 0.139944 0.105026
0.018321 -0.138178 -0.083223
0.027207 -0.106725 -0.070634
0.009358 0.118814 -0.070488
0.054007 -0.031500 0.133036
0.014425 -0.135409 -0.080374
0.014977 -0.109864 -0.084941
0.030369 0.131360 -0.085351
0.089701 0.129307 0.158930
-0.047539 0.077632 0.069246
0.027528 0.099779 -0.080497
0.011566 -0.118321 -0.061335
0.014634 -0.027365 0.125470
0.016527 0.113409 -0.081225
0.016698 0.137172 -0.062548
0.092863 -0.126523 0.122514
0.092749 0.121040 0.097918
0.071597 0.138164 0.106741
-0.091316 0.015906 -0.168658
0.023089 -0.126152 -0.087269
0.072452 0.122002 0.140037
0.069674 0.125040 0.127590
-0.110528 -0.017748 -0.005353
0.088736 0.131211 0.096300
-0.021393 -0.073327 -0.160075
0.016445 -0.060728 -0.078293
0.049095 -0.010551 -0.142330
0.040050 -0.122275 -0.077250
0.061078 0.118511 0.102772
0.084012 0.104787 0.156956
0.099433 -0.031500 0.036225
-0.090679 -0.003000 0.103513
0.024702 -0.105052 -0.087554
0.085279 0.136611 0.103978
0.082375 0.140461 0.101001
-0.029932 -0.048196 0.066968
0.024115 -0.134208 -0.087120
0.013438 -0.122945 -0.081504
0.099863 -0.029000 0.101917
-0.092428 -0.063945 -0.036927
0.070454 -0.138357 0.109811
-0.096452 0.019869 -0.122309
0.026800 0.125968 -0.086207
0.005658 0.071762 -0.010236
-0.096000 -0.021549 -0.162672
0.047003 0.031500 0.133564
-0.090828 -0.043975 0.103985
0.093751 -0.015000 0.111163
0.076641 0.031445 0.017534
0.039988 0.117996 -0.080673
0.060704 -0.113478 0.102638
0.035888 0.137161 -0.075336
0.052211 -0.000250 -0.149578
0.069153 0.015232 0.022293
0.060189 -0.117724 0.106918
0.070409 0.101376 0.096627
-0.107797 0.010708 0.086632
0.014480 -0.015000 -0.075898
0.016661 0.135097 -0.083486
0.090498 0.118913 0.094218
0.015705 -0.062808 -0.080974
0.031933 0.045123 -0.099379
-0.068828 0.074906 0.073428
-0.069294 0.075753 0.057762
0.070507 0.131296 0.113368
0.011499 -0.116175 -0.080984
0.020742 -0.093500 -0.075546
0.055819 0.108503 0.024194
0.084287 0.139049 0.106758
0.022220 -0.003000 0.132411
-0.040157 -0.070503 -0.162895
0.089769 -0.132022 0.106454
0.011965 -0.119240 -0.083899
0.034142 -0.044273 -0.162895
0.087151 -0.130753 0.098327
0.033005 0.122950 -0.087124
0.024529 0.135728 -0.084945
0.047225 -0.018747 -0.110771
0.036737 0.135255 -0.075579
0.085480 0.114072 0.099259
0.011816 0.111926 -0.070355
0.051954 -0.002866 -0.145054
-0.090862 0.063561 0.073383
0.004234 0.066978 -0.162921
0.030468 -0.108213 -0.077530
-0.029485 0.065582 0.057103
0.017305 0.139862 -0.070004
0.084625 0.114093 0.168852
0.085260 -0.134128 0.118535
0.039257 0.132770 -0.069020
0.082296 -0.140421 0.102639
0.012054 -0.112200 -0.068990
0.012593 -0.031500 0.006310
0.013838 -0.126537 -0.079299
0.023888 -0.126703 -0.087461
-0.016235 -0.076332 0.009503
-0.098764 -0.007053 -0.162661
0.023244 -0.129964 -0.084949
0.103441 0.109266 0.163413
0.077069 0.113444 0.154738
0.015375 0.061592 -0.002499
0.027119 0.102748 -0.082888
0.028531 -0.055175 -0.162773
0.063647 0.122417 0.107007
0.016349 -0.125571 -0.085157
0.080698 0.137721 0.107615
0.028423 -0.124967 -0.086690
0.001128 0.070404 -0.131475
0.013336 0.127585 -0.082160
0.079028 0.140280 0.107084
-0.002458 -0.035000 -0.015988
0.050024 0.001000 -0.115043
0.036855 0.119984 -0.088361
0.094578 -0.129737 0.137915
0.019743 0.100260 -0.078265
0.012236 0.120447 -0.068601
0.066568 0.136227 0.107283
0.079399 -0.110103 0.093720
0.032517 0.118283 -0.087890
0.079230 0.138071 0.107578
0.079932 0.101550 0.095327
0.020127 -0.057501 -0.084292
0.038767 0.121327 -0.081475
0.019007 -0.100409 -0.077009
-0.044969 0.034448 0.069500
0.101098 0.035500 0.039268
-0.094469 -0.053341 -0.084239
-0.032037 -0.063772 0.066488
0.085355 0.136336 0.111337
0.079760 -0.016500 0.123379
0.009737 0.062482 -0.160925
0.035286 0.118812 -0.087272
0.031019 -0.047651 -0.087122
0.086873 -0.137747 0.104518
-0.051480 -0.070429 -0.162671
0.070720 0.124523 0.097231
0.064251 0.140446 0.090430
0.042536 -0.031330 -0.103089
0.004257 -0.001000 0.127354
0.031136 0.140545 -0.079145
0.095229 0.102536 0.149528
0.091983 -0.121772 0.104633
0.047829 0.035500 0.133473
0.033024 0.046215 -0.087997
0.077078 -0.125500 0.097817
0.098801 -0.031500 0.104960
0.019681 0.000000 0.130353
0.051191 0.014401 -0.162686
0.085134 0.130124 0.131773
0.105196 -0.112178 0.162767
0.072679 0.000000 0.009848
0.029190 -0.137439 -0.083742
-0.093503 -0.002500 -0.168857
0.015088 -0.103385 -0.069368
-0.022448 0.031500 0.110082
0.083707 0.132044 0.132256
0.018763 -0.139767 -0.063140
-0.078201 -0.076198 0.041974
0.079151 -0.101379 0.094067
-0.108951 -0.003000 0.057895
0.104750 0.031500 0.093495
0.102832 -0.118476 0.149846
0.001258 -0.071941 -0.036920
0.078533 -0.030360 0.018360
-0.100560 0.050394 -0.029468
0.032036 0.127754 -0.087928
0.102726 0.119769 0.151238
0.029934 -0.107872 -0.089055
0.086107 -0.135711 0.101427
-0.099048 0.055096 0.087682
0.013409 -0.124318 -0.083798
-0.096958 0.017962 -0.162695
0.033708 -0.114679 -0.081613
0.018081 -0.139197 -0.062944
0.013733 -0.135432 -0.078463
0.037497 0.119126 -0.084913
0.098947 -0.016409 0.069243
0.016581 0.124109 -0.085402
0.028214 0.030250 0.131940
0.033396 -0.045935 -0.088314
0.069529 0.121892 0.125379
0.040243 0.117996 -0.080679
0.081032 -0.139416 0.108664
0.014898 -0.121581 -0.082838
0.045189 0.018413 -0.112234
0.011392 -0.068551 -0.012016
0.037858 -0.029156 0.132231
0.069361 0.126252 0.124124
0.015987 0.127617 -0.082033
0.017242 0.000000 -0.023936
-0.022285 -0.003000 0.110119
0.019468 -0.102297 -0.074433
0.083800 -0.138119 0.102512
0.020037 -0.140163 -0.080961
0.091976 -0.127107 0.161007
-0.002984 -0.073074 -0.162657
-0.017648 -0.035500 0.068713
0.015341 0.064223 -0.006159
0.100334 0.124471 0.161153
0.070533 0.132626 0.116178
0.022706 0.126556 -0.085057
-0.093593 0.028067 -0.162803
0.064653 -0.111932 0.112474
0.047853 0.001000 -0.162552
0.012974 -0.109162 -0.080479
0.093978 0.102597 0.133861
0.085948 0.139251 0.100928
0.084286 -0.115302 0.094388
0.084487 0.107181 0.163410
0.098936 0.016410 0.070943
0.013794 0.126526 -0.079175
0.050140 0.001000 -0.115362
0.027745 -0.134675 -0.085617
0.104798 0.031500 0.046830
-0.035115 0.071529 -0.167687
0.083383 -0.138163 0.095019
0.027671 0.129068 -0.087933
0.014008 -0.126478 -0.070801
0.009889 -0.061082 0.003866
0.070595 0.139634 0.107948
0.051327 0.001000 -0.161577
0.016882 -0.105919 -0.082528
-0.059524 -0.069394 -0.083438
0.079332 0.110979 0.158298
-0.098020 0.014224 -0.147087
0.055434 -0.035500 0.132755
0.018150 0.125596 -0.083701
-0.002213 -0.072030 -0.005211
0.015720 -0.109626 -0.083074
0.038406 -0.035286 -0.101074
0.066723 -0.136921 0.102092
-0.049691 0.069178 -0.130688
0.043001 -0.118067 -0.070429
0.050410 -0.000250 -0.135497
0.051914 -0.001799 -0.143805
0.084895 0.120312 0.165583
0.011982 -0.106024 -0.078264
0.079621 -0.130486 0.125941
0.072050 0.030333 0.125404
0.021471 0.055577 -0.099354
0.011997 0.122576 -0.083249
0.027242 -0.001000 -0.085916
0.027242 -0.003000 -0.087050
0.092897 0.030333 0.031027
0.031132 -0.102492 -0.079420
-0.103745 0.041806 0.073475
0.061411 0.122593 0.106909
0.023030 0.101839 -0.080091
0.027460 0.125225 -0.088504
0.042959 0.036149 -0.162843
0.088049 0.126450 0.096373
0.000415 -0.002500 0.123906
0.029989 -0.110086 -0.078415
0.022904 -0.134675 -0.085438
0.010941 0.107630 -0.073468
-0.068132 0.056059 -0.167957
-0.051198 0.064195 -0.162515
0.051688 0.011487 -0.142584
0.075818 -0.134710 0.113860
0.011566 -0.114029 -0.061335
0.089168 0.127586 0.164416
-0.097250 -0.037851 -0.098966
-0.108102 -0.001380 -0.025600
0.064184 -0.135540 0.103000
0.000393 0.066119 -0.167781
-0.059408 -0.060203 -0.160132
0.073552 0.136276 0.114242
-0.031514 -0.034431 0.068886
0.036718 0.105467 -0.077499
-0.046740 0.080678 0.058785
0.087326 -0.137308 0.103829
0.099482 0.035478 0.098821
0.079122 0.140354 0.106184
0.078956 0.027000 0.016819
0.052153 -0.003207 -0.162818
0.072967 -0.139598 0.109289
-0.077811 0.075774 0.057780
0.027832 0.125840 -0.088500
0.071597 0.138164 0.106741
0.038073 -0.031467 0.130593
0.030347 0.108793 -0.087213
0.009717 0.120668 -0.070593
0.080540 0.131434 0.132634
-0.072019 0.063186 0.102611
0.071634 -0.015215 0.023590
0.046120 0.018970 -0.131108
0.103135 -0.107747 0.159221
0.018484 0.134803 -0.084872
-0.046644 -0.076481 0.068937
0.033522 -0.138358 -0.077245
0.085480 -0.114072 0.099259
-0.102046 0.051125 0.042074
0.082536 0.134367 0.119941
-0.047708 0.078753 0.069059
0.085480 0.118278 0.099259
0.049135 -0.003000 -0.116105
0.090001 0.029535 0.118365
0.072180 0.123244 0.098255
-0.006257 -0.073906 -0.162658
-0.094429 0.058573 -0.036290
0.015161 -0.114921 -0.078462
0.036198 -0.135402 -0.082146
-0.049258 0.031238 0.104540
0.049162 -0.010003 -0.141736
0.016108 -0.139564 -0.076693
0.039142 0.108938 -0.078195
0.085229 0.105168 0.160213
0.017884 -0.031892 -0.003705
0.078789 0.101046 0.101701
0.051661 -0.010618 -0.162775
0.064930 0.029006 0.009773
0.094242 -0.104329 0.165133
0.032434 -0.116746 -0.080426
0.080027 -0.099438 0.116386
0.082484 0.139724 0.107054
0.084341 -0.114828 0.094781
0.030731 0.099328 -0.074867
0.068573 -0.035456 0.011747
0.076703 0.030520 0.127487
0.088918 -0.126608 0.100535
0.083765 -0.113020 0.168139
0.030721 0.140236 -0.082008
0.010582 0.064080 -0.160141
0.057516 0.118328 0.092754
0.068092 0.135608 0.106149
0.016354 -0.031500 0.002961
0.058057 0.123182 0.024671
-0.102046 0.051125 0.042074
0.016525 0.104409 -0.078895
0.015223 0.062724 -0.002672
0.040931 -0.030329 -0.105275
-0.098376 0.054484 -0.028348
0.069320 0.117115 0.104415
0.009794 -0.122583 -0.077637
0.065205 0.106980 0.113880
0.017342 -0.106985 -0.083409
0.090568 -0.113478 0.094074
0.081801 -0.139765 0.107466
0.075779 0.125624 0.098401
0.031968 0.117845 -0.081471
0.010349 0.116175 -0.082776
0.000742 -0.031800 -0.019163
0.011377 0.117699 -0.083632
0.029288 0.107801 -0.086909
-0.109627 0.001000 -0.045374
-0.097943 -0.003000 -0.156958
0.108822 0.031500 0.077179
0.022830 0.103894 -0.084141
0.078631 -0.099069 0.103469
0.076746 -0.140355 0.106852
0.090568 -0.118872 0.094070
-0.048721 -0.032970 0.071873
0.065569 0.130735 0.103706
0.069929 -0.136357 0.108057
0.036899 0.138579 -0.076966
0.018394 0.133123 -0.084964
0.040056 0.122276 -0.077231
0.081263 0.131623 0.132617
0.017324 0.035500 0.124010
0.058983 0.122679 0.099223
-0.108109 0.000000 -0.024812
0.015606 -0.127372 -0.081708
0.066869 -0.117650 0.127212
0.013139 -0.114283 -0.061919
-0.093540 0.021877 -0.160325
0.108886 -0.035500 0.064348
0.082171 0.035500 0.121997
0.021145 0.100423 -0.080989
0.083769 -0.139149 0.107119
0.014833 0.110876 -0.082819
0.010599 0.113491 -0.071735
0.085228 -0.029000 0.118894
0.094486 0.105011 0.165982
0.022517 -0.130012 -0.084733
0.080945 -0.099461 0.100963
0.031198 0.127984 -0.088064
0.050450 -0.015340 -0.147190
0.019945 0.125834 -0.086367
0.022476 -0.126772 -0.087060
0.071388 -0.134808 0.110941
0.089333 0.015000 0.024288
0.041879 -0.111493 -0.079898
0.015992 0.061995 -0.075925
0.066096 -0.131613 0.109534
-0.096714 0.021754 0.104267
0.070991 -0.107729 0.097531
0.027239 0.124835 -0.088459
0.034076 0.104305 -0.080129
0.042067 -0.030621 -0.133779
-0.000858 0.037771 -0.019163
-0.096276 0.012190 -0.130352
0.020284 -0.138006 -0.084586
0.028840 0.108622 -0.071503
0.028431 -0.128530 -0.086047
0.011777 0.127102 -0.079057
-0.078057 0.073609 0.026404
0.052500 0.003650 -0.159104
0.090368 0.123078 0.091524
0.093310 -0.128972 0.162040
0.086000 -0.137563 0.091472
-0.069523 -0.061555 -0.130406
0.088332 -0.102360 0.154040
0.079969 0.134795 0.113814
-0.089843 -0.028416 -0.162895
0.027165 -0.125681 -0.086329
0.079122 0.140354 0.106184
0.013876 -0.122318 -0.082243
-0.028548 -0.064191 0.056733
0.011526 -0.061074 -0.167869
0.079095 0.130978 0.132506
0.031508 -0.139527 -0.083310
0.086145 -0.030333 0.024079
0.040486 -0.116998 -0.080545
0.100203 0.120147 0.138072
0.103343 -0.120280 0.157746
0.090162 0.029463 0.026902
0.007251 0.063252 -0.167831
0.030955 -0.123329 -0.087315
0.070268 -0.122375 0.096803
-0.100101 0.001000 -0.115068
0.092238 0.123407 0.108974
-0.081015 0.062305 -0.099977
-0.046876 0.077919 0.020280
0.014392 0.045000 -0.020013
0.106676 0.035477 0.069220
0.082688 0.137579 0.106414
0.074042 0.108545 0.098662
0.085480 -0.114072 0.099259
0.073809 -0.101943 0.109847
0.040093 -0.116175 -0.080704
-0.078393 0.074742 -0.005393
0.023083 -0.130385 -0.086962
0.105084 0.035500 0.047908
0.032506 -0.130914 -0.084465
0.018670 -0.140210 -0.079488
-0.000921 -0.003000 0.121951
0.017334 -0.138320 -0.062730
0.068345 0.131016 0.109768
0.039578 0.122866 -0.083293
-0.099059 -0.055079 0.087681
0.020162 -0.106147 -0.084319
0.035805 -0.118021 -0.087029
0.086577 0.031500 0.021493
0.091230 0.129021 0.140646
0.038800 -0.118278 -0.083077
0.104507 0.016500 0.047238
0.030123 0.140507 -0.080366
-0.025126 -0.029000 0.039340
0.056875 -0.015149 0.122158
0.001348 -0.071778 -0.162293
0.017063 0.129166 -0.084760
-0.109621 0.001000 0.080088
0.018156 -0.031893 -0.006408
0.031843 -0.029535 0.134750
0.027753 -0.022133 0.131348
0.026759 -0.100411 -0.082600
-0.012904 0.031500 0.094385
0.010454 0.117846 -0.082806
0.084131 -0.031500 0.120665
0.046375 -0.008850 -0.168781
0.086328 0.135033 0.100736
0.085858 -0.130706 0.124575
0.077781 0.130049 0.125430
0.028953 -0.099784 -0.079679
-0.035503 0.071197 -0.099317
0.040929 -0.111570 -0.082214
-0.083159 0.063081 -0.067644
-0.096239 -0.059573 0.057733
0.038578 -0.139504 -0.068825
-0.098166 0.038853 -0.106399
0.067093 0.139158 0.104269
0.028523 0.101886 -0.079967
-0.022942 -0.031893 0.044398
0.012379 -0.127133 -0.069485
0.033989 -0.130778 -0.083193
0.014109 0.121175 -0.084692
0.068521 -0.100144 0.098399
0.014536 -0.130757 -0.075253
0.013935 0.107962 -0.069037
0.071418 -0.120371 0.138788
0.067768 0.114072 0.104340
0.030727 0.099324 -0.074840
0.001092 0.045000 -0.015988
0.026832 0.136433 -0.084799
0.036165 0.116175 -0.089321
-0.044908 -0.078506 0.042124
0.015472 -0.135122 -0.077026
0.085353 -0.125434 0.164322
0.031843 -0.029535 0.134750
-0.033911 0.031893 0.071015
0.042818 0.120704 -0.077324
-0.092797 -0.019466 -0.168596
0.064030 0.137500 0.100664
-0.094469 0.053341 -0.084239
0.007815 -0.002500 0.127373
0.016070 -0.139598 -0.074638
0.032706 0.115468 -0.087945
0.085315 0.136937 0.097962
0.075125 -0.015000 0.014348
0.031631 -0.002500 -0.088690
-0.023740 0.079182 0.013823
0.023732 -0.135027 -0.085525
0.015355 0.135117 -0.075145
-0.019389 -0.075878 -0.162299
0.071678 0.102558 0.119720
0.067768 -0.118278 0.104340
0.051969 0.035449 0.130674
-0.098155 -0.003000 0.103433
-0.079982 -0.043735 -0.168172
0.062283 -0.015000 0.130905
0.065503 0.124364 0.116661
0.087462 0.131628 0.112822
0.042016 0.120022 -0.080131
0.044536 0.035434 0.131030
0.067703 -0.100213 0.096721
0.083090 -0.140256 0.104170
0.034237 -0.044546 -0.089176
0.037646 -0.122084 -0.082977
0.081647 -0.015000 0.018129
0.079481 0.103726 0.143903
0.030298 0.131857 -0.087362
0.037885 -0.029254 0.131959
0.103022 0.109562 0.147292
-0.011192 0.029000 0.115658
0.087626 0.108653 0.091005
-0.067421 -0.061929 -0.162371
0.026691 0.054333 -0.089553
0.025822 -0.106147 -0.085943
0.101369 -0.016500 0.040594
0.065648 0.135212 0.101242
0.086152 0.135622 0.100997
0.087692 0.103124 0.099369
0.086073 0.027000 0.021666
0.040515 -0.116175 -0.084414
0.083262 0.016403 0.107796
0.064943 -0.035500 0.130518
0.035143 0.135421 -0.083565
0.083015 0.123222 0.163833
0.088199 -0.130037 0.122409
0.082821 0.120676 0.161426
0.051371 -0.001000 -0.133364
0.086052 0.101727 0.147369
0.083849 -0.138113 0.097495
0.016770 0.117439 -0.078912
0.016165 0.108278 -0.083144
0.087079 -0.105484 0.163827
0.069721 0.016500 0.128571
-0.090763 -0.003000 0.104941
0.011764 -0.127037 -0.072201
0.073765 0.124651 0.139660
0.035424 0.135138 -0.079391
0.085397 -0.120988 0.168619
-0.020946 -0.078776 -0.005413
-0.051423 -0.070284 -0.162776
0.049450 0.003098 -0.145842
0.098667 -0.016407 0.064583
0.025141 -0.136359 -0.086926
0.067768 0.118278 0.104340
0.054839 -0.108388 0.024312
0.005154 0.031500 0.125017
0.029925 0.125065 -0.072585
0.016693 -0.031500 -0.011839
0.086586 0.132061 0.131442
0.013990 -0.126494 -0.070898
-0.000858 -0.032229 -0.015988
-0.092716 -0.029590 -0.162815
0.029504 0.128630 -0.086040
0.077935 0.138073 0.107978
0.098280 -0.118820 0.127515
0.079953 0.099457 0.095326
0.074482 0.124115 0.135698
0.033640 -0.122702 -0.086946
0.035436 -0.101997 -0.078050
0.100495 -0.116175 0.136500
-0.096486 -0.007890 -0.130330
0.028732 -0.055390 -0.162294
0.031246 0.105869 -0.085559
0.085888 -0.135062 0.096548
-0.045551 -0.078241 0.067524
0.101976 0.016500 0.098972
0.017977 0.001000 0.132457
0.032018 0.122929 -0.087382
-0.084886 -0.071093 0.073588
0.074460 -0.099060 0.102823
-0.094175 -0.043238 -0.103136
0.066932 0.140238 0.099360
0.087933 0.136475 0.101922
0.025673 -0.125660 -0.088010
0.080409 -0.015100 0.110501
0.031443 -0.110525 -0.087556
0.064404 0.131315 0.105966
0.075659 -0.106725 0.098435
0.011946 0.123690 -0.082608
0.064519 -0.028805 0.012065
0.013984 0.126475 -0.070895
0.010408 0.031500 0.017370
0.032849 0.130858 -0.084231
0.087822 0.105357 0.090949
-0.096845 -0.021363 -0.147098
0.076624 -0.106725 0.101799
0.086946 0.138193 0.102552
-0.011477 -0.031500 0.097579
0.024453 -0.135133 -0.085486
0.033416 0.135124 -0.082534
0.098795 0.016408 0.066257
0.088080 -0.136009 0.100012
-0.015047 0.030237 0.062070
-0.085583 0.072114 0.057786
-0.101843 0.053330 -0.029587
0.074302 -0.101102 0.102772
0.014790 0.060426 -0.081055
0.010743 0.116175 -0.079000
0.014136 0.135427 -0.079705
0.008875 -0.118499 -0.073017
0.092135 0.123305 0.108299
0.106666 0.031431 0.068025
-0.096958 0.017962 -0.162695
0.109082 0.031500 0.065954
0.085852 -0.130107 0.131555
0.039285 -0.122168 -0.079469
0.069102 -0.135894 0.110945
0.082916 0.114435 0.096163
-0.032525 -0.064579 0.068610
0.042695 0.032460 -0.104533
0.073577 0.113283 0.145597
0.021344 0.101583 -0.083911
0.094028 0.124488 0.109202
0.035699 -0.135410 -0.082871
0.086407 -0.128381 0.087675
0.042806 0.120150 -0.077814
0.083687 0.126895 0.150643
-0.028777 0.078885 -0.005411
0.050978 -0.008241 -0.135312
0.087756 -0.136796 0.102887
0.013579 0.123029 -0.081633
0.071715 -0.114846 0.135137
-0.097839 -0.003000 -0.119429
0.011096 0.120258 -0.074968
0.047905 0.015193 -0.168670
0.037791 0.137147 -0.077210
0.060156 -0.016201 0.018254
-0.046478 -0.079504 0.066646
-0.073223 -0.057366 -0.162383
0.042818 0.111646 -0.077324
0.019315 0.100880 -0.080464
0.078612 0.118821 0.158505
0.078726 0.123064 0.096015
0.086678 -0.118067 0.086076
0.068639 -0.115604 0.102170
0.086346 0.135012 0.102067
0.089038 0.131267 0.097900
0.089772 -0.131920 0.105622
0.035190 0.107833 -0.084251
0.037076 -0.127000 -0.084385
0.068340 -0.117924 0.100483
0.018991 -0.107079 -0.084012
0.010108 0.122895 -0.072874
0.071168 -0.107667 0.097638
0.020028 0.134567 -0.085764
0.063718 0.128676 0.100186
0.047475 -0.019098 -0.111418
0.090332 -0.118431 0.094376
0.042027 0.123077 -0.077097
0.012132 -0.127097 -0.070467
0.062372 0.107321 0.098251
0.042536 -0.031330 -0.103089
0.070207 -0.101400 0.096315
0.027579 -0.102972 -0.083203
-0.098456 0.010635 -0.162526
0.039327 -0.128111 -0.076322
-0.100898 0.051031 -0.020884
0.023282 -0.130441 -0.087012
0.075587 -0.131352 0.125367
-0.021357 -0.072317 -0.067782
0.014692 -0.031500 -0.013281
0.018015 0.104774 -0.082317
-0.096493 0.000003 -0.146264
0.031879 -0.135111 -0.083883
0.014644 0.137147 -0.070569
0.085107 -0.111239 0.168530
0.086592 -0.137508 0.093724
0.066237 -0.140292 0.097142
0.083769 -0.139149 0.107119
0.025421 0.125467 -0.070431
0.038756 -0.105223 -0.079002
-0.046441 -0.031892 0.071343
0.079021 0.123978 0.154178
0.073093 0.099238 0.102323
0.087778 -0.135556 0.096181
0.016183 -0.060993 -0.076230
0.012558 -0.111111 -0.081288
-0.106840 -0.003000 -0.070331
0.098466 0.105780 0.164881
0.020742 0.091270 -0.065745
-0.045970 0.077461 0.068452
-0.070265 0.070492 0.098220
0.016333 -0.135096 -0.079796
-0.101204 0.051293 0.087552
0.030213 -0.135220 -0.086852
0.104545 0.121296 0.163096
0.089472 -0.126847 0.103829
0.050988 -0.010745 -0.138659
0.086052 0.135805 0.101838
0.013739 0.121400 -0.084568
0.102978 0.111084 0.160394
-0.077382 0.073261 0.057743
0.046556 0.017754 -0.133141
0.017977 0.001000 0.132457
0.040092 0.039237 -0.129684
0.031502 0.140563 -0.078511
-0.091428 0.051368 -0.106246
0.018588 0.140418 -0.070372
0.051480 0.007224 -0.136525
0.009260 0.112622 -0.071857
-0.041927 0.067347 -0.167760
0.020732 -0.101887 -0.076946
-0.044969 0.034448 0.069500
0.015848 0.133111 -0.062304
0.082423 0.099883 0.101568
-0.105669 -0.042496 -0.036931
0.077155 0.031448 0.017868
0.033075 -0.109584 -0.087174
0.059754 0.131781 0.091720
-0.107406 0.015027 0.086633
0.100203 0.112203 0.138072
-0.078430 -0.052149 -0.162689
0.078460 0.132282 0.119852
0.048298 -0.025097 -0.162657
0.082836 -0.029465 0.020469
0.073577 0.113283 0.145597
0.066316 -0.140858 0.089837
0.107659 0.031500 0.056079
0.076180 0.031431 0.122905
0.022330 -0.126542 -0.084949
-0.093503 -0.002500 -0.168857
0.094770 -0.015108 0.049362
0.037001 -0.118158 -0.088630
0.070264 0.101393 0.096403
0.082969 0.140017 0.105667
-0.107571 0.034090 -0.036935
0.016990 0.029535 0.131652
0.013496 -0.124358 -0.083852
0.060729 0.110296 0.027814
0.026821 0.138189 -0.082761
0.017695 -0.058422 -0.085447
-0.075656 0.044902 -0.168152
-0.000116 0.071846 -0.162843
0.088106 0.106907 0.162765
0.040843 -0.120346 -0.077014
0.050945 -0.124621 0.027663
0.083601 0.138617 0.084878
0.034805 -0.121564 -0.086743
-0.033911 -0.034448 0.069500
-0.006649 -0.032970 0.017231
-0.045551 -0.078241 0.067524
0.107346 -0.030520 0.091471
0.032177 -0.048584 -0.089688
0.087306 0.130365 0.123477
0.016155 0.062292 -0.006698
0.041454 0.118406 -0.082223
0.067029 0.117039 0.102466
0.014810 -0.123616 -0.082511
0.073439 -0.031500 0.012988
0.079400 0.124233 0.093573
0.095763 0.016413 0.088251
-0.051535 -0.070566 -0.162334
0.100018 -0.106488 0.164436
0.035737 0.107641 -0.083302
-0.026990 -0.032970 0.054284
-0.097650 0.059776 0.073595
0.084207 0.137644 0.084704
0.019843 0.106068 -0.084199
0.053491 0.029000 0.132570
0.013510 -0.135420 -0.077291
0.017567 -0.093500 -0.070413
0.036604 0.126363 -0.081571
0.047468 0.005802 -0.115742
0.104081 -0.035474 0.052701
0.029184 0.134844 -0.087128
0.080705 0.111153 0.161511
0.022537 0.134446 -0.086709
0.030751 -0.015219 0.125397
0.056091 -0.125477 0.024196
-0.094767 0.000601 -0.160617
0.103751 0.109769 0.151292
0.099100 -0.030333 0.040046
0.042832 -0.120650 -0.077328
-0.036936 -0.080066 0.033118
0.030640 0.109664 -0.074038
0.088796 0.129631 0.131591
0.090162 -0.029463 0.026902
0.007199 -0.065760 -0.162895
0.053697 -0.031238 0.134084
0.069952 -0.110119 0.096365
-0.061307 0.079766 0.057770
0.088118 -0.118321 0.083842
0.018284 -0.104375 -0.082003
0.093815 -0.108311 0.117346
0.072958 -0.137459 0.108836
0.087203 -0.137532 0.096955
-0.107066 -0.035087 0.087009
0.025982 -0.053279 -0.087128
0.012147 -0.061071 0.002285
0.068685 0.113257 0.125621
0.091372 0.130991 0.134608
0.009526 0.119984 -0.080520
0.008637 0.114066 -0.077085
0.074482 0.108235 0.135698
0.092188 -0.118964 0.093799
0.102370 0.124817 0.151688
0.080009 0.118732 0.161710
-0.084290 -0.037645 -0.168278
0.033672 0.121944 -0.087252
0.088208 0.135704 0.102670
0.028859 -0.035500 0.129956
0.027658 -0.140162 -0.083168
0.067574 -0.030333 0.127319
0.009300 0.111752 -0.072998
0.110982 0.029535 0.075760
0.070191 -0.099319 0.096325
-0.039231 -0.073323 0.066056
-0.080853 -0.053146 -0.147147
0.108467 0.031500 0.060367
0.081210 -0.127759 0.142033
0.103196 0.114960 0.151103
0.011038 -0.031893 0.005496
0.086310 -0.134979 0.103317
0.032587 -0.124040 -0.089046
0.012265 -0.112856 -0.081535
0.088410 0.015000 0.116486
0.005729 0.063852 0.004637
-0.044896 -0.079048 -0.005407
0.015300 0.060081 -0.082230
0.040258 -0.120517 -0.078570
0.037605 -0.137735 -0.068546
0.041339 0.122993 -0.079209
0.017116 -0.134731 -0.081123
0.015968 0.138403 -0.080381
0.032627 0.001000 -0.088063
0.028733 -0.139419 -0.084564
0.035309 -0.135132 -0.079646
-0.107266 -0.027821 0.057847
0.020204 0.140675 -0.070836
0.108788 -0.015000 0.069491
0.026642 0.123956 -0.070500
0.034675 -0.001000 -0.088415
0.011058 0.117995 -0.079767
-0.023167 -0.063748 0.039324
0.050068 -0.000250 -0.157506
0.033504 -0.049755 -0.162817
0.049367 -0.011078 -0.146542
0.034863 -0.139623 -0.078963
0.014629 0.114283 -0.063515
0.011810 -0.127109 -0.079182
0.085857 0.031500 0.119294
0.034162 0.130759 -0.083003
0.094612 0.129551 0.157521
0.071776 0.132908 0.117478
0.014861 0.130840 -0.072593
0.037858 -0.029156 0.132231
0.040561 -0.127157 -0.076676
-0.107266 -0.027821 0.057847
-0.061203 0.077518 0.042102
0.014013 -0.123294 -0.081970
0.050945 0.107729 0.027663
0.067178 0.136517 0.107968
0.049544 -0.007982 -0.156676
0.077621 -0.128296 0.131332
0.054544 -0.123973 0.024387
0.085572 -0.134731 0.108186
0.071943 0.137803 0.107897
-0.005646 -0.067617 -0.160100
0.021468 0.131463 -0.084309
0.016278 -0.139551 -0.077658
0.095408 0.035500 0.109438
0.015497 -0.062852 -0.076334
0.062200 -0.016500 0.130931
-0.072278 0.032211 0.105380
0.019592 0.104488 -0.083212
-0.089931 -0.020273 -0.168581
0.080076 -0.130574 0.125988
0.025840 0.103808 -0.087220
-0.097054 0.015618 -0.162842
0.026792 -0.100360 -0.082514
0.030311 0.101815 -0.077891
0.094028 0.124488 0.109202
0.100108 0.117701 0.125716
0.023067 -0.129957 -0.084899
0.012826 -0.108945 -0.079773
-0.094445 -0.042044 -0.104617
-0.103080 -0.001000 0.101790
0.017747 -0.022134 0.126376
0.084990 -0.129611 0.088120
0.004276 0.072278 -0.008533
0.025469 -0.140124 -0.083202
0.100654 0.125365 0.143179
0.030738 -0.127525 -0.086168
0.071248 0.139283 0.109094
0.036677 0.139184 -0.075562
0.042744 0.029000 0.133028
0.092904 -0.124401 0.114451
0.073765 0.107699 0.139660
0.075060 -0.120168 0.148805
-0.047172 0.072109 -0.162537
0.092864 0.035477 0.108675
-0.044853 0.081005 0.041951
0.105575 0.119847 0.157360
0.033421 0.107763 -0.088534
-0.097434 0.000000 -0.122918
0.020959 0.059119 -0.087294
0.032995 -0.113110 -0.089933
0.011997 0.122576 -0.083249
0.014275 -0.060775 -0.079868
0.108798 0.031238 0.083555
-0.106604 -0.024202 -0.068512
0.033075 -0.122766 -0.087174
0.065083 -0.015127 0.119698
0.090989 -0.107312 0.098081
0.070382 -0.101379 0.096582
0.070390 0.101554 0.098104
-0.031531 0.034431 0.068854
0.033130 0.115309 -0.083911
0.036890 -0.035500 0.007317
0.011842 0.035500 0.019461
0.043462 0.027698 -0.136769
0.065062 0.031500 0.130575
0.033958 0.117044 -0.081022
0.017465 -0.117115 -0.076328
0.009944 -0.110043 -0.079424
0.074437 0.140374 0.106752
-0.015045 0.029000 0.051827
0.088056 -0.035456 0.026312
0.023663 -0.131436 -0.085011
0.087963 -0.131236 0.107511
0.015684 0.004778 -0.080874
0.037946 0.135481 -0.078313
-0.003125 0.064172 0.011289
0.011721 0.116175 -0.081300
0.037532 0.140201 -0.068525
0.022700 -0.131436 -0.084740
0.092181 0.113442 0.093734
-0.062113 -0.075485 0.088570
0.034491 0.139601 -0.079774
0.093625 0.127166 0.130206
0.037753 0.031500 0.133072
0.018366 -0.003000 -0.084774
0.092158 -0.118872 0.093620
-0.073219 0.054331 -0.160184
0.083658 0.139603 0.106239
0.106271 -0.029000 0.053294
0.076963 -0.108503 0.097888
0.084861 -0.031500 0.020114
0.053697 -0.031238 0.134084
-0.094202 0.041030 -0.107845
0.068521 -0.100144 0.098399
-0.027617 -0.031500 0.069437
0.088472 0.103159 0.119943
-0.092323 -0.031087 -0.162777
0.061002 -0.031431 0.129137
-0.026568 -0.031500 0.067672
0.032177 0.048584 -0.089688
-0.028752 -0.031238 0.108405
0.102073 0.106695 0.160714
0.097502 -0.031431 0.037869
0.029658 -0.053733 -0.162817
0.106666 0.031431 0.068025
0.016641 -0.034448 -0.006408
-0.105581 -0.044288 0.073602
0.016920 -0.060314 -0.079851
0.012620 0.108842 -0.078729
0.018210 0.140254 -0.070264
-0.038215 0.029000 0.104113
0.101526 0.015000 0.040498
0.045113 -0.035500 0.133504
0.097428 0.030520 0.030348
0.010187 0.111950 -0.068209
0.011736 0.028954 -0.021629
0.083296 -0.102375 0.146442
0.069753 -0.113409 0.104291
-0.088987 0.067729 0.042057
0.055747 -0.116175 0.093129
0.083514 0.134718 0.111791
0.084950 0.132238 0.117811
0.094468 -0.104811 0.165845
0.034013 0.046327 -0.090640
0.017903 -0.126096 -0.085688
0.098959 -0.015090 0.070944
0.090395 0.131094 0.120442
0.029803 0.138498 -0.080592
0.081233 0.140646 0.093991
0.072360 0.113377 0.136307
0.040266 -0.128062 -0.076592
0.067541 -0.131929 0.112073
0.061611 -0.129224 0.099745
0.021419 -0.138791 -0.063902
-0.049258 0.001000 0.106048
0.017876 -0.134964 -0.082035
0.037221 0.132381 -0.075718
0.022717 0.093500 -0.079527
0.010686 -0.115351 -0.072174
0.011097 0.123359 -0.081473
0.063963 0.135393 0.102514
0.040929 -0.120780 -0.082214
0.029834 -0.016159 -0.000780
0.029434 -0.016393 0.129779
0.103369 0.119591 0.155530
0.098901 -0.035500 0.104658
0.104194 0.115114 0.160046
0.047853 0.001000 -0.162552
0.029651 0.053724 -0.162843
0.021058 0.031478 0.125857
0.043811 -0.114283 -0.070586
0.078903 -0.136599 0.114884
-0.096398 -0.002500 -0.144603
0.084477 -0.117161 0.168894
0.015908 -0.061849 -0.004232
0.108325 0.030520 0.051796
-0.002959 0.029331 0.108844
0.076531 -0.098917 0.102827
0.081836 0.108869 0.161186
-0.011359 -0.075552 0.005167
0.034274 -0.137599 -0.078737
-0.099120 0.001000 -0.162642
0.034041 0.127330 -0.087170
-0.046607 0.031500 0.073353
0.076844 0.140099 0.108435
0.032240 -0.126931 -0.085897
0.054839 0.123962 0.024312
0.066531 -0.135269 0.103421
0.019991 0.058073 -0.162921
0.076326 -0.030333 0.123159
-0.106321 -0.002500 0.096192
-0.006678 0.070816 -0.167699
0.082674 -0.116176 0.094626
0.031815 0.131015 -0.084857
0.013466 0.114783 -0.082427
0.064893 -0.136596 0.097528
-0.095736 -0.001000 -0.162895
0.058983 0.109671 0.099223
0.054544 -0.106726 0.024387
0.017150 -0.134398 -0.083989
0.028332 0.106811 -0.071123
0.071907 -0.027079 0.014983
0.023688 0.131436 -0.085022
0.051177 0.000000 -0.157968
0.032362 0.117042 -0.080567
0.070187 -0.138203 0.109730
0.014865 -0.066341 -0.013736
-0.089404 -0.041574 -0.147129
0.076641 -0.031450 0.017535
0.032514 -0.105775 -0.084619
0.036675 0.135399 -0.081348
0.104567 -0.109847 0.160790
0.009352 -0.119978 -0.071637
0.094046 -0.128781 0.126069
0.011003 -0.034446 0.003766
0.015843 -0.131943 -0.083442
0.094811 -0.106530 0.128510
-0.108849 -0.002500 -0.002671
0.027231 -0.099775 -0.080602
0.070467 -0.136626 0.108247
0.068731 -0.035467 0.126522
0.019632 -0.128374 -0.083848
0.080554 0.101563 0.098357
0.001258 0.071941 -0.036920
0.026522 0.128374 -0.085825
0.013984 0.126475 -0.070895
-0.019326 0.079300 0.007827
0.068437 -0.135730 0.106569
0.017696 0.058422 -0.085447
0.011755 0.106740 -0.079711
-0.007087 -0.076536 -0.001474
-0.084704 -0.056105 -0.115632
-0.081089 -0.061955 -0.083327
-0.097955 0.001000 -0.127761
0.018614 -0.134782 -0.084966
-0.029605 -0.031500 0.071242
0.032344 0.030287 0.133220
0.030666 0.044973 -0.168150
0.076307 0.015000 0.125430
0.035156 -0.127167 -0.086418
0.028762 -0.136537 -0.084538
0.011440 0.126998 -0.076945
0.017225 -0.001000 -0.025985
0.013470 -0.114752 -0.082428
0.084412 0.035474 0.117126
0.007199 -0.065760 -0.162895
0.077700 0.130449 0.132145
0.020126 -0.102972 -0.081065
0.092875 -0.124330 0.114117
0.030217 -0.107588 -0.086932
0.082956 -0.112893 0.166990
-0.097835 0.001000 -0.161577
0.012082 -0.029535 0.130034
0.032190 0.135119 -0.083661
0.095632 0.111835 0.117889
0.091168 0.130139 0.154903
0.033280 -0.127474 -0.087538
0.023536 -0.123974 -0.083236
0.055851 0.106835 0.024193
0.094095 0.130225 0.145061
-0.028715 -0.074824 -0.068423
0.025935 -0.053519 -0.168001
0.065846 0.131562 0.109050
0.085166 0.132120 0.131885
0.035831 -0.047277 -0.162774
0.070924 0.140166 0.106526
0.087238 -0.035500 0.117979
0.068625 0.117039 0.102009
-0.111689 0.001000 0.023426
0.031967 -0.124093 -0.089139
0.016303 0.135097 -0.079720
0.009292 0.118441 -0.070471
0.090911 0.111869 0.090093
0.101170 -0.108553 0.158369
-0.028487 -0.075736 -0.162301
0.014190 -0.123406 -0.082087
0.076141 -0.016500 0.125264
0.011765 0.123618 -0.082407
0.079138 -0.124621 0.095193
0.051464 -0.007097 -0.136143
0.103850 -0.029463 0.048587
0.015080 0.135346 -0.081573
0.090122 -0.128456 0.115593
0.041384 -0.118499 -0.082345
0.078636 -0.016327 0.028318
0.029279 -0.108617 -0.086964
-0.103122 -0.042415 -0.036341
0.020638 -0.108022 -0.076010
0.017987 0.031500 0.000438
0.081242 -0.132462 0.119697
0.082983 0.138235 0.104020
0.076927 -0.140100 0.108422
0.013577 0.124394 -0.083901
0.012351 -0.002500 0.128066
0.090438 -0.128934 0.128819
0.064035 -0.123564 0.113560
0.016155 -0.062292 -0.006698
0.013739 0.121400 -0.084568
-0.106418 0.033668 0.057824
-0.074480 0.052649 0.105147
0.094616 0.126396 0.117381
-0.110692 0.018286 0.057831
0.017204 0.129137 -0.084842
0.028492 -0.138472 -0.081244
0.083467 0.132868 0.125961
-0.043044 -0.001000 0.106390
0.107063 -0.016500 0.084460
0.033636 0.117699 -0.090018
0.014480 0.015000 -0.075898
0.032633 -0.135124 -0.083302
-0.095049 -0.028348 -0.147109
0.012597 0.105606 -0.071419
0.029811 -0.138214 -0.082195
0.091372 0.130991 0.134608
0.096629 -0.035500 0.032361
0.085191 0.120263 0.168689
0.031251 -0.048070 -0.168096
0.075674 -0.127419 0.129909
-0.082480 0.054680 -0.131357
-0.104062 -0.012054 0.100305
-0.065693 -0.074643 0.092650
0.015400 -0.123019 -0.082953
0.011091 0.029000 0.123284
-0.072328 0.068164 0.099895
0.108530 0.031500 0.079485
0.024237 0.104747 -0.085150
0.079185 -0.100982 0.094251
0.106674 0.031500 0.052279
-0.094767 0.000601 -0.160617
0.013987 -0.060977 -0.078779
0.009840 -0.122806 -0.075613
0.004768 -0.031238 0.125929
0.032877 0.111706 -0.089801
0.035110 0.135123 -0.080081
0.012625 -0.114620 -0.082056
0.020014 0.125685 -0.084306
0.044446 0.018327 -0.161964
0.084684 -0.137047 0.104713
0.063755 -0.123707 0.112489
0.099480 0.035470 0.041487
0.039064 0.042560 -0.162844
0.105940 -0.116175 0.155846
0.108250 -0.029535 0.050767
0.087256 -0.135398 0.093496
0.083083 0.140251 0.092309
0.102493 0.121713 0.155782
0.070766 -0.138113 0.106055
0.087347 0.118067 0.084138
0.096054 -0.126784 0.125492
-0.107458 -0.003000 -0.036413
0.026455 -0.093500 -0.083690
0.043001 -0.118067 -0.070429
0.084286 -0.115302 0.094388
0.085572 -0.134731 0.108186
0.083205 0.027000 0.019415
0.014194 -0.123408 -0.082090
0.078264 0.031444 0.018585
0.049137 -0.010130 -0.141678
0.039493 -0.127053 -0.079798
0.085071 0.102672 0.107224
0.071526 0.104860 0.127059
0.089183 -0.125355 0.167544
0.033468 0.102826 -0.076567
-0.092831 -0.008589 -0.168785
0.103783 0.119315 0.160164
0.036589 -0.140593 -0.068254
-0.043558 -0.029000 0.103383
0.068615 -0.115097 0.101890
-0.095049 -0.028348 -0.147109
0.086346 0.135022 0.101495
-0.104888 -0.036071 0.094194
0.065429 0.135077 0.100791
0.061021 0.114230 0.102773
0.011422 0.119780 -0.079872
-0.075935 0.066580 -0.067665
-0.098182 0.001000 0.104542
-0.089686 -0.050443 -0.115622
0.097652 0.103858 0.159633
-0.089829 0.024047 -0.160991
0.071385 0.137071 0.108558
0.087364 0.016500 0.022853
0.069044 0.140605 0.099104
-0.094767 0.000601 -0.160617
0.066384 -0.136147 0.107052
0.085315 0.136937 0.097962
0.033413 -0.114620 -0.088020
0.051072 -0.015244 -0.162297
-0.110967 -0.018239 0.026243
-0.029547 -0.063586 0.065257
0.104690 0.122147 0.157614
0.015767 0.104829 -0.073271
0.010632 0.061055 0.003430
0.090178 -0.128290 0.114683
-0.051361 -0.069723 -0.099224
0.087846 0.015092 0.102679
-0.044387 0.078168 0.026428
0.031892 0.124293 -0.089082
0.067029 0.117039 0.102466
0.016689 -0.103242 -0.082802
0.100495 -0.116175 0.136500
0.078666 -0.015173 0.028295
0.093341 -0.116175 0.097407
0.075244 -0.108388 0.098545
0.013015 -0.061349 -0.099325
0.021184 0.105270 -0.084462
0.086400 0.128680 0.092576
0.064390 0.135413 0.103545
0.014759 0.064633 -0.047254
0.095126 0.031431 0.105869
0.086426 0.108259 0.163246
0.087926 0.131328 0.108822
-0.065796 0.055959 -0.161504
0.025713 0.125523 -0.080671
0.031798 0.102183 -0.083730
0.039915 0.105522 -0.076491
0.086807 -0.131844 0.115069
-0.085657 0.030296 -0.168407
0.085441 -0.139146 0.094632
0.041454 0.113944 -0.082223
0.096534 0.029000 0.107283
0.031154 -0.044377 -0.168161
0.010601 -0.113478 -0.071989
0.014244 0.135423 -0.080005
0.010116 -0.122993 -0.078834
0.076838 -0.140280 0.107646
0.069354 0.124114 0.095042
0.023319 0.130453 -0.087021
0.058993 -0.124658 0.025246
0.069626 -0.122840 0.124286
0.071878 -0.102192 0.118725
-0.095559 0.006987 -0.168813
0.039372 -0.124591 -0.076335
0.026664 -0.140454 -0.081471
0.033674 -0.121173 -0.089628
0.027703 -0.129074 -0.087935
0.014100 -0.036750 -0.071508
0.017367 0.120605 -0.081465
0.050874 -0.124523 0.028061
0.090111 0.127123 0.096924
0.014709 0.106267 -0.071185
0.083402 -0.137634 0.092217
0.017977 0.001000 0.132457
0.033034 0.112388 -0.087862
0.012878 -0.122636 -0.080860
0.010823 0.118271 -0.073457
0.106245 -0.116175 0.160308
0.072683 -0.107661 0.102930
-0.087101 -0.040817 -0.146018
0.079317 -0.138356 0.106033
0.038161 0.121241 -0.082733
0.103850 0.029463 0.048587
0.016954 0.101375 -0.075194
0.080144 0.108959 0.151660
0.079692 0.132392 0.119903
0.027976 -0.124345 -0.088671
0.076404 0.016314 0.026674
0.012975 -0.067604 -0.013338
0.084223 0.016353 0.033407
0.093476 -0.123908 0.105582
0.016445 0.001000 -0.079448
0.013336 0.127585 -0.082160
0.019743 0.105644 -0.084049
0.014031 -0.127821 -0.082888
0.018350 -0.105086 -0.082949
0.065870 0.140841 0.089965
0.082405 0.030335 0.021047
0.037742 0.135458 -0.078915
0.004022 -0.070583 -0.162773
0.002129 -0.031893 0.011143
0.010729 0.118101 -0.078186
0.012527 -0.122244 -0.070130
0.013558 -0.120186 -0.084534
0.059541 0.031500 0.132059
0.085432 0.131459 0.091635
0.086134 -0.138762 0.104128
-0.052733 0.078249 0.042112
-0.076578 0.048924 -0.162921
0.077147 0.015181 0.027119
-0.029485 0.065582 0.057103
0.085888 -0.135062 0.096548
0.087542 0.015000 0.022854
-0.095253 -0.008088 -0.162895
0.049450 0.010272 -0.114990
0.026979 -0.133123 -0.087427
0.109976 0.031238 0.075672
0.076625 0.133897 0.120331
0.070507 0.131296 0.113368
-0.077382 0.073261 0.057743
0.081746 -0.130336 0.141597
-0.095998 -0.047403 0.100178
0.013854 -0.111833 -0.082510
0.091052 -0.112164 0.090349
-0.019324 -0.002500 0.111816
0.036558 0.130831 -0.078757
-0.103129 0.022920 -0.100015
0.021340 0.137923 -0.085165
0.015079 0.063236 -0.079001
-0.046586 0.077963 0.021307
0.039320 -0.131749 -0.076320
0.086128 0.128706 0.091435
0.109191 0.000000 0.072649
0.069636 -0.137885 0.109563
