0.108300 0.122414 0.363892
0.104310 0.134362 0.320603
0.010441 -0.031893 0.226202
0.061846 -0.122108 0.119108
0.074233 0.013210 0.055513
0.041964 0.140208 0.120705
0.121800 0.016500 0.235595
0.046968 -0.134865 0.114618
0.043275 0.045000 0.178381
0.105317 0.140399 0.303809
0.041624 0.106223 0.116595
0.039397 0.063209 0.189978
0.043424 -0.102843 0.115314
0.063725 -0.114354 0.119690
0.037999 -0.126924 0.119373
0.089140 0.137631 0.305075
-0.021129 0.078168 0.226676
0.034998 -0.031500 0.207053
0.092931 0.107311 0.327838
0.061240 0.131242 0.119817
0.097188 -0.137578 0.309175
0.049539 0.125829 0.112082
0.087054 -0.126438 0.302732
0.038759 0.064960 0.190389
0.055646 0.031384 0.333727
0.132052 0.000000 0.250844
0.127416 -0.110485 0.363484
0.075410 -0.007569 0.042410
0.102477 -0.106066 0.342853
0.127526 -0.031500 0.245777
0.049539 0.106521 0.112082
0.089914 -0.139139 0.303722
-0.068268 -0.064756 0.195313
0.027081 -0.061497 0.207768
0.038076 0.114072 0.120034
0.054163 0.044672 0.032093
0.087913 -0.027126 0.212342
0.090451 0.102108 0.305499
0.091880 -0.117115 0.302226
0.051343 -0.105086 0.114506
0.099741 -0.101268 0.309328
0.039968 0.030500 0.175809
0.052645 0.100260 0.119216
0.101555 -0.015175 0.228232
0.063202 -0.129653 0.131031
0.090185 0.000000 0.330211
0.098712 0.129452 0.331269
0.019188 0.066651 0.208882
0.033940 0.118236 0.125399
0.114280 -0.112119 0.290527
0.056362 -0.116176 0.116112
0.088863 0.135071 0.301530
0.097794 0.129096 0.323327
0.109592 -0.130714 0.294724
0.034425 -0.108607 0.119030
0.076262 0.106850 0.225288
0.114396 -0.031500 0.225984
0.108192 0.117570 0.297121
0.052773 0.124833 0.113364
0.020420 -0.003000 0.321115
0.052630 0.101014 0.117217
0.037149 0.062585 0.032405
0.090314 0.140228 0.299994
0.035205 -0.110620 0.120727
0.115415 0.118872 0.293868
0.054710 -0.123749 0.113054
0.037995 0.063814 0.131827
0.054432 0.131150 0.115124
0.104943 -0.121934 0.363054
0.119019 -0.031500 0.231271
0.112438 -0.129482 0.330228
0.090963 0.128440 0.316494
0.106304 -0.016403 0.308249
0.012066 -0.029000 0.315906
-0.045955 -0.077384 0.273829
-0.069907 0.067585 0.242236
0.104662 -0.140340 0.285756
0.034502 -0.112622 0.127822
0.036097 0.122616 0.119443
0.104188 0.140371 0.305251
0.033010 -0.111493 0.129567
0.065584 0.118814 0.120300
0.095611 0.138955 0.310278
0.039830 -0.122067 0.119531
0.036810 0.112348 0.115716
0.109327 0.137442 0.291700
0.128246 -0.112277 0.363247
0.107100 -0.109015 0.360220
0.101495 -0.140352 0.306777
0.069000 -0.030349 0.331619
0.105948 0.117049 0.295092
0.112772 0.000000 0.224347
0.132379 0.035500 0.271819
0.046169 -0.059954 0.037476
0.112997 -0.132154 0.307721
0.120818 -0.121369 0.327970
0.129210 0.117272 0.362595
0.126035 -0.029000 0.243917
0.058589 -0.121730 0.114018
0.034571 -0.119941 0.127926
0.109135 -0.129561 0.291755
0.055347 0.105270 0.115934
0.062045 0.135592 0.131363
0.091643 -0.137031 0.305416
0.056965 -0.114679 0.118635
0.110255 0.130734 0.297743
0.095951 0.027076 0.215612
0.053398 0.131428 0.114852
0.064617 0.128429 0.130625
0.111590 -0.102360 0.354288
0.085541 0.015000 0.331153
0.064474 -0.128452 0.130666
0.105577 0.138430 0.302486
0.049697 -0.136407 0.115442
0.117303 -0.128781 0.326317
0.061265 -0.122923 0.114518
0.033178 0.118675 0.132363
0.110696 -0.131638 0.313183
0.072178 0.001000 0.084129
0.103354 0.101350 0.300233
0.119577 0.031431 0.236366
0.054521 0.122421 0.112772
0.121673 0.104790 0.363713
0.064422 -0.122969 0.120555
0.064931 0.119728 0.119092
0.041542 -0.002500 0.330190
0.038152 -0.130835 0.127832
-0.025332 -0.077491 0.270181
0.053614 0.046859 0.110986
-0.027224 -0.071549 0.068824
0.051326 -0.108437 0.129269
0.091046 -0.140184 0.301915
0.054669 0.123284 0.110868
0.043101 0.106068 0.116049
0.042458 0.131800 0.117006
-0.006787 0.065224 0.265374
0.041606 0.138176 0.117003
0.102701 0.130449 0.326163
0.113275 -0.112413 0.294605
-0.066970 0.011735 0.303609
-0.070198 0.051744 0.300437
-0.085663 -0.001000 0.294478
0.072763 -0.003121 0.053723
0.041056 0.138904 0.137385
0.121973 -0.015089 0.275620
-0.083628 0.044249 0.194881
0.055021 0.127825 0.112266
0.095634 -0.138233 0.307292
0.131724 -0.031500 0.260616
0.083695 0.135578 0.291772
0.099412 0.121701 0.350457
0.117777 0.109139 0.318457
-0.075304 -0.014544 0.069012
0.115415 -0.118872 0.293868
0.105397 0.029469 0.220203
0.088479 0.119338 0.321821
-0.061081 0.041055 0.305597
0.039581 0.124465 0.114939
0.093375 -0.134917 0.309691
0.056690 0.126613 0.114920
0.089059 -0.135066 0.302047
0.034701 -0.126996 0.123241
0.036725 -0.111637 0.117951
0.065119 -0.031038 0.066690
0.047229 0.104597 0.113003
0.059872 0.040715 0.037327
0.117635 0.104643 0.365916
0.055171 -0.030192 0.334883
0.038512 -0.135325 0.118401
0.038076 0.118278 0.120034
0.036481 -0.131288 0.129291
0.035008 -0.110305 0.122539
0.072701 -0.002725 0.055203
0.104284 0.116175 0.364652
0.036470 -0.064139 0.198219
-0.079701 0.021145 0.116784
0.107100 -0.123335 0.360220
0.039111 -0.034440 0.198050
-0.070805 -0.027464 0.037897
0.100164 0.130116 0.332078
0.107890 -0.137497 0.303852
0.085090 -0.128105 0.298654
0.045801 -0.134447 0.113544
0.058038 0.127215 0.113546
0.126228 -0.123412 0.363837
0.054394 0.110950 0.110689
0.091896 -0.112077 0.324818
0.075364 -0.107108 0.226061
0.039830 0.110283 0.119531
0.038345 0.130880 0.128665
0.055849 -0.031500 0.333075
0.052116 0.035500 0.330204
0.108984 0.131835 0.336477
0.043534 -0.106580 0.115867
0.040754 -0.125315 0.116758
0.111318 -0.031500 0.223027
0.060595 0.110244 0.113197
0.051991 0.139419 0.115684
0.089195 -0.126675 0.308512
0.042153 -0.057542 0.113788
0.035223 -0.113110 0.116349
0.034017 -0.118133 0.121871
0.061835 0.044118 0.037924
0.113699 -0.118956 0.294538
0.033857 0.117996 0.128259
0.083963 -0.118872 0.302891
0.037016 -0.062226 0.037353
0.112984 -0.127519 0.365296
0.128853 0.029000 0.289991
0.056540 0.131406 0.113975
-0.044071 -0.061799 0.037565
0.061616 -0.136573 0.124204
0.056257 -0.111455 0.112518
0.044845 0.124302 0.127703
-0.022769 -0.080757 0.255588
0.102834 0.035472 0.320997
0.023169 -0.074340 0.192907
0.059591 -0.137036 0.119247
0.021004 0.061857 0.212298
0.053252 0.123217 0.113082
0.064091 -0.111700 0.123494
0.081156 0.125034 0.224848
0.062518 0.035800 0.069541
-0.002394 -0.063125 0.246250
0.042249 -0.125271 0.116236
0.001901 -0.072317 0.132466
0.110196 0.135525 0.292611
-0.080128 -0.040303 0.131761
0.041408 0.125596 0.116547
0.111576 -0.101182 0.345250
0.053772 0.106492 0.113902
0.127819 -0.016500 0.247653
0.107237 0.130893 0.325674
0.053050 0.104849 0.115106
-0.044494 0.029535 0.305799
0.048392 0.052280 0.113643
0.099144 -0.031500 0.326222
0.127897 -0.035500 0.293700
-0.010902 -0.075200 0.037943
0.097385 0.125500 0.298912
-0.086743 -0.001000 0.162047
-0.068004 0.033951 0.037853
0.037493 0.029000 0.187359
0.111493 -0.133330 0.315112
0.094936 0.137176 0.308876
0.035255 0.109774 0.116999
0.115912 -0.126899 0.366796
0.051890 0.101887 0.120347
0.118151 -0.129329 0.359264
0.116797 0.123965 0.306215
0.043722 -0.106319 0.113733
0.032944 0.109992 0.122863
0.056556 -0.114628 0.110228
0.095314 -0.031238 0.211489
0.064896 0.130840 0.130545
0.087736 -0.139217 0.297895
0.109494 -0.138217 0.305402
0.115435 0.119122 0.294109
-0.063485 -0.034777 0.037353
-0.024632 0.080409 0.267007
0.081605 0.120400 0.299901
0.058168 -0.112635 0.112939
0.061449 0.131258 0.120314
0.097958 -0.138273 0.307797
0.073282 -0.001000 0.085206
0.076955 0.031238 0.334332
0.036042 0.122014 0.116212
0.037494 -0.028977 0.177031
0.093883 0.099533 0.299657
-0.061447 0.056105 0.084616
0.020876 -0.069328 0.037353
0.112730 -0.126847 0.304078
0.111485 -0.015092 0.302368
0.099614 0.031238 0.327093
0.037911 -0.135394 0.119382
0.063645 0.120078 0.121697
0.038180 -0.130812 0.121647
0.042839 -0.140610 0.126989
0.098426 0.131863 0.318799
0.033010 -0.111493 0.129567
0.055790 0.135122 0.116874
0.041007 -0.022133 0.326625
-0.011179 -0.069152 0.032520
0.083567 0.120545 0.299102
0.039375 0.103429 0.117837
0.103708 -0.136616 0.314784
-0.065007 -0.026462 0.039969
0.111085 0.135546 0.296590
0.038234 -0.109864 0.115307
0.036382 0.067468 0.187499
0.053053 -0.131547 0.114802
0.047486 -0.128271 0.114931
0.116119 -0.016500 0.228428
0.034738 0.120383 0.128207
0.019313 0.029309 0.307884
0.116966 -0.124117 0.307249
0.088678 0.110244 0.313111
-0.066114 -0.020880 0.305950
-0.074459 0.021883 0.068987
0.112193 -0.125669 0.367680
0.097562 0.099077 0.303041
0.109180 0.134812 0.306962
0.053450 -0.139485 0.116185
0.003393 -0.003000 0.311668
0.105397 0.029469 0.220203
0.036725 -0.120713 0.117951
0.036874 -0.120159 0.115697
-0.060506 0.065529 0.131791
0.000350 -0.076648 0.211643
0.128833 0.119847 0.357608
0.117367 -0.104357 0.352597
0.071557 0.011569 0.037327
0.075925 -0.001000 0.037757
0.037493 -0.029000 0.199810
-0.077796 -0.002500 0.093760
0.056352 -0.113097 0.112320
0.062590 -0.132402 0.131207
0.089906 -0.135635 0.308023
0.076262 -0.125500 0.225288
0.046502 -0.129964 0.115299
0.109358 0.135716 0.301678
0.091603 0.131016 0.310017
0.055997 -0.127589 0.112511
0.059132 0.126360 0.117457
0.037101 0.126470 0.128714
0.102440 -0.140355 0.306405
0.037168 -0.135479 0.128760
-0.074065 -0.002500 0.076955
-0.085438 -0.025536 0.163309
0.044601 0.101583 0.116338
0.051224 0.103409 0.113280
0.061490 0.122092 0.118362
0.018425 0.031500 0.219313
0.107962 -0.134206 0.319156
0.036038 -0.131235 0.122241
0.099670 0.138063 0.308492
-0.028223 -0.070429 0.037577
0.057669 -0.131306 0.114775
0.112205 -0.111939 0.290947
0.041222 0.001000 0.331210
0.123846 0.029000 0.239455
0.129028 -0.031500 0.249716
-0.070945 0.041030 0.092403
0.113727 0.115760 0.294511
0.129882 0.035478 0.271423
0.101141 -0.134089 0.320792
0.041823 -0.110337 0.118439
0.095322 -0.138885 0.310252
0.129503 -0.116175 0.360556
0.101549 -0.101349 0.330837
0.035787 0.123932 0.117086
0.095034 0.132908 0.317726
0.088225 0.031500 0.330844
0.049080 -0.126202 0.114305
-0.050385 -0.033048 0.305737
0.094126 -0.101632 0.300239
0.128997 0.112781 0.361611
0.119019 -0.031500 0.231271
0.051542 0.124109 0.111489
0.075196 0.002616 0.055627
-0.081275 0.001000 0.300656
0.108145 0.138870 0.306550
-0.048226 0.051916 0.039449
0.091492 0.128630 0.317409
0.066051 0.035500 0.333636
0.129904 0.035478 0.270613
0.104856 -0.016500 0.218468
0.039407 0.139560 0.123254
0.109936 0.130538 0.324269
0.072998 -0.008599 0.046644
0.030456 -0.065760 0.037353
0.052781 0.124829 0.113363
0.115520 0.031500 0.227151
0.038701 0.065280 0.037930
0.050785 0.099779 0.119751
0.066064 0.112200 0.122435
-0.005524 -0.080127 0.217097
-0.004598 0.076397 0.195292
0.058412 0.110887 0.111217
0.045756 0.128541 0.113346
0.043735 -0.106384 0.113729
0.110771 -0.130832 0.300888
0.058811 -0.135143 0.121130
0.054912 -0.002500 0.112678
0.089836 -0.035500 0.211684
0.054074 -0.050145 0.110528
0.089711 -0.117669 0.300427
0.105554 -0.140421 0.302887
0.082702 -0.108582 0.299339
0.036249 0.120849 0.118325
-0.014998 -0.001000 0.306305
0.056387 0.122898 0.113153
-0.037274 -0.073029 0.131808
-0.007008 -0.075417 0.223655
0.113075 0.127133 0.366179
0.090288 -0.117044 0.302721
0.070018 0.028701 0.037451
0.057216 -0.137039 0.116129
0.119307 0.016500 0.308625
0.032406 -0.118872 0.128670
0.127882 0.031431 0.286192
0.110736 -0.137137 0.303793
0.108226 -0.121038 0.365332
0.038739 0.127309 0.118641
-0.007328 -0.075049 0.037432
0.045708 -0.101849 0.120582
-0.069323 0.065062 0.226634
0.055576 0.123276 0.113040
0.062120 -0.111835 0.114272
0.117828 -0.102292 0.348241
-0.066970 0.011735 0.303609
0.066303 0.027700 0.071225
0.094916 0.000000 0.212380
0.120476 -0.126711 0.356382
0.038049 -0.065597 0.190540
0.038761 0.107339 0.117864
0.045778 0.130315 0.113438
0.033579 0.111646 0.132248
0.014728 0.029331 0.300802
0.111688 -0.121936 0.291023
0.037899 -0.130758 0.122904
0.110720 0.131628 0.313071
0.105868 0.031500 0.218679
0.037988 0.063522 0.124282
0.085964 -0.131185 0.301730
0.050243 -0.135090 0.114705
0.114641 -0.130691 0.328833
0.048239 0.100049 0.118474
-0.044071 -0.061799 0.037565
0.124365 -0.111431 0.344413
0.091041 0.035500 0.329801
0.061541 0.126978 0.117783
0.041773 -0.103136 0.129897
0.044000 -0.045000 0.174736
0.084554 -0.119978 0.302723
-0.014815 0.068411 0.037614
0.033856 -0.118859 0.128512
-0.071959 0.022685 0.037407
0.113792 0.126341 0.367364
0.100753 0.102580 0.323341
0.100001 -0.015105 0.313626
0.052691 -0.136316 0.115674
0.123034 0.127082 0.348472
0.109935 0.137869 0.304905
0.106005 0.132851 0.326393
-0.042766 -0.066472 0.101129
0.111291 0.131191 0.293514
0.059179 0.140745 0.132186
0.113997 0.121105 0.290360
0.059230 -0.121978 0.111913
0.122874 0.125200 0.356855
0.105847 -0.035500 0.321891
0.088678 0.110244 0.313111
0.112018 0.035500 0.223775
0.055530 0.139544 0.117541
0.093706 -0.101376 0.296978
0.070767 -0.002500 0.039031
0.057864 0.122315 0.113725
0.112108 -0.122278 0.293240
0.090273 0.135677 0.308572
0.103197 0.138360 0.305934
0.053358 -0.134732 0.115401
0.105266 -0.138398 0.303835
-0.084444 0.001000 0.296899
0.009397 -0.072001 0.032570
0.009484 0.063255 0.223954
0.100011 0.000000 0.325762
-0.059503 0.047404 0.037831
0.083095 0.123068 0.301622
0.010721 0.072545 0.040144
0.036858 0.109066 0.115978
0.001766 0.070661 0.039375
0.056026 -0.031500 0.332485
0.048910 -0.106752 0.112244
0.049982 -0.104119 0.115288
0.072271 -0.005717 0.063299
-0.028262 -0.070528 0.037732
0.057596 -0.114498 0.112380
0.126873 0.029463 0.292487
0.121155 -0.126221 0.359557
0.037737 -0.127984 0.116981
0.055190 0.045123 0.100869
0.039164 -0.131097 0.119660
0.111703 0.114283 0.285850
0.047657 -0.128623 0.112848
0.052521 0.103016 0.117698
-0.055610 -0.060869 0.084606
0.118939 -0.031500 0.309532
0.035090 0.122156 0.122229
0.035993 0.113470 0.115969
0.053279 -0.124563 0.113261
0.034425 0.116175 0.119896
0.039718 0.139181 0.130487
0.053202 -0.128665 0.114248
0.062366 0.030520 0.335373
-0.019709 0.073308 0.037905
0.109409 0.135622 0.301246
0.105497 0.140279 0.305306
-0.037646 -0.077296 0.258033
0.097066 -0.101943 0.310095
0.120535 -0.035478 0.302779
0.061146 0.139981 0.131621
0.089436 0.130777 0.305465
0.038548 -0.105238 0.122636
0.046045 -0.128257 0.115328
0.108016 -0.031500 0.320418
0.107835 -0.114425 0.296095
0.032588 -0.111570 0.127100
0.132022 0.035500 0.277263
0.095941 -0.124689 0.303178
0.006374 0.031500 0.280697
0.106566 -0.139648 0.306744
0.045116 0.057247 0.114451
0.041820 0.128881 0.114726
0.057711 -0.116175 0.112347
0.055646 -0.030038 0.333482
-0.060091 -0.046539 0.054250
0.033140 0.069375 0.188947
0.115722 0.105314 0.366811
0.061237 -0.029803 0.331488
0.056632 -0.130817 0.116447
0.051370 -0.134063 0.112919
0.089156 0.016375 0.319563
0.040059 -0.064197 0.037476
0.063743 -0.116998 0.119703
0.056451 0.105768 0.112938
0.078685 0.035500 0.332959
0.127603 -0.122010 0.363259
0.100431 0.029000 0.324879
0.118875 -0.029535 0.312784
0.105708 -0.031431 0.318992
0.063256 0.031530 0.039198
0.062350 -0.029535 0.335652
-0.049679 0.034441 0.305348
0.063074 0.037826 0.100302
0.101888 0.015173 0.228537
0.035708 -0.123899 0.117154
0.099003 -0.140088 0.308792
0.056894 -0.050317 0.037952
0.108973 0.134758 0.307906
0.045135 0.139246 0.116255
0.109920 -0.137903 0.304977
0.126231 0.124528 0.355370
0.051681 -0.124967 0.113559
-0.005519 -0.078885 0.194837
0.093644 -0.101545 0.298266
0.083593 0.111700 0.299084
-0.007265 0.032959 0.268986
0.076190 0.123805 0.225334
0.096712 0.123667 0.298862
0.113486 0.119119 0.294669
0.036066 0.034441 0.202632
0.084966 -0.030520 0.333570
0.092204 -0.114730 0.333518
0.090127 -0.117650 0.327460
-0.061087 -0.037568 0.031969
0.007051 -0.072136 0.037353
-0.073796 0.015618 0.037406
0.035268 0.063862 0.200105
0.092204 -0.117620 0.333518
0.116228 -0.031500 0.312760
-0.014447 -0.071533 0.249082
-0.069642 0.019786 0.037327
0.065213 0.120668 0.120406
0.090062 -0.031500 0.210812
0.037971 -0.130801 0.126833
0.115173 0.123122 0.307223
0.052320 0.030242 0.329366
0.037771 0.065322 0.163327
0.129028 -0.031500 0.249716
0.048517 0.108623 0.129770
0.110507 0.135396 0.293746
-0.006018 -0.069646 0.040157
0.122428 -0.035500 0.304491
0.109621 -0.128684 0.284334
0.125446 0.117453 0.345583
0.087827 0.122596 0.309819
0.098583 0.031500 0.326510
0.128384 -0.111511 0.356328
0.083548 -0.123066 0.303038
0.059054 -0.138744 0.132221
-0.021714 -0.078164 0.226683
0.109571 -0.135037 0.300642
0.000080 0.063749 0.239596
0.036249 0.111501 0.118325
0.071950 -0.006098 0.064788
0.104188 0.140371 0.305251
0.089711 -0.114675 0.300425
0.049893 0.125574 0.114045
0.073954 -0.014310 0.052327
0.034738 0.120383 0.128207
0.054775 -0.115821 0.116581
0.107266 0.113990 0.368891
0.035120 0.110698 0.120927
0.078515 -0.035500 0.333037
0.086363 0.126439 0.300612
0.035563 -0.120650 0.131679
-0.049679 0.034441 0.305348
-0.005372 -0.072046 0.069428
0.104291 0.099471 0.301528
-0.083586 -0.017694 0.163842
0.093634 -0.099300 0.296855
0.114589 0.128654 0.331112
-0.080801 0.012096 0.300553
0.082621 -0.107827 0.225873
0.127825 -0.109847 0.361038
0.123711 0.106177 0.364173
0.108841 -0.131781 0.284557
0.097380 -0.101125 0.302983
-0.080423 0.013076 0.116756
0.106249 -0.130895 0.325961
0.122808 0.125622 0.338394
0.046510 0.129964 0.115297
0.108008 0.137439 0.303658
0.057247 -0.130778 0.117055
0.018143 -0.064828 0.207504
0.019378 -0.061947 0.213672
0.088264 -0.127588 0.311077
0.112798 -0.132491 0.310120
0.055726 -0.135397 0.114414
0.035977 0.131237 0.126643
0.112798 -0.132491 0.310120
0.116703 -0.123883 0.305651
0.052364 -0.051398 0.111981
-0.077576 -0.002500 0.301858
0.063469 -0.036775 0.100656
0.051403 0.055536 0.037450
0.055026 -0.003000 0.111797
-0.023220 -0.079504 0.266894
0.023737 0.068784 0.032514
0.057325 0.116175 0.119453
0.095941 -0.107661 0.303178
0.092931 0.125040 0.327838
0.034973 0.127030 0.127768
0.104644 -0.138649 0.293044
0.122358 -0.030333 0.240294
0.076262 -0.125500 0.225288
0.098707 -0.131900 0.318988
0.038794 0.062869 0.196582
0.083072 0.109975 0.226302
0.055740 0.116175 0.110303
0.122072 -0.016411 0.274197
0.075730 0.006033 0.042891
0.110958 -0.124126 0.368218
0.038512 -0.135325 0.118401
0.103492 0.099478 0.317513
0.042727 0.103808 0.114855
0.038610 -0.130862 0.129767
-0.046560 0.075945 0.226662
0.045981 0.132143 0.113414
0.027490 -0.066978 0.037353
0.086165 0.136891 0.291063
0.038748 -0.138432 0.120888
0.095903 -0.133101 0.318497
0.095074 -0.127578 0.327859
-0.006719 -0.034429 0.267835
0.039357 0.124593 0.117250
-0.048490 -0.033608 0.304511
0.053763 0.049890 0.112010
0.089058 0.136945 0.299872
0.042850 0.104111 0.117479
0.105956 -0.110868 0.360548
0.042534 0.128401 0.116548
0.036810 0.112348 0.115716
0.111956 0.016500 0.316700
0.056577 -0.131408 0.113998
-0.047043 0.032042 0.304441
0.062818 0.035418 0.330977
0.094526 0.129775 0.321804
0.132770 -0.030520 0.283955
0.092066 0.031500 0.211214
-0.080348 0.001000 0.299677
0.017275 -0.071727 0.100305
-0.075499 0.041047 0.300408
0.100805 -0.030670 0.218173
0.110499 -0.137909 0.301372
0.062775 -0.128062 0.123871
0.056200 -0.103520 0.120309
-0.022525 0.080107 0.259194
0.066885 0.035500 0.333680
0.038874 0.001000 0.330577
0.101490 -0.128549 0.331897
0.048155 -0.128291 0.114764
0.088101 -0.104461 0.297790
0.093522 -0.101393 0.296651
0.119547 0.126747 0.360665
0.091690 0.035427 0.212464
0.125038 -0.106529 0.361837
0.017096 0.029000 0.233811
0.119541 -0.127926 0.364796
0.057027 -0.049987 0.037589
0.031783 0.116175 0.125202
0.055225 -0.108257 0.111110
0.089804 0.114533 0.300667
0.063336 0.041896 0.037730
0.046586 -0.054312 0.114126
0.035628 -0.127277 0.119577
0.072880 0.029000 0.333224
0.041335 -0.134865 0.117889
0.063625 -0.112275 0.121648
0.025153 0.030237 0.227487
0.113907 0.035476 0.311546
0.032609 -0.112372 0.128611
0.032133 -0.118499 0.127231
0.092066 0.031500 0.211214
0.107278 -0.140161 0.302832
-0.067860 0.017148 0.037462
0.080616 -0.114029 0.292915
0.035007 0.110546 0.121770
0.053278 0.128671 0.114258
-0.066161 0.021776 0.031693
0.077271 0.108388 0.224797
0.117828 -0.102292 0.348241
-0.053317 0.073398 0.287785
0.084869 0.129224 0.299994
-0.021718 -0.076573 0.195311
0.103147 -0.138274 0.306792
-0.075783 -0.001000 0.037549
0.111463 -0.135707 0.302955
0.112240 0.120329 0.290986
0.080062 -0.029535 0.334774
0.037305 -0.063484 0.198684
0.041120 0.060511 0.118130
0.056745 0.103358 0.116034
0.035078 -0.121891 0.121566
0.115240 -0.121772 0.304881
0.058114 0.114504 0.110441
0.066476 -0.113675 0.122809
0.036258 -0.122701 0.119226
0.132338 -0.031500 0.266030
0.050885 0.138462 0.118860
0.041239 -0.107237 0.114446
-0.024573 -0.079998 0.268241
0.107960 0.114470 0.296501
-0.079752 -0.044105 0.273713
0.091883 -0.117042 0.302261
0.038913 0.047148 0.197921
-0.081393 -0.001000 0.100217
0.034425 0.116175 0.119896
0.040563 -0.134992 0.116223
-0.063718 0.041255 0.037535
-0.004156 -0.031893 0.265206
0.083013 -0.131798 0.291968
0.056048 0.046388 0.112419
0.129111 -0.030333 0.258644
0.046693 -0.103658 0.113558
0.046614 -0.130466 0.113219
0.120107 -0.031238 0.231042
0.077801 0.123973 0.224635
0.114200 -0.127387 0.301479
0.131450 -0.016500 0.262258
0.103371 0.099487 0.295888
0.046154 -0.100160 0.118757
0.095991 0.105667 0.324707
0.128838 -0.116175 0.363088
0.055051 -0.114426 0.118234
0.048931 -0.125660 0.112239
0.097420 0.140378 0.306934
0.049080 0.135704 0.115163
-0.027461 -0.080425 0.268014
-0.063958 -0.057586 0.100267
0.112292 0.031500 0.316771
0.041624 -0.003000 0.115474
0.106510 0.140269 0.293701
-0.045570 0.074906 0.273676
-0.076616 -0.001000 0.076942
0.051576 -0.102290 0.118898
0.106859 0.138617 0.285126
0.057616 -0.122482 0.113635
0.118842 0.125229 0.329892
0.054036 0.124731 0.111220
0.111833 -0.131195 0.295788
0.057282 -0.116749 0.119365
0.045080 0.108918 0.121401
0.023169 -0.074340 0.192907
0.046492 0.052513 0.038435
-0.036781 0.059877 0.038711
0.053925 -0.135265 0.113563
0.033565 -0.111700 0.132252
0.072267 -0.002286 0.064677
0.055548 0.031212 0.334021
0.084986 0.138606 0.291402
0.120055 0.126954 0.353187
0.034994 0.028954 0.169730
0.096551 -0.112078 0.344270
0.034082 -0.121600 0.117994
0.054009 -0.015219 0.325646
0.091349 0.135608 0.306397
0.085934 0.131185 0.301638
0.032588 -0.120780 0.127100
0.105847 -0.015000 0.321495
0.016313 0.034448 0.217182
0.032674 0.061884 0.037474
0.125624 -0.116175 0.335929
0.072668 0.001051 0.056707
0.134240 0.029535 0.276008
0.095759 -0.131537 0.316273
0.074134 -0.110296 0.230889
0.122358 -0.030333 0.240294
0.087776 0.028805 0.212313
0.038210 -0.131691 0.117748
0.049231 0.053288 0.113121
0.101491 -0.112405 0.357186
0.094115 0.122658 0.297666
0.052274 -0.129310 0.112291
0.074283 0.124689 0.227693
0.094660 0.131407 0.314885
0.051681 -0.107383 0.113559
0.111375 -0.118321 0.284090
0.041120 -0.060511 0.118130
0.036058 0.113123 0.118191
-0.079835 -0.053207 0.258051
0.106216 0.140275 0.292593
0.095753 -0.125128 0.298627
0.059455 -0.135402 0.118103
0.091203 0.130966 0.309257
0.106209 0.117924 0.296540
0.111078 0.135400 0.296403
0.121493 0.015000 0.305331
0.029058 0.035500 0.316375
0.114790 -0.035500 0.314157
0.132770 0.030520 0.283955
0.059260 0.029000 0.207627
0.042280 -0.134719 0.115046
0.064642 -0.118499 0.117904
0.094407 0.136072 0.313075
0.114134 -0.130947 0.329333
0.034980 -0.120075 0.129867
0.122691 0.031500 0.236474
0.112442 -0.131311 0.299036
0.109108 0.132076 0.317059
-0.046179 -0.076026 0.226669
0.029855 -0.065484 0.069389
-0.081694 0.042750 0.242345
0.122306 -0.108085 0.331109
-0.011153 -0.065216 0.269212
-0.008484 0.048196 0.268898
-0.062670 0.046843 0.069990
0.046252 -0.132360 0.113345
-0.065543 -0.042154 0.070014
0.108051 -0.134682 0.310340
0.041541 -0.104375 0.118246
0.038946 -0.125315 0.115340
-0.049790 -0.034441 0.305432
0.093219 0.138093 0.305316
0.097104 -0.128652 0.330013
0.119039 -0.113422 0.317030
-0.085409 -0.026519 0.287072
-0.085599 0.001000 0.290722
0.109843 0.132061 0.331690
0.051277 0.052492 0.040056
0.040322 -0.105035 0.115385
0.045907 0.106181 0.115187
-0.071188 0.013214 0.037327
0.053467 -0.140509 0.119963
0.051969 -0.055368 0.037759
0.062496 -0.127028 0.119811
0.039706 -0.045500 0.184429
0.035110 0.122103 0.126496
0.034599 -0.112372 0.128040
0.123812 0.031431 0.297006
0.041210 -0.029500 0.181471
0.010810 -0.077833 0.202978
0.008315 0.075383 0.037563
0.054701 0.124467 0.111174
0.019487 0.029014 0.309738
0.121854 -0.124983 0.345133
0.069000 0.031238 0.334825
0.054629 -0.138556 0.121520
0.112730 -0.126847 0.304078
0.062177 0.139197 0.131325
0.035191 0.110048 0.126472
0.103721 0.140282 0.306643
0.044935 0.130466 0.113701
0.034538 -0.112493 0.127849
0.111437 -0.106610 0.362345
-0.077324 0.035171 0.300402
0.100895 0.035500 0.325136
0.022400 0.037771 0.184261
0.102450 -0.100131 0.294496
0.117902 0.111383 0.305683
0.035002 -0.122086 0.125388
0.107479 -0.137648 0.284948
0.051720 -0.046987 0.040059
0.098794 0.105356 0.339400
0.101888 0.099080 0.303718
0.059256 -0.127074 0.114593
-0.050201 -0.060333 0.304141
-0.038358 -0.078251 0.194847
0.063827 0.121476 0.123570
0.055450 -0.138610 0.123425
0.051845 0.048190 0.113509
0.035090 0.117830 0.118917
0.109935 -0.118067 0.286324
0.094865 0.099457 0.301411
0.071717 0.022884 0.053054
0.108152 0.112038 0.365831
0.033473 0.123031 0.120980
-0.047617 0.063562 0.068862
0.098399 -0.099571 0.310622
0.055887 -0.030520 0.334812
0.039507 0.135169 0.117187
0.020800 -0.035000 0.181086
0.097025 -0.125446 0.338362
0.110898 0.135957 0.306777
0.031972 -0.067227 0.188357
0.037507 0.061288 0.200076
0.037358 -0.036750 0.143388
0.118059 0.031500 0.310628
0.106073 0.140268 0.304721
0.115249 -0.112407 0.294036
0.074134 -0.108235 0.230889
0.044820 -0.105831 0.115527
0.009234 0.063993 0.223732
0.034016 -0.123036 0.130627
0.113756 0.118913 0.294466
0.100952 0.029535 0.327448
0.043249 0.058073 0.037327
0.108738 -0.114072 0.299507
-0.011616 0.030520 0.307408
0.021423 0.034448 0.212800
0.093845 -0.137439 0.307721
0.112928 0.016409 0.300335
0.037450 0.031500 0.187292
0.114577 -0.128385 0.327827
0.132410 -0.031500 0.273225
0.058222 0.130748 0.118308
0.055101 -0.029535 0.334998
0.109669 -0.122596 0.365768
0.061648 0.131278 0.120828
0.047826 -0.052953 0.100909
-0.054944 0.076198 0.242223
0.051547 0.135484 0.115138
0.042450 -0.125660 0.114098
0.107106 -0.138113 0.297743
0.110196 -0.135525 0.292611
0.126576 0.109375 0.363737
-0.045986 -0.076168 0.242342
0.106322 -0.035500 0.219093
-0.006491 0.064466 0.265695
0.109450 -0.107258 0.366310
0.048961 0.136360 0.115456
0.071692 0.030333 0.331531
0.048600 0.126012 0.114416
0.128442 0.117504 0.351129
-0.007032 -0.080234 0.218947
0.043723 0.131552 0.116363
0.111629 0.029000 0.316728
0.096492 0.139128 0.310342
0.036394 0.122774 0.119060
-0.037647 -0.073338 0.163957
0.046351 -0.106132 0.112979
0.117710 0.125312 0.313434
-0.018734 0.069963 0.037327
0.050430 0.128982 0.112359
0.111543 0.122299 0.291065
0.072455 -0.010377 0.057620
0.043096 0.126269 0.113931
0.090185 0.000000 0.330211
0.055787 0.118278 0.114953
0.100822 -0.098927 0.302742
0.105902 0.127931 0.353387
0.061104 0.044319 0.037404
0.120990 0.126421 0.357396
0.038740 0.058460 0.038455
0.103631 0.101466 0.299415
0.044848 0.133035 0.113779
0.122987 -0.029463 0.239940
0.109561 0.135038 0.300448
0.032771 0.112328 0.129443
0.053725 0.124137 0.122719
0.061137 0.029254 0.332206
0.036840 -0.107843 0.129332
0.123296 -0.109274 0.344720
0.129151 -0.116175 0.362815
0.103230 -0.138739 0.286167
0.081578 0.112164 0.299988
0.057213 -0.117039 0.119219
0.084388 -0.137644 0.291573
0.053143 -0.046701 0.113535
0.041321 0.134638 0.137309
0.117072 -0.108311 0.317594
0.050262 0.050644 0.100883
-0.045492 -0.060884 0.037874
0.066730 0.026691 0.071221
0.108829 0.136392 0.303862
0.090160 0.035500 0.330088
-0.019729 -0.073379 0.037931
0.111725 -0.126501 0.298521
0.107517 0.140144 0.301219
-0.023220 0.079504 0.266894
0.040794 0.107770 0.116656
0.034295 0.031893 0.205745
-0.016188 -0.075731 0.241392
0.010706 0.034448 0.223602
0.107138 -0.117184 0.365644
0.064091 0.111700 0.123494
0.053364 0.099876 0.121281
0.115438 0.118913 0.293984
0.037443 -0.110269 0.117745
-0.065024 0.026575 0.038542
0.101977 0.139460 0.309742
0.037826 0.107917 0.115701
0.120020 0.106119 0.362798
-0.007989 0.066408 0.265909
-0.041648 0.065361 0.085464
0.114309 0.120186 0.290597
-0.075779 0.037496 0.095758
-0.021510 0.066618 0.037669
0.083593 -0.111700 0.299084
0.055398 0.118880 0.110401
0.033796 0.062131 0.203476
0.018000 -0.035850 0.184261
-0.055349 -0.049351 0.305453
0.093335 0.016383 0.317637
0.063256 0.031530 0.039198
0.068219 0.018463 0.039135
0.062322 0.042560 0.037405
0.037140 -0.137037 0.125866
0.112349 0.126877 0.359875
-0.050295 0.059633 0.304343
-0.053035 0.053778 0.037409
0.102434 0.099085 0.301609
0.037149 0.062585 0.032405
0.034023 -0.107818 0.122333
0.109850 -0.137508 0.293973
0.035873 -0.131206 0.123531
0.086194 0.131187 0.302407
-0.057596 -0.053146 0.053101
0.041971 0.125287 0.116318
0.102141 -0.124755 0.352742
0.126236 0.121266 0.360643
0.027802 -0.069534 0.190255
0.051887 -0.134865 0.114862
0.042088 -0.100637 0.129807
0.073708 0.015340 0.053059
0.071557 0.011569 0.037327
0.049637 -0.101851 0.119454
0.108789 -0.109205 0.367881
-0.060091 -0.046539 0.054250
0.042858 0.104895 0.114257
0.050278 -0.123081 0.116013
0.106691 -0.103535 0.341644
0.115396 -0.130822 0.338863
0.054533 0.123851 0.113070
0.100761 -0.117388 0.351185
-0.042252 -0.067731 0.084587
0.036718 0.047148 0.201598
0.037080 -0.118067 0.138191
0.117815 -0.126963 0.319517
0.046290 0.140112 0.117540
-0.010108 -0.071385 0.237368
0.090125 -0.117838 0.301773
0.102606 -0.035500 0.216609
0.049186 0.131562 0.114812
0.055972 0.031238 0.334087
0.090185 0.000000 0.330211
0.127451 0.115114 0.360294
-0.062021 -0.043964 0.037696
-0.068952 0.041808 0.085847
0.130648 0.031500 0.285510
0.049246 -0.131280 0.114780
-0.003519 -0.075865 0.037755
0.035846 0.131210 0.125027
0.052983 -0.129432 0.112340
0.106209 -0.138237 0.304306
0.091276 -0.127135 0.313229
0.054910 -0.102297 0.122319
0.034820 -0.126998 0.126751
-0.011121 -0.031500 0.305760
-0.070105 0.002205 0.031351
0.040500 0.000000 0.176312
-0.008484 -0.048196 0.268898
0.111257 -0.135428 0.297578
0.055192 0.029898 0.334969
0.128951 0.114891 0.354589
-0.076409 -0.048975 0.287488
0.093546 -0.139566 0.308070
0.048264 -0.138446 0.118958
0.040818 0.031500 0.329984
0.116341 -0.125632 0.319766
0.066064 0.112200 0.122435
0.132171 0.035500 0.265438
0.016219 -0.071470 0.040165
0.038909 0.127401 0.118507
0.061004 -0.120252 0.116193
0.057485 0.045785 0.110140
0.074134 0.108235 0.230889
-0.071052 -0.044601 0.101301
0.094972 -0.114846 0.335385
-0.073217 -0.003000 0.302775
0.088390 0.135735 0.305245
0.064367 0.128502 0.130697
0.101232 0.000000 0.327944
0.039968 0.030500 0.175809
0.055622 -0.046355 0.037353
0.048264 0.138446 0.118958
-0.079865 -0.042415 0.163907
-0.078173 -0.001000 0.301928
0.084291 0.128421 0.295217
-0.015623 -0.002500 0.304863
0.033288 -0.122960 0.121881
0.112686 0.126822 0.303788
0.034809 -0.121173 0.116967
0.122954 -0.127455 0.360456
0.113482 -0.113228 0.294670
0.129351 -0.031500 0.250652
0.100413 0.031448 0.218116
0.116007 0.121040 0.298167
0.059518 0.121807 0.112058
0.107896 -0.132282 0.318327
0.123365 0.114649 0.325964
0.047610 -0.126073 0.114698
-0.053324 -0.048928 0.037353
0.040397 -0.131573 0.118388
0.009007 -0.071533 0.069406
-0.069220 -0.051845 0.100262
0.054599 -0.127944 0.112202
0.112835 0.131534 0.302156
0.044963 0.136270 0.114039
0.112375 0.112200 0.291319
0.118601 0.031500 0.309974
0.104209 0.138674 0.293169
0.041069 0.058341 0.114664
-0.036077 -0.070768 0.100284
0.101815 -0.130247 0.325961
0.053197 -0.122528 0.111015
0.121997 0.117581 0.328987
0.030456 -0.065760 0.037353
0.056103 0.001000 0.113663
0.056481 0.108719 0.113568
0.072689 -0.002616 0.055510
0.040545 0.124985 0.116782
0.108186 0.129303 0.352731
0.016165 -0.035500 0.239983
0.073250 0.002971 0.039840
0.059601 -0.126364 0.118214
0.046681 -0.129982 0.115250
0.035676 -0.122220 0.129666
0.086703 0.128680 0.299410
0.025218 0.067411 0.069367
0.053893 -0.124219 0.113152
0.128993 -0.118545 0.356153
-0.019683 -0.070560 0.069516
0.059611 0.106340 0.115211
0.038377 0.130833 0.128842
0.108536 0.136611 0.304227
0.041744 -0.133026 0.115222
0.039830 0.122067 0.119531
0.038761 0.107339 0.117864
0.121245 0.029000 0.235245
0.110294 -0.031500 0.222143
0.083918 0.016362 0.321429
0.055134 0.135109 0.116380
0.055784 0.042263 0.037416
-0.045662 -0.075841 0.258015
0.107505 -0.113185 0.365539
0.088390 0.135735 0.305245
0.121950 0.016411 0.275618
0.094730 -0.138153 0.306913
-0.087271 -0.017748 0.194896
0.052677 0.137451 0.116582
0.076124 -0.123788 0.225378
0.042573 0.100880 0.119784
0.083162 -0.123066 0.301833
0.108830 -0.135077 0.295215
0.124160 0.111758 0.332122
-0.085653 0.001000 0.294474
0.125378 0.015000 0.241705
-0.037270 0.065727 0.037407
0.042560 -0.140568 0.125414
-0.084370 0.024612 0.258102
-0.069066 -0.031087 0.037471
0.088949 0.135918 0.306166
0.099863 0.138065 0.308470
0.105580 -0.132827 0.326484
0.109109 -0.130107 0.331804
0.003779 0.001000 0.313207
0.036804 0.126440 0.121938
-0.007818 -0.066265 0.265773
0.054033 -0.122067 0.115456
0.097188 0.138270 0.307693
0.035934 -0.107582 0.117463
0.104754 -0.100213 0.293012
-0.023482 0.080678 0.259033
-0.051754 -0.049552 0.032178
0.116710 -0.029463 0.230814
0.061932 -0.136009 0.131396
0.088830 -0.130735 0.303963
0.020631 0.069469 0.040130
0.089274 -0.138846 0.290171
0.032558 0.120598 0.127251
0.053191 -0.124478 0.111194
0.084963 0.131689 0.291408
0.055109 -0.138584 0.122504
0.116381 -0.127744 0.357557
0.045019 0.093500 0.127728
-0.085182 -0.012239 0.294359
0.052846 -0.140208 0.117583
0.102753 -0.030520 0.214561
0.122309 -0.106740 0.355856
0.097908 -0.133526 0.319836
-0.077625 -0.040156 0.132552
0.114942 -0.016382 0.243502
0.038165 0.135366 0.118954
0.056673 0.123772 0.111332
0.039233 0.135117 0.121271
0.091738 -0.117845 0.301286
0.036716 0.109874 0.118451
0.072789 -0.010579 0.049913
0.046324 -0.129957 0.115349
0.037819 0.126844 0.119606
0.126199 0.030333 0.292229
-0.005499 0.076741 0.163330
0.114309 -0.112164 0.290597
0.037584 0.124731 0.115941
0.110641 0.130797 0.299986
0.129413 -0.015000 0.251660
0.124356 0.035500 0.239516
0.044551 0.106191 0.115578
0.102279 0.123978 0.354426
0.103832 -0.101586 0.298340
-0.018643 0.069971 0.032534
0.075663 0.007114 0.043928
0.113482 0.113242 0.294670
0.036887 0.135428 0.122280
0.103629 -0.099527 0.296551
0.052588 0.125304 0.111429
0.051860 -0.137532 0.116545
-0.041148 -0.069535 0.129086
0.008051 0.031478 0.272137
0.037825 0.063652 0.197532
0.059256 -0.127074 0.114593
0.090138 0.135049 0.304504
0.049000 0.050320 0.032191
0.037351 0.126641 0.120370
-0.065007 -0.026462 0.039969
0.084185 -0.116913 0.303004
0.042560 -0.140568 0.125414
0.034298 0.120087 0.122927
0.043654 0.058495 0.115408
-0.071693 0.034882 0.085870
0.108599 0.135093 0.294236
-0.049906 -0.047817 0.032148
0.035511 -0.114558 0.118471
0.057068 -0.127373 0.112956
0.053966 -0.099584 0.123555
0.061473 0.044586 0.037730
-0.071047 0.001000 0.037380
0.045271 -0.101395 0.128477
0.111222 -0.131179 0.306935
0.034174 -0.118078 0.121023
0.037002 0.118931 0.117741
0.106348 -0.140256 0.304419
0.044062 -0.138622 0.136523
0.040077 0.061308 0.120108
0.069916 0.002816 0.037247
0.107237 0.130893 0.325674
-0.071948 0.062022 0.242304
-0.048486 0.062359 0.085564
0.099144 0.031500 0.326222
0.040524 0.022991 0.326485
0.051193 0.136648 0.113377
0.052063 -0.022991 0.329844
0.091514 -0.139251 0.306252
0.109344 -0.133977 0.318111
-0.082517 -0.002500 0.133320
0.117927 0.015088 0.291301
0.053527 0.135023 0.115523
-0.081565 0.001000 0.298529
0.009035 -0.031238 0.315854
-0.071052 -0.044601 0.101301
0.090949 0.116176 0.299173
0.093027 -0.016383 0.317800
-0.010877 -0.048168 0.269509
0.060148 -0.035500 0.207566
0.037294 0.103899 0.128416
0.038914 -0.104806 0.125268
0.083593 -0.111700 0.299084
0.108493 -0.136925 0.297495
0.036858 0.109066 0.115978
0.071723 0.029463 0.332253
0.113698 0.116868 0.294536
-0.020630 0.080845 0.247735
0.105061 0.134375 0.320420
0.090384 0.104438 0.313578
0.110435 -0.129976 0.331323
-0.086743 -0.001000 0.162047
0.132079 0.031500 0.277428
0.082781 0.123078 0.300622
0.047499 -0.134447 0.113111
0.111494 0.135666 0.302313
0.094845 0.136109 0.313395
0.060169 0.138267 0.131902
0.128677 0.035478 0.282384
0.069064 0.016121 0.210654
0.100247 0.015105 0.313388
0.044000 -0.023500 0.168736
0.105902 0.127931 0.353387
0.116333 -0.125120 0.317806
0.019253 0.029334 0.307740
0.132465 -0.031500 0.271916
0.123912 0.106985 0.343428
0.037461 0.112108 0.117610
0.038613 0.135117 0.125103
0.071571 -0.035443 0.331236
0.107599 0.117522 0.295029
0.052410 0.030952 0.329088
0.095941 -0.124689 0.303178
0.052254 -0.140193 0.117355
0.038231 -0.137175 0.130913
0.055828 0.140643 0.124600
0.033857 -0.114354 0.128259
0.078685 0.035500 0.332959
0.128754 -0.114194 0.363100
0.043157 -0.140643 0.128236
0.087579 -0.130720 0.300408
-0.075368 0.028763 0.094927
0.050961 -0.129074 0.112313
0.034701 -0.126979 0.125535
0.055619 -0.115308 0.119681
0.114920 0.128021 0.306944
0.102622 0.122375 0.294441
0.057801 0.122435 0.113744
0.038123 0.066341 0.186512
0.093464 0.101400 0.296564
0.024735 0.032970 0.210511
0.102621 -0.031431 0.321219
0.060041 0.104091 0.119366
0.051806 -0.029629 0.332972
0.051530 0.125693 0.111646
0.046804 -0.052290 0.032226
0.110584 -0.137308 0.304078
0.091219 0.125520 0.321945
0.100769 -0.134758 0.314356
0.052655 0.031243 0.330149
0.108621 0.137073 0.301128
0.117893 -0.015088 0.291286
0.042403 0.100270 0.124555
0.044436 0.106261 0.113528
0.071683 -0.009339 0.062994
-0.085805 -0.001000 0.145362
0.095868 0.099471 0.303945
-0.042293 -0.069014 0.126276
0.034145 -0.115351 0.127924
0.021097 -0.063507 0.211508
0.089353 0.127902 0.313418
0.112557 0.016409 0.300916
0.081562 -0.111869 0.299697
0.045090 0.138846 0.136228
-0.074870 -0.001000 0.038457
0.069502 -0.023248 0.039955
0.054453 -0.100282 0.120952
0.121155 -0.126221 0.359557
0.049962 0.139331 0.115430
-0.024404 0.080871 0.258009
0.105251 -0.112767 0.365535
0.061457 0.105771 0.118959
0.049083 0.050246 0.032190
0.053296 -0.135006 0.115428
0.124784 -0.015000 0.240747
0.061537 -0.126981 0.117777
0.053843 0.102208 0.121121
0.035389 0.120227 0.131483
0.043408 -0.135117 0.116353
0.105337 -0.138544 0.298031
-0.077415 -0.023308 0.101230
0.050622 0.104347 0.112591
0.109127 -0.135063 0.296689
-0.039438 -0.075227 0.289670
-0.071421 0.003573 0.039645
0.099915 0.137736 0.309106
0.041971 0.125287 0.116318
-0.004150 -0.076891 0.216891
-0.068590 0.017325 0.039192
0.062850 0.122208 0.121620
-0.080076 0.051609 0.178931
0.097601 0.133463 0.319670
0.044573 0.126023 0.115569
0.063726 0.113997 0.116037
-0.073664 0.033934 0.092940
-0.067515 0.034904 0.037680
-0.009376 0.034437 0.269583
0.121723 0.105780 0.365129
0.051845 0.048190 0.113509
0.088842 0.127749 0.312348
0.034196 0.108816 0.119323
0.114121 0.130724 0.319482
-0.075331 0.031585 0.098269
0.124365 -0.111431 0.344413
0.122874 0.125200 0.356855
0.113379 -0.128456 0.315841
0.106866 -0.115718 0.298160
-0.087025 0.001000 0.250748
0.128701 0.029463 0.253764
0.057821 0.127246 0.113396
0.093704 -0.100131 0.297194
0.039198 -0.006695 0.118740
0.130547 0.016500 0.255940
0.054775 -0.115821 0.116581
0.057276 0.102752 0.125449
-0.081631 -0.036071 0.294442
0.119534 0.104250 0.364327
0.064549 0.016497 0.333479
0.105214 -0.101539 0.307758
0.120818 -0.121369 0.327970
-0.062791 -0.036762 0.305672
0.051317 0.047585 0.037433
0.003379 0.000000 0.311696
-0.066608 -0.064453 0.273632
0.089617 -0.117522 0.300189
0.113342 -0.127450 0.309534
0.119682 -0.103119 0.355678
0.045733 0.135374 0.115585
-0.017847 0.080801 0.240142
0.053415 0.104514 0.115678
-0.029573 0.077963 0.226674
-0.066114 0.020836 0.303450
0.056149 -0.035384 0.329921
0.051435 0.047690 0.038421
-0.029111 0.077577 0.270928
0.042382 0.029535 0.332432
0.054149 -0.106962 0.113701
0.049106 -0.134657 0.112975
0.071897 -0.003000 0.069388
0.075387 0.010993 0.048382
0.086549 -0.139998 0.290953
0.041624 -0.003000 0.115474
0.107793 0.114435 0.295941
0.098796 -0.123973 0.298718
0.114788 0.035500 0.314157
0.054126 0.110216 0.112831
-0.047449 0.062393 0.301939
0.103952 -0.129383 0.332809
-0.032202 -0.076200 0.279744
0.040120 -0.101894 0.120584
0.110605 0.114283 0.284386
0.054862 -0.136429 0.116723
0.090224 0.114780 0.302277
0.042990 -0.107661 0.118624
0.084492 0.129662 0.291543
-0.049337 -0.033608 0.305333
-0.008704 0.067014 0.266232
0.094617 0.109456 0.298054
-0.066626 0.062165 0.287767
0.053608 0.140514 0.120103
0.051272 0.055395 0.037406
0.066911 -0.114283 0.129575
0.039683 -0.030501 0.185844
0.038094 -0.063181 0.100306
0.037816 -0.130764 0.125432
0.042505 0.132251 0.114759
0.018715 -0.064223 0.212777
-0.064659 0.039336 0.054196
0.107519 -0.116388 0.294408
0.132045 0.015000 0.269739
0.057388 0.135434 0.115626
0.010757 -0.067497 0.216635
0.062047 -0.131288 0.121956
-0.000063 0.029535 0.312130
-0.024754 -0.078277 0.261585
0.040721 0.117115 0.123909
0.038350 -0.136999 0.119583
0.114123 0.104710 0.319505
-0.037362 0.061497 0.032386
0.054852 0.138569 0.121942
0.059719 0.135400 0.118534
0.035965 0.108326 0.124818
0.110172 -0.133779 0.317242
0.048236 0.123677 0.129770
0.102724 -0.137751 0.308390
0.045116 0.057247 0.114451
-0.068146 0.015717 0.037437
0.090718 0.016256 0.221769
0.114788 0.035500 0.314157
0.075662 -0.001000 0.037482
-0.006227 0.065582 0.257352
0.045758 -0.031500 0.211283
0.008133 -0.069411 0.040156
0.055787 -0.114072 0.114953
-0.071090 -0.001000 0.305969
0.036608 0.131349 0.120282
-0.078722 -0.028946 0.300414
0.059387 -0.123147 0.112617
0.055644 0.118254 0.112393
0.092261 0.138608 0.299224
0.063047 0.130285 0.131076
0.127009 0.122581 0.351541
0.109633 0.016362 0.236047
0.013723 0.068868 0.032515
0.059518 0.110543 0.112058
0.108518 -0.134128 0.318783
-0.062504 -0.051877 0.304142
0.040638 0.103518 0.126515
0.087428 -0.123848 0.313770
-0.073368 0.017883 0.037406
0.001887 -0.071437 0.100935
0.113007 0.132123 0.307482
0.046925 -0.126541 0.114916
0.119716 -0.015000 0.232576
0.051411 0.140467 0.118881
0.053736 0.129546 0.112447
0.073398 0.001000 0.084887
0.106381 -0.031238 0.322882
0.090001 -0.126833 0.310436
0.056906 -0.049881 0.037475
0.096696 0.128753 0.322109
0.043222 -0.035500 0.328279
0.097385 -0.106850 0.298912
0.109760 -0.136177 0.309860
0.113659 -0.015123 0.241377
0.072524 0.010717 0.039874
0.050688 -0.099808 0.119589
0.055117 0.135363 0.114077
0.113637 0.016377 0.241382
0.051542 0.124109 0.111489
0.093311 0.129310 0.320216
0.053623 0.138515 0.120153
-0.011662 0.080577 0.225721
0.106174 0.114435 0.296412
0.036772 0.066136 0.037450
0.060169 0.119052 0.114551
0.045348 0.056556 0.037327
0.064082 -0.112200 0.123004
0.040580 -0.117845 0.122979
-0.069187 0.051823 0.100035
-0.037115 0.075889 0.282411
0.048581 -0.139276 0.115437
0.046614 -0.130466 0.113219
0.041131 0.101856 0.118782
0.044670 -0.126737 0.113496
0.096536 -0.123081 0.303528
-0.065548 0.029645 0.031830
0.077041 -0.027161 0.207483
0.109635 -0.122696 0.368586
0.105934 0.137974 0.305790
0.072271 -0.005717 0.063299
0.116834 -0.031500 0.228610
0.062257 -0.120413 0.118571
0.090189 -0.140238 0.299608
0.108124 0.114670 0.296947
0.062630 -0.124591 0.123913
0.065546 -0.030031 0.067331
0.089729 -0.131692 0.310482
0.089594 -0.126750 0.309479
0.106491 -0.139228 0.307714
0.112114 0.035476 0.313345
0.036974 -0.131348 0.131274
0.121690 -0.116175 0.318405
0.038094 -0.063181 0.100306
-0.003732 0.032970 0.254532
0.084912 0.123193 0.307088
0.111928 0.129811 0.321868
0.036858 0.109066 0.115978
0.055493 0.130943 0.115614
0.058835 0.105711 0.119689
0.037794 -0.130757 0.124995
0.097581 -0.035470 0.324114
0.052896 -0.099764 0.121274
0.061988 0.126529 0.124097
0.109670 0.131948 0.316164
0.002131 -0.066240 0.224309
0.054601 -0.131674 0.113127
0.038801 -0.106962 0.118104
0.033565 0.111700 0.132252
0.108973 0.134758 0.307906
0.070598 0.003499 0.039077
0.095679 -0.134732 0.312205
0.041339 0.133448 0.115503
0.055294 0.127754 0.112320
0.081595 -0.111700 0.299657
0.090083 -0.138203 0.298389
0.056026 0.031500 0.332485
-0.009193 0.067434 0.266288
0.091424 0.135634 0.306488
0.044073 -0.001000 0.332354
-0.083487 -0.003000 0.149402
0.123309 -0.107714 0.361855
-0.050580 0.055265 0.305165
0.062257 -0.120413 0.118571
0.130648 -0.031500 0.285510
0.055725 -0.127651 0.112429
0.042723 -0.140507 0.122966
-0.049525 0.033701 0.305382
0.057876 -0.126440 0.115893
0.052714 0.105190 0.114649
0.053753 -0.100466 0.119519
0.111345 -0.135807 0.299174
0.128925 0.035500 0.249752
0.127451 0.115114 0.360294
-0.012574 -0.071524 0.069463
0.045682 -0.101850 0.120606
0.090204 0.117651 0.302162
-0.006141 -0.063542 0.264622
0.126334 0.035473 0.249742
0.113477 -0.127958 0.312980
0.058193 -0.116175 0.112540
0.059962 -0.130859 0.121904
0.027534 0.072278 0.191716
0.113756 -0.118913 0.294466
-0.032509 -0.077367 0.279724
-0.072885 -0.021591 0.037913
-0.033815 0.064017 0.037327
0.055275 0.122929 0.112866
0.121530 -0.106522 0.361515
0.057325 -0.116175 0.119453
0.059679 -0.123101 0.112850
0.036633 0.135398 0.125146
0.108266 0.031431 0.317000
0.043208 -0.103729 0.117768
0.102694 0.101155 0.309089
-0.035093 0.070029 0.084578
0.033163 -0.113792 0.132367
0.096533 0.128356 0.329472
0.088678 0.122106 0.313111
0.095307 -0.030333 0.325652
-0.051057 0.034448 0.305713
0.003393 -0.003000 0.311668
0.061537 -0.126981 0.117777
-0.075679 0.001000 0.053184
0.104940 0.129683 0.332615
0.090159 -0.035500 0.330091
0.009697 -0.075055 0.037475
0.111375 -0.118067 0.284090
0.056174 -0.122694 0.110837
0.029013 -0.063977 0.032430
-0.071435 0.025114 0.037446
0.065600 -0.118538 0.120217
0.046932 -0.106725 0.117493
0.092878 -0.104065 0.319621
0.038446 -0.137537 0.130852
0.047709 -0.126639 0.112630
0.036179 0.131267 0.121595
0.058519 0.136501 0.121586
0.115756 0.111673 0.305342
0.036925 -0.061560 0.132417
0.051930 -0.022492 0.329805
0.107487 -0.136454 0.312728
0.045968 -0.130324 0.113385
0.037757 0.135547 0.131049
0.050033 -0.135654 0.115111
0.131479 0.029000 0.278022
-0.025240 0.080336 0.267911
0.115012 -0.129889 0.357017
0.056063 0.123039 0.113090
0.075197 0.009568 0.044706
0.111341 -0.135910 0.299725
0.046343 0.100049 0.119018
0.034904 -0.109100 0.117759
0.055066 -0.114432 0.118280
-0.074205 -0.003000 0.077995
0.100544 -0.139441 0.310081
0.081533 0.015144 0.322087
0.109392 -0.138762 0.304376
0.048992 -0.102555 0.117574
0.095700 0.099334 0.302185
0.082416 -0.118913 0.303458
0.056570 0.109774 0.110884
-0.081939 -0.002500 0.115891
0.096712 -0.108683 0.298862
-0.007024 0.063826 0.267088
0.048669 0.104895 0.112590
0.052242 0.108186 0.113371
0.119312 -0.126784 0.325741
-0.080229 -0.003000 0.300256
0.088052 -0.135230 0.299019
0.053296 -0.131470 0.114837
0.034548 -0.119886 0.127867
-0.002832 0.064663 0.246122
-0.077055 0.053995 0.195278
0.042521 -0.134865 0.116733
0.081104 -0.117744 0.299798
0.059176 -0.116175 0.110795
0.056384 -0.137553 0.119440
0.037794 -0.130757 0.124995
0.096454 -0.126202 0.327409
-0.072103 -0.006500 0.037353
0.029803 -0.029000 0.325304
0.085458 -0.016500 0.331180
0.066274 -0.028215 0.068371
0.107861 0.120466 0.368721
0.024480 -0.073753 0.192246
0.090633 -0.120552 0.327315
0.035002 -0.122086 0.125388
0.101339 -0.100965 0.302447
0.050085 0.050707 0.111004
0.056509 -0.117759 0.117092
-0.017586 0.029535 0.306429
0.085541 -0.015000 0.331153
0.127690 -0.122745 0.359097
0.109479 0.128421 0.287990
-0.021178 -0.072682 0.037474
0.115435 0.119122 0.294109
0.125070 0.123008 0.360977
0.049779 0.128374 0.114423
0.104754 -0.100213 0.293012
-0.083530 -0.036410 0.287291
0.086796 -0.137537 0.299362
-0.074341 0.001000 0.047070
0.041557 -0.104011 0.118905
-0.064561 0.040120 0.037840
0.127200 -0.035500 0.295510
0.110979 -0.108325 0.365392
0.055297 0.030532 0.334734
0.117836 -0.129737 0.338163
-0.009480 0.067127 0.267745
-0.051044 0.034438 0.305713
0.045139 0.055224 0.111999
0.037963 0.137025 0.120402
-0.021554 -0.074295 0.163930
0.064430 0.128476 0.130679
0.122031 0.016411 0.274144
-0.059079 -0.044721 0.305533
0.088321 -0.035394 0.211514
0.130586 0.031500 0.285721
-0.006290 -0.063586 0.265505
0.117777 0.123211 0.318457
0.116057 0.031500 0.312964
-0.005457 0.074824 0.131826
0.044696 0.056251 0.115027
0.057933 -0.001000 0.111833
0.039086 -0.123532 0.115063
0.111119 -0.102944 0.319303
-0.038068 -0.070064 0.128488
0.033791 -0.116175 0.125281
0.106213 -0.119457 0.367238
0.095577 -0.139944 0.308545
0.064330 -0.128528 0.130708
0.066413 0.114283 0.127996
0.123912 0.125365 0.343428
-0.074067 0.056681 0.176613
0.128152 0.110427 0.360153
-0.081054 -0.044196 0.195272
0.035226 -0.122213 0.121525
-0.025806 -0.034448 0.271881
