0.083603 0.128618 0.142834
-0.072594 0.033608 0.105085
0.107659 -0.031500 0.056079
0.021617 -0.126073 -0.084766
0.067756 0.136792 0.108619
0.019331 -0.135027 -0.083433
0.012149 -0.063145 0.001107
0.026978 -0.107079 -0.086304
0.038901 0.129602 -0.072559
-0.098672 0.012462 -0.114282
0.063619 -0.135514 0.101456
0.028969 -0.106616 -0.086574
-0.082346 -0.036001 -0.168307
0.073747 0.027000 0.013637
0.085451 0.107518 0.165483
0.107682 -0.031500 0.056226
0.089052 -0.131271 0.097986
0.021510 -0.104928 -0.084434
0.038149 0.122912 -0.085551
0.070459 0.101379 0.096782
0.018980 -0.128814 -0.085702
0.023755 -0.133534 -0.087062
0.040844 -0.120159 -0.077178
0.051512 -0.008372 -0.137640
0.085191 0.112087 0.168689
0.036773 -0.135398 -0.081185
0.094504 0.127163 0.166017
0.060703 -0.118872 0.102639
0.012188 -0.112021 -0.068657
0.015400 -0.109331 -0.082953
0.069869 0.138544 0.101286
0.014100 0.036750 -0.056860
0.087381 -0.135390 0.094023
-0.003523 0.001000 0.123432
0.040834 -0.111700 -0.076755
0.048836 0.007001 -0.162921
0.020303 -0.131254 -0.083844
0.027557 0.001000 0.133242
0.014705 -0.128086 -0.083480
0.088769 -0.131692 0.130528
0.012885 0.114696 -0.082203
-0.016300 -0.031500 0.083513
-0.074150 0.034256 0.105466
0.025649 -0.125532 -0.080670
0.099550 0.106727 0.138145
-0.061616 0.078251 -0.005401
0.055747 0.116175 0.093129
0.020025 -0.128348 -0.084003
0.039163 -0.122868 -0.084025
0.076209 0.100928 0.102867
0.025240 -0.106770 -0.080646
0.084389 0.117669 0.095033
0.032140 0.118880 -0.089847
0.078371 -0.104071 0.133227
-0.058143 -0.067219 -0.162777
-0.041505 -0.073738 -0.162504
-0.019932 0.063563 0.032925
0.024626 0.134497 -0.087177
-0.088028 -0.066995 0.087835
-0.052918 0.077800 0.021643
0.092478 -0.103313 0.119865
0.082777 0.117669 0.095496
0.031956 -0.117537 -0.089813
0.063762 -0.135388 0.101989
0.064594 -0.135613 0.103908
0.089390 0.131401 0.100224
-0.084057 -0.041643 0.105339
0.030817 -0.050145 -0.089720
0.048844 -0.003641 -0.134872
0.082275 -0.138002 0.105866
0.030381 -0.002500 -0.088355
-0.088275 0.048502 0.103934
0.107653 -0.031500 0.084105
0.030524 -0.107665 -0.073741
0.014693 0.135389 -0.080932
0.037393 -0.137108 -0.078459
0.036260 0.121807 -0.088190
0.042328 0.120070 -0.079263
0.070428 0.122140 0.134231
-0.014026 0.034448 0.025042
0.013095 0.032966 0.002692
-0.019864 -0.003000 0.111420
0.063754 -0.131238 0.104380
0.021512 -0.099485 -0.071211
-0.100432 0.055035 0.026384
0.079206 -0.122054 0.092216
0.072426 -0.137880 0.107997
0.084589 0.114446 0.095872
0.022717 -0.093500 -0.079527
0.082353 0.099908 0.100900
0.032058 0.136999 -0.085533
0.011560 -0.116175 -0.083783
0.032346 0.117115 -0.080598
-0.109363 -0.003000 -0.027863
0.102032 0.124621 0.163817
0.035972 -0.112408 -0.086414
0.036300 0.107469 -0.082199
0.033205 -0.035500 0.131304
-0.100101 0.001000 -0.115068
0.048262 0.029000 0.133017
0.076624 0.125625 0.101799
-0.101020 0.048150 -0.036332
-0.060038 0.059877 -0.161537
0.025989 -0.131280 -0.085468
0.097560 -0.121369 0.127721
0.082321 -0.140426 0.102419
0.025891 0.126218 -0.085958
0.088257 -0.126470 0.097295
0.098360 -0.031500 0.034582
0.094635 -0.015088 0.091038
0.045791 0.021766 -0.162921
0.061288 -0.031500 0.131654
0.080690 -0.139806 0.108038
0.016572 0.122067 -0.080717
-0.088283 -0.048490 0.103934
-0.079528 -0.060420 -0.099008
0.087531 -0.104683 0.154236
0.038623 0.107065 -0.076120
0.074968 -0.108603 0.102795
0.013157 -0.127524 -0.081939
0.014810 -0.123616 -0.082511
0.081759 0.137738 0.085406
0.032240 -0.126931 -0.085897
0.011750 -0.110305 -0.077709
0.101624 0.109061 0.158886
-0.092478 0.051845 -0.099986
0.088250 -0.129535 0.140013
0.040034 -0.035615 -0.168314
0.073529 0.137545 0.108907
0.088650 0.031500 0.116891
0.084720 0.139217 0.091839
-0.012387 0.075288 -0.004965
0.036333 0.030237 0.009510
0.034220 0.136458 -0.080763
0.080353 -0.140363 0.105468
0.035103 -0.136490 -0.079054
0.045915 -0.015379 0.010468
0.080807 0.140369 0.105111
0.012892 0.108381 -0.083505
0.084705 -0.134206 0.118908
0.022994 -0.132360 -0.086903
0.088264 -0.129224 0.092098
0.049073 -0.010247 -0.141625
-0.033911 -0.031500 0.072500
0.017609 0.107885 -0.083616
0.085223 0.031431 0.023633
0.089670 0.016409 0.100087
-0.096845 0.021363 -0.147098
0.109976 -0.031238 0.075672
0.095158 0.030333 0.106275
0.071678 0.102558 0.119720
0.030855 -0.108163 -0.075897
0.012103 0.127199 -0.080060
0.103526 -0.118367 0.154324
0.016183 -0.125456 -0.085109
0.097288 0.035478 0.102538
0.085572 -0.135077 0.094966
0.030747 0.101651 -0.076376
-0.009255 0.031500 0.038410
0.013460 0.126393 -0.073683
0.059365 -0.124522 0.025626
0.060281 -0.120329 0.098972
0.027105 0.106725 -0.070605
0.061329 0.119887 0.102652
0.028154 0.140467 -0.081367
0.035737 0.107641 -0.083302
0.016269 0.102183 -0.079275
0.010447 0.035500 0.017428
0.034866 0.140858 -0.067760
0.028069 -0.030116 0.132418
0.062480 -0.117702 0.114006
-0.016232 -0.035500 0.083499
0.037237 -0.130862 -0.076760
0.080233 0.140729 0.085844
0.038833 -0.036562 -0.130858
0.030955 -0.123329 -0.087315
0.108026 0.035500 0.081977
0.065882 0.137631 0.104826
-0.087762 0.031702 -0.168382
0.068683 0.137343 0.109228
0.105508 0.031431 0.082188
0.009416 0.061884 -0.162774
0.047628 -0.022802 -0.131459
0.069354 0.110296 0.095042
0.019389 -0.135089 -0.083361
0.016173 -0.124635 -0.083027
0.095585 0.125229 0.129643
0.012095 -0.122150 -0.072137
0.035881 0.127083 -0.085775
0.051938 0.002616 -0.144622
0.015868 -0.117144 -0.075878
-0.031754 0.031891 0.070651
0.011430 0.116175 -0.080871
0.101424 0.031500 0.039608
0.093123 -0.127744 0.157308
0.013838 -0.126537 -0.079299
0.040931 -0.030329 -0.105275
0.090601 0.103509 0.161656
0.049243 0.021668 -0.162799
-0.080853 -0.053146 -0.147147
0.027024 -0.131745 -0.085539
0.011746 -0.110163 -0.076596
0.012756 0.131244 -0.073329
0.073294 -0.112078 0.144022
0.070629 -0.136028 0.112409
0.050061 0.000000 -0.158020
0.049651 -0.001799 -0.149148
0.101764 -0.113759 0.143976
-0.103385 -0.040303 -0.068487
0.087478 0.133611 0.116235
0.070593 0.120605 0.104050
0.079898 0.101285 0.100369
0.098289 0.106483 0.132624
0.030304 -0.128689 -0.085950
0.022794 0.126768 -0.087151
-0.100603 -0.052595 0.057754
0.013649 -0.135430 -0.078132
0.093123 -0.104606 0.157308
0.087977 0.135847 0.104841
0.111689 0.000000 0.072749
0.081733 -0.110337 0.100854
-0.094175 -0.043238 -0.103136
-0.083348 -0.046539 -0.145998
0.084861 0.132819 0.125496
0.033378 0.114435 -0.082614
0.075829 -0.138361 0.106852
-0.093541 0.017749 -0.160343
0.100588 0.029000 0.039206
0.089442 0.031431 0.027602
-0.101138 -0.000001 -0.105858
0.106948 -0.030333 0.068016
0.050684 -0.110103 0.029136
0.071212 0.101595 0.100573
-0.019324 -0.002500 0.111816
0.087365 -0.135489 0.094022
0.023105 0.125532 -0.079940
0.073253 -0.140015 0.108438
0.080088 0.101582 0.095629
0.083107 -0.015097 0.107973
-0.017586 0.078683 0.007346
0.023328 -0.054312 -0.086123
0.048113 -0.013325 -0.143493
0.076910 -0.031500 0.014794
0.013258 -0.124093 -0.083771
-0.075935 0.066580 -0.067665
-0.108951 -0.003000 0.057895
0.085726 -0.100241 0.114751
0.095405 0.030520 0.112355
0.051914 -0.001799 -0.143805
0.075556 -0.104774 0.137601
0.051567 0.010031 -0.139445
-0.028511 -0.074579 -0.131453
0.078370 0.130714 0.132351
0.075812 0.099063 0.104278
0.091460 0.031500 0.114150
0.063781 0.122496 0.114289
0.049666 0.031500 0.133465
0.081950 -0.126417 0.155871
0.106625 0.031500 0.052145
0.011647 -0.123250 -0.082490
-0.106634 0.033080 -0.004992
0.083491 -0.138167 0.103353
0.074703 0.136370 0.114644
0.077155 0.031448 0.017868
0.078940 -0.139830 0.108713
0.076800 -0.031117 0.017599
0.080807 0.129209 0.133883
0.013592 0.066276 -0.162683
0.066407 -0.135055 0.103246
0.019875 0.126161 -0.084229
0.010053 -0.068228 -0.007925
0.082686 -0.116967 0.094795
0.070705 0.136742 0.108346
0.018197 -0.140285 -0.070260
0.060522 0.112907 0.107165
0.003422 0.065430 -0.160911
0.014232 -0.126694 -0.080140
-0.095542 -0.006418 -0.168823
0.099773 0.031500 0.036788
0.105952 0.117272 0.162347
0.066719 0.103022 0.097004
0.033786 0.140366 -0.077386
0.058386 0.029000 0.131760
0.034162 0.130759 -0.083003
-0.019414 -0.075392 -0.162817
0.079020 0.124719 0.095508
0.056785 -0.031500 0.132609
-0.084345 -0.037568 -0.168280
0.105553 0.119428 0.162462
0.105365 -0.035500 0.048530
0.102973 0.107822 0.155122
0.014271 -0.027000 -0.013008
0.072962 -0.108847 0.098475
0.105179 0.029463 0.087611
0.034076 -0.127327 -0.087149
0.060130 0.122231 0.026491
0.084204 -0.035500 0.019746
0.084703 -0.117880 0.096252
0.097652 0.128492 0.159633
0.092632 -0.105359 0.166543
0.028531 -0.055175 -0.162773
0.014850 0.031500 0.004581
0.019999 0.126575 -0.086336
-0.012500 -0.067497 0.016387
0.040267 -0.034731 -0.162895
-0.047309 -0.078364 0.057809
0.046476 0.018209 -0.133775
0.027566 -0.003000 0.133270
0.020460 0.140608 -0.063627
0.066167 -0.135580 0.107004
0.025786 0.053273 -0.162921
0.104084 -0.110533 0.163269
0.031413 0.045574 -0.089707
-0.095212 -0.022194 -0.130307
0.107412 -0.029000 0.058084
-0.104203 -0.000001 -0.083500
0.034457 0.123488 -0.088594
0.027615 -0.107661 -0.083886
0.039064 0.042560 -0.162844
0.069753 -0.113409 0.104291
0.070287 -0.132569 0.115893
0.032171 -0.135116 -0.083658
0.028214 0.030250 0.131940
0.017109 0.139704 -0.069948
0.070048 -0.136416 0.108099
0.087273 0.130773 0.099038
0.030528 -0.124688 -0.073729
0.039592 0.122208 -0.078629
-0.046913 0.079850 0.066831
0.081899 0.031500 0.017919
0.084861 -0.031500 0.020114
0.072610 0.099471 0.103696
0.012371 -0.127277 -0.080671
0.019619 0.104866 -0.083565
-0.087236 -0.049085 -0.131342
0.028985 0.124164 -0.086877
0.030831 -0.099623 -0.076729
0.038887 -0.122875 -0.084480
0.095979 -0.103950 0.163254
0.014862 -0.029500 -0.016713
0.092498 0.120677 0.105093
0.040286 -0.127133 -0.077491
0.085881 0.135062 0.096508
0.098195 0.120336 0.128895
0.011697 0.122080 -0.076405
0.092774 0.016500 0.028069
-0.072818 0.059000 0.104021
-0.033149 0.075040 -0.162800
0.044295 0.018291 -0.162955
0.088038 -0.126449 0.096324
0.095607 0.016413 0.088628
-0.000858 0.037771 -0.015988
0.088061 -0.031500 0.022779
0.062525 0.016500 0.130830
0.106340 -0.035500 0.088590
-0.095737 0.001000 -0.162921
0.049410 -0.011011 -0.149395
-0.086069 0.072596 0.041981
-0.089931 -0.020273 -0.168581
0.022697 0.130323 -0.086860
0.035884 -0.110459 -0.085586
0.036037 -0.047442 -0.162492
0.019777 0.126535 -0.086269
0.013898 -0.128153 -0.069027
0.092812 -0.129721 0.126559
-0.101537 -0.015794 -0.099036
0.032597 -0.116175 -0.087916
0.032824 0.126755 -0.085665
0.027154 -0.125621 -0.070626
0.019396 0.140586 -0.074141
0.032991 0.113966 -0.087972
0.015491 -0.062866 -0.075948
0.029896 -0.107919 -0.087011
-0.101794 0.029127 -0.083427
0.088827 0.125078 0.164454
-0.012397 0.075599 0.000698
0.012144 0.114576 -0.081680
0.026519 -0.104478 -0.085293
0.035699 -0.135410 -0.082871
-0.095597 -0.012927 -0.160338
-0.063808 -0.077051 0.087797
0.065344 -0.135493 0.105541
-0.049258 0.029535 0.105550
-0.000884 -0.066110 -0.160106
0.096485 0.104748 0.165063
0.072452 0.122002 0.140037
0.033994 -0.112856 -0.087770
-0.099354 0.060065 -0.005378
-0.082974 0.039519 -0.160405
0.087763 -0.135553 0.096103
0.082916 -0.117916 0.096163
-0.014472 0.030237 0.081681
0.101136 -0.126553 0.157225
0.014882 0.063790 -0.003632
0.039917 -0.122872 -0.082637
-0.069523 -0.061555 -0.130406
0.029172 0.048607 -0.160409
0.104918 0.031238 0.044505
0.025805 -0.128332 -0.085687
0.050683 0.124233 0.029283
0.011723 -0.120075 -0.070382
0.098780 0.104939 0.143717
-0.090669 -0.065457 0.057726
0.086337 0.134999 0.102626
0.014236 -0.029000 -0.012890
0.016527 0.113409 -0.081225
0.050857 0.109762 0.028057
0.071652 -0.031500 0.012145
0.067767 -0.123632 0.117480
0.082769 -0.110617 0.165064
0.020940 0.124678 -0.077335
0.090740 0.121105 0.090112
0.066201 -0.115309 0.099585
0.036612 -0.120105 -0.088519
-0.063936 -0.056074 -0.167957
0.074226 -0.109493 0.143754
0.033470 -0.135124 -0.082484
0.104706 0.000000 0.093671
0.022992 -0.105724 -0.085131
0.017367 0.120605 -0.081465
0.087063 0.128461 0.086537
0.071407 0.127357 0.127093
0.050602 -0.014388 -0.146337
0.075309 0.137683 0.108958
0.072043 0.099393 0.101566
0.036614 -0.040715 -0.162895
0.014008 -0.126602 -0.079704
0.040032 0.035616 -0.168314
0.087996 -0.031500 0.117470
0.095802 -0.129391 0.142854
-0.069523 -0.061555 -0.130406
-0.109127 -0.003000 0.023654
0.070439 -0.099319 0.096947
0.042783 0.029297 0.132252
-0.087769 -0.058599 0.100172
0.020017 0.045000 -0.021868
-0.086428 0.072125 0.010391
0.010601 0.113478 -0.071989
0.032400 -0.135120 -0.083482
0.084757 -0.136936 0.094648
-0.006293 -0.073749 -0.162773
0.029571 -0.108277 -0.087019
0.066201 -0.140285 0.097152
-0.077252 -0.074812 0.073584
0.079644 -0.132465 0.126479
0.093576 -0.031500 0.028361
0.103616 -0.029463 0.092238
0.017139 -0.131573 -0.081861
0.031963 0.114870 -0.089815
0.084247 -0.113185 0.165290
0.107610 0.029535 0.091562
0.021037 -0.099549 -0.073599
0.079348 -0.035500 0.016361
-0.033231 -0.079828 0.026557
-0.049525 -0.080253 0.068280
0.101059 -0.031431 0.095755
0.026604 -0.054418 -0.089547
0.105542 -0.116175 0.152813
0.106180 0.114983 0.159535
0.035430 -0.122257 -0.085836
0.078139 -0.136576 0.114970
0.068248 0.138674 0.096565
-0.095459 -0.014664 -0.146252
0.075948 -0.129685 0.131330
-0.088479 0.048181 -0.114440
0.018427 0.100758 -0.077887
0.088982 0.120329 0.090738
0.016759 0.106317 -0.082745
0.016153 0.124623 -0.083019
0.046844 -0.002500 -0.162383
0.023763 -0.135134 -0.085368
0.084131 -0.031500 0.120665
-0.046740 0.080678 0.058785
0.049583 -0.015361 -0.131451
0.031200 0.135084 -0.084294
0.090519 -0.118897 0.094191
0.015778 -0.061431 -0.167863
0.070365 -0.131278 0.113155
-0.091116 0.042846 -0.131324
0.031718 0.118763 -0.089744
0.031517 -0.116176 -0.083681
-0.064481 -0.063338 -0.162814
0.036492 0.137039 -0.080695
-0.032450 0.067434 0.066040
0.068623 -0.117115 0.101978
0.025355 -0.134675 -0.085858
0.104487 0.030333 0.087407
0.021865 0.125200 -0.078897
0.090902 -0.131047 0.144260
0.073672 -0.127829 0.131914
0.014220 -0.121371 -0.084724
0.083253 -0.140269 0.093453
0.088588 0.100656 0.135407
0.033168 0.035465 0.131630
0.108886 -0.035500 0.064348
-0.070910 0.051306 -0.162323
0.085570 0.122417 0.168195
0.018705 -0.134675 -0.083024
0.072122 0.140426 0.105345
0.013360 -0.109584 -0.081518
0.014429 0.123558 -0.082233
0.092498 0.120677 0.105093
0.032936 -0.140675 -0.074489
0.070016 -0.099337 0.096058
-0.100425 0.048385 0.094421
0.084861 0.132819 0.125496
0.004739 0.031238 0.125915
0.057981 0.031431 0.129793
0.079192 0.100131 0.094248
0.028605 0.137561 -0.083721
0.026379 -0.101851 -0.080794
-0.023740 0.079182 0.013823
0.012050 -0.127097 -0.070835
0.079314 0.140103 0.107803
0.089812 0.030520 0.118159
0.059117 0.113478 0.103100
0.009521 0.031478 0.021051
0.089304 -0.131359 0.099592
0.031019 0.047651 -0.087122
0.028577 0.122928 -0.079816
-0.007403 -0.076846 -0.002049
0.077564 0.108594 0.144567
0.032068 0.100185 -0.077507
0.035796 -0.138744 -0.068027
0.072180 -0.109106 0.098255
0.032549 0.107090 -0.085933
0.012523 0.109905 -0.070558
0.070933 -0.114761 0.138927
0.090568 -0.113478 0.094074
-0.094348 -0.001000 0.105721
0.069443 -0.111885 0.133128
0.088760 0.035500 0.023527
-0.049258 -0.030520 0.105271
0.108929 0.015000 0.072638
-0.044632 0.030520 0.105456
0.080268 0.031500 0.016826
0.075142 -0.099571 0.110374
0.028216 -0.129166 -0.087960
-0.081327 0.048373 -0.162839
-0.106497 -0.036652 0.026417
0.030993 -0.135074 -0.084409
0.063217 0.122356 0.105769
0.039510 -0.122866 -0.083414
0.052107 -0.107108 0.025813
0.039205 -0.031500 0.133407
0.082777 -0.114681 0.095496
0.033194 0.105768 -0.087311
0.086287 0.126792 0.162894
-0.097556 0.056400 -0.023241
0.026012 -0.135118 -0.085590
0.030217 -0.107588 -0.086932
0.031871 -0.136990 -0.085640
0.050450 -0.015340 -0.147190
0.000383 -0.068781 -0.167735
-0.067141 -0.061534 -0.162814
0.030703 0.093500 -0.076175
0.037170 0.115210 -0.085772
0.014862 0.045000 -0.016713
0.033331 0.035432 0.131082
0.068713 0.138341 0.108260
0.089513 -0.131621 0.122015
0.010517 0.123143 -0.080257
0.001206 -0.035500 0.028506
0.106687 0.031431 0.072046
-0.098905 0.029395 -0.103074
0.094111 -0.110191 0.104931
-0.096276 0.012190 -0.130352
-0.108014 -0.002500 0.092918
0.025360 -0.135027 -0.085713
0.075885 -0.131959 0.119002
0.034910 -0.119715 -0.087309
-0.102345 0.051127 0.026388
0.020660 0.109953 -0.076209
0.015456 0.131821 -0.083005
0.021773 -0.106132 -0.086891
0.018520 0.132992 -0.085048
0.108164 0.016500 0.061812
0.017420 0.134974 -0.084121
0.068521 -0.100144 0.098399
0.034753 0.136472 -0.079815
0.102123 0.109362 0.142758
-0.088011 0.067007 0.087835
0.051916 0.000250 -0.143255
0.000313 0.065803 -0.162750
0.106400 -0.035478 0.075968
0.032991 0.113966 -0.087972
-0.096493 0.000003 -0.146264
0.032279 -0.029944 0.133580
0.023765 -0.125065 -0.070818
0.093720 0.102337 0.154170
-0.013774 0.063255 0.023706
0.019331 -0.135027 -0.083433
0.012135 0.111706 -0.083850
-0.110692 -0.018286 0.057831
0.063108 0.137194 0.090757
0.105575 0.112503 0.157360
0.040129 0.137547 -0.069270
0.076312 0.110942 0.144926
0.091637 0.127981 0.106423
0.013875 0.106654 -0.075765
0.083253 0.140269 0.093453
0.011245 0.112464 -0.079144
0.080849 -0.138274 0.105980
0.089983 0.128720 0.116956
0.051475 0.109168 0.026560
0.021600 -0.099808 -0.078987
0.087626 0.108653 0.091005
0.021952 -0.058062 -0.086706
-0.027617 -0.031500 0.069437
0.086277 -0.134959 0.103870
-0.095998 -0.047403 0.100178
0.035261 0.136501 -0.078663
0.030172 -0.134833 -0.084800
0.050774 0.014165 -0.148915
0.013895 -0.126475 -0.071297
0.048004 -0.002500 -0.162021
0.027242 -0.001000 -0.085916
-0.010116 0.000000 0.116836
-0.104084 -0.024684 -0.067772
0.030854 0.099617 -0.076657
0.019599 0.029000 0.012260
-0.017071 0.029000 0.112313
0.013304 -0.126357 -0.075854
0.074460 -0.099060 0.102823
0.024136 0.130840 -0.087196
0.080075 -0.101671 0.136304
0.108250 0.029535 0.050767
0.072658 -0.125174 0.098433
-0.058143 -0.067219 -0.162777
0.087995 0.135651 0.097656
0.093071 0.035500 0.027909
0.105390 -0.120676 0.158574
0.064415 0.135575 0.103532
-0.100366 -0.001000 -0.119684
0.097451 -0.126553 0.131319
0.062639 0.031431 0.128668
0.029325 -0.100300 -0.081204
0.035018 0.123359 -0.088336
0.025658 0.128756 -0.087666
0.027304 0.135080 -0.085524
0.011366 -0.117963 -0.080554
-0.105450 0.031702 -0.036389
-0.103680 0.013076 -0.083493
-0.088107 -0.035236 -0.160241
0.091230 0.103329 0.140646
-0.083859 -0.045975 -0.162390
0.031920 -0.104001 -0.082384
-0.095361 -0.006500 -0.162895
-0.035288 0.069132 -0.161685
0.015341 -0.064223 -0.006159
0.028629 -0.132475 -0.085455
0.010072 -0.112200 -0.068422
0.040843 -0.120346 -0.077014
0.049410 -0.001677 -0.143937
0.074528 -0.124815 0.134329
0.081924 0.111331 0.164146
0.049582 -0.002761 -0.148023
0.079015 -0.099060 0.101517
0.005347 0.065410 0.002108
-0.064929 -0.073771 0.092701
0.091983 -0.110578 0.104633
0.054544 -0.108377 0.024387
0.105735 -0.113805 0.155905
0.010321 -0.034448 0.004162
0.033378 -0.117915 -0.082614
-0.089582 0.040629 -0.130261
0.085679 -0.135072 0.095455
0.040088 0.128404 -0.072900
0.080234 0.099478 0.117265
0.078733 0.124884 0.095994
0.012164 0.122296 -0.079429
0.013650 -0.062569 -0.006718
0.096283 -0.127926 0.164548
0.109226 0.031500 0.069704
-0.085766 0.070039 0.026394
0.067871 0.035384 0.013320
0.015205 -0.138542 -0.072101
0.104988 0.035500 0.092688
0.011366 -0.114387 -0.080554
0.019884 -0.136398 -0.085327
-0.106987 0.001000 -0.065254
0.033776 0.137038 -0.084285
0.028994 -0.123483 -0.088963
0.019884 -0.136398 -0.085327
0.038344 0.118198 -0.087340
0.022191 -0.109758 -0.071851
0.029373 0.101014 -0.083031
0.014567 0.063652 -0.002716
-0.068637 -0.073042 0.095538
0.104944 -0.016500 0.091673
-0.059212 -0.060315 -0.160132
0.106355 -0.035478 0.076292
-0.005258 -0.038650 -0.015988
0.095990 -0.126908 0.159856
-0.095881 -0.003000 -0.168883
0.046610 0.025909 -0.132079
0.089551 0.108156 0.090453
0.104002 0.112109 0.147011
0.043859 0.035523 -0.162517
0.012841 0.131260 -0.072788
0.032530 -0.118278 -0.085296
0.045742 0.000000 0.133601
0.031933 0.045123 -0.099379
0.016432 0.061010 -0.167870
0.023306 -0.140445 -0.080857
0.077192 -0.106873 0.097742
-0.049002 0.080567 0.066657
0.029529 0.029895 0.129464
0.083503 0.117115 0.097709
0.039393 0.107630 -0.081632
0.094242 -0.104329 0.165133
0.027667 0.104781 -0.085529
0.039093 -0.029535 0.135403
0.010825 -0.121600 -0.082254
-0.080576 -0.053235 -0.130270
0.084950 0.132238 0.117811
0.087009 -0.130735 0.097555
0.085050 -0.139283 0.105134
0.015376 -0.011037 -0.080403
0.027562 -0.138202 -0.082717
0.104490 -0.029535 0.099031
-0.075012 -0.049552 -0.168070
0.084276 0.116175 0.166133
0.032197 0.131540 -0.086820
0.071709 -0.134782 0.111277
0.016802 -0.064197 -0.162772
0.101225 0.123609 0.156145
0.082675 -0.115821 0.094639
0.026636 0.106775 -0.086203
-0.080853 -0.053146 -0.147147
0.014801 0.102936 -0.076847
0.077968 0.116175 0.152284
0.041553 -0.123029 -0.078575
0.104533 -0.015000 0.047409
0.048317 -0.002500 -0.160650
0.016634 0.061580 -0.160152
0.014833 0.121474 -0.082819
0.076290 -0.126738 0.133824
0.032387 0.118254 -0.087856
0.084557 -0.102476 0.106763
0.080371 -0.099527 0.096303
0.018294 0.000000 0.129910
0.087321 0.137788 0.100257
0.033319 -0.131408 -0.086250
0.016448 0.045500 -0.015819
0.013360 -0.109584 -0.081518
-0.049258 -0.029535 0.105550
-0.066412 -0.076240 0.089713
0.031280 -0.135325 -0.086461
0.040092 0.039237 -0.129684
0.035370 -0.130768 -0.081283
0.092188 0.113348 0.093822
0.088908 -0.131238 0.097180
-0.051695 -0.072170 -0.099960
-0.044466 -0.072053 -0.067755
0.025472 0.134607 -0.087265
0.068615 -0.115097 0.101890
0.105533 0.115129 0.162853
-0.096845 0.021363 -0.147098
0.081676 -0.140282 0.105553
0.013432 0.135402 -0.074184
0.085809 -0.102936 0.140714
-0.091708 -0.014208 -0.168687
0.090028 0.029000 0.025302
0.106656 0.031238 0.091231
0.080009 0.113618 0.161710
0.019364 0.100766 -0.080163
0.016893 0.106061 -0.085215
0.011707 -0.122097 -0.076585
0.038800 -0.114072 -0.083077
0.014862 -0.029500 -0.016713
0.016502 0.105087 -0.084541
0.085904 -0.134807 0.106807
-0.099075 -0.003000 -0.114232
0.105226 0.119982 0.154475
0.011974 -0.112740 -0.081120
-0.011192 0.029000 0.115658
0.015513 0.061630 -0.002785
0.092128 0.030520 0.024276
0.059523 -0.123078 0.100373
0.028234 -0.123065 -0.079971
0.023989 0.106230 -0.085446
-0.002160 -0.063507 0.011260
0.012724 -0.114283 -0.063521
0.069754 -0.134944 0.108968
0.029373 -0.125288 -0.088827
0.105304 0.119324 0.162878
0.008677 0.116175 -0.078828
-0.046740 0.080678 0.058785
0.051829 0.035500 0.006989
-0.084069 -0.070099 0.057733
0.104345 -0.110340 0.163011
0.092327 0.029535 0.024079
0.079154 0.100982 0.094065
-0.058061 -0.067060 -0.162815
0.021684 -0.140840 -0.063978
0.043768 0.035474 -0.162684
0.070289 -0.139566 0.107822
0.031436 0.093500 -0.083254
0.098621 0.117734 0.119285
0.105739 0.119569 0.161363
0.019705 -0.100300 -0.078443
0.012066 -0.122144 -0.072309
0.024819 0.029535 0.133603
0.011414 -0.126985 -0.076487
-0.101020 0.048150 -0.036332
0.108325 -0.030520 0.051796
0.062908 0.135522 0.099369
0.063804 0.135525 0.101951
0.004106 0.067102 -0.160128
0.031263 0.109929 -0.087476
0.063405 0.135493 0.100920
0.030703 0.135000 -0.076175
0.039631 -0.111877 -0.080218
0.047872 -0.000766 -0.162350
0.013848 0.137032 -0.074984
0.090342 -0.129116 0.160322
0.078997 -0.127023 0.147676
0.029065 0.138482 -0.081034
0.037951 0.137537 -0.075928
0.029645 0.138210 -0.082278
0.095893 0.128591 0.162487
0.085809 -0.129414 0.140714
0.049583 -0.015361 -0.131451
0.038368 0.117188 -0.084057
0.083258 0.113895 0.167813
0.024174 -0.130863 -0.087203
0.085904 0.106079 0.091499
0.014760 0.128091 -0.083478
0.015615 -0.131857 -0.083150
0.015335 0.108786 -0.085026
-0.072594 0.033608 0.105085
0.105575 0.112503 0.157360
-0.014348 -0.035500 0.080243
0.027633 0.051977 -0.168028
0.030976 0.135295 -0.086572
0.069458 -0.134964 0.108562
-0.049966 -0.080211 0.068627
-0.047139 0.072008 -0.162694
0.061021 -0.118120 0.102773
-0.100759 -0.050771 -0.024570
0.086901 -0.132522 0.124486
0.011997 0.122576 -0.083249
-0.028523 0.071312 -0.160307
0.086134 -0.138762 0.104128
0.066579 0.140269 0.098237
0.015617 0.001000 0.130329
0.065901 0.136938 0.099938
0.077702 0.103404 0.138531
0.036185 0.039074 -0.099398
0.014321 0.127928 -0.083138
0.028762 -0.136537 -0.084538
-0.049525 -0.080253 0.068280
0.000511 0.069415 -0.160118
0.071583 -0.137146 0.108609
0.103850 -0.029463 0.048587
0.012431 -0.122416 -0.080094
0.041269 0.128246 -0.073238
-0.097772 -0.002500 -0.161516
0.025114 -0.137425 -0.083892
0.040381 0.112272 -0.078549
0.009944 -0.110043 -0.079424
-0.029672 0.034431 0.067151
0.087911 0.125988 0.166478
-0.058351 -0.070029 -0.115671
0.058057 0.123182 0.024671
-0.090763 -0.003000 0.104941
0.081457 0.031500 0.017627
0.097927 -0.035500 0.034088
0.105411 -0.114211 0.162888
0.096652 0.035500 0.032343
-0.041105 0.080801 0.039893
-0.107509 -0.000000 -0.036421
0.024899 0.128291 -0.085484
-0.068132 0.056059 -0.167957
0.021779 0.140454 -0.080057
0.032527 0.042263 -0.162832
0.085685 0.000000 0.119465
-0.073606 0.059179 0.104214
0.016690 0.029000 0.013665
0.039069 0.127012 -0.080842
0.013231 0.131326 -0.079658
0.087722 -0.108325 0.165144
0.034689 0.137634 -0.077602
0.085480 0.114072 0.099259
0.071940 -0.125571 0.125362
0.037267 -0.040432 -0.094280
0.010731 0.123029 -0.069731
0.008664 -0.118441 -0.075276
0.077781 0.130049 0.125430
-0.046644 -0.076481 0.068937
0.070707 -0.109762 0.097243
0.096536 0.031500 0.108168
0.074049 0.140050 0.108521
0.080807 -0.029463 0.121188
0.104320 -0.031500 0.094574
0.079167 -0.132365 0.126454
0.093654 -0.128846 0.124516
0.086364 0.130074 0.131385
0.060567 0.118859 0.102426
0.042273 -0.128429 -0.069885
0.016269 0.102183 -0.079275
-0.064355 0.066870 -0.131400
-0.083495 -0.054308 0.103860
0.022330 -0.126542 -0.084949
-0.004833 -0.031500 0.019064
-0.093428 0.066393 -0.005384
0.038310 -0.116175 -0.084217
0.038344 0.114152 -0.087340
0.033299 -0.117722 -0.090020
0.061317 -0.119960 0.102552
0.016067 0.032965 -0.001535
0.019276 0.128401 -0.083700
0.029241 -0.124972 -0.086823
0.070368 -0.099452 0.098029
0.089692 -0.132267 0.108303
0.080520 -0.101636 0.097021
0.035319 0.120648 -0.086728
0.008556 0.067314 -0.011819
0.084263 -0.030333 0.117710
0.084068 -0.117195 0.168828
0.034436 -0.136462 -0.080403
0.088118 0.118067 0.083842
-0.017887 0.063456 0.029527
0.031652 -0.102297 -0.077929
0.032496 -0.111649 -0.089790
-0.072916 0.033437 0.105304
0.027750 0.139376 -0.084734
0.038767 0.111023 -0.081475
0.029681 -0.128645 -0.086027
0.004776 -0.001000 0.126411
0.032017 0.112755 -0.087750
0.068625 -0.115311 0.102009
0.030636 0.127568 -0.086174
0.085136 0.132208 0.117634
0.021742 0.108603 -0.082721
0.063857 0.123741 0.112745
0.096763 0.106119 0.162550
0.072360 0.118973 0.136307
0.084183 -0.139515 0.105835
0.013629 0.135428 -0.077968
-0.086307 0.071284 -0.005389
0.013673 0.061240 -0.075898
0.036076 -0.126363 -0.082476
0.082831 -0.139273 0.107707
0.096512 0.127063 0.165441
0.086451 -0.138059 0.104940
0.072829 0.126017 0.126662
0.074200 0.139243 0.110102
-0.060107 -0.070620 -0.067706
0.043219 -0.113675 -0.077439
-0.097717 -0.021883 -0.131261
0.015760 0.065335 -0.013953
-0.083764 0.065529 -0.068458
0.038215 0.044586 -0.162518
0.061660 -0.122276 0.101041
0.030505 0.135041 -0.084629
0.014807 0.128706 -0.062005
0.084384 -0.115180 0.168910
0.060566 0.118859 0.102424
0.064132 -0.117607 0.112623
0.085882 0.132107 0.131673
0.065541 -0.106165 0.113128
0.053787 -0.030520 0.134809
0.073057 0.035469 0.124528
0.025037 0.101583 -0.084970
0.029803 -0.015145 0.128552
0.036046 0.135192 -0.077756
0.018423 0.139504 -0.063042
-0.094063 -0.027464 -0.162352
0.049433 0.001000 -0.168918
-0.034192 -0.073270 0.043761
0.100722 0.117517 0.137923
0.091685 -0.016382 0.043254
0.072167 0.100704 0.111883
0.067110 -0.131831 0.111358
0.092411 -0.123588 0.110132
0.010825 -0.110750 -0.082254
0.083301 -0.113063 0.163496
0.048477 -0.008748 -0.136877
0.016048 -0.124563 -0.082978
0.090377 0.119005 0.094334
0.102418 -0.110204 0.158011
-0.105719 0.045071 -0.024526
0.010823 0.114078 -0.073457
0.063173 -0.137527 0.098021
0.047921 0.001000 -0.162387
0.096669 0.000000 0.032171
0.051437 -0.012278 -0.151587
0.033628 0.135122 -0.082291
0.074122 -0.101125 0.102734
0.087222 0.108462 0.168066
0.097767 -0.015088 0.081200
-0.096940 0.044636 -0.099992
0.019632 -0.128374 -0.083848
0.104235 -0.116175 0.159556
0.023002 0.099758 -0.080095
0.035563 -0.123247 -0.088025
-0.009083 0.071328 -0.167690
-0.069515 -0.065714 0.099887
0.059681 -0.128461 0.094393
-0.060264 0.062327 -0.162921
-0.026843 -0.063223 0.050163
0.079456 0.140280 0.106908
-0.099088 0.037845 -0.103603
0.066546 -0.117817 0.100418
0.090342 -0.129116 0.160322
0.069818 -0.029000 0.128313
0.090332 0.127167 0.097968
-0.105256 -0.035930 0.073504
0.078883 -0.124755 0.152493
0.058044 0.030333 0.130094
0.086404 0.138590 0.103764
0.025652 -0.106752 -0.088004
0.012122 -0.110786 -0.080234
0.036509 -0.131209 -0.083131
0.095096 -0.105280 0.138049
0.063934 0.140340 0.090520
-0.051361 -0.069723 -0.099224
0.096575 -0.031431 0.103778
0.045166 -0.015755 -0.168660
0.083376 0.113977 0.164122
0.011097 0.123359 -0.081473
0.013409 0.135409 -0.076404
0.020659 0.101881 -0.076593
0.011965 -0.119240 -0.083899
0.017225 -0.001000 -0.048987
0.064519 0.028805 0.012065
0.026636 0.125574 -0.086203
0.093654 -0.128846 0.124516
0.073768 -0.125446 0.138114
0.009737 0.062482 -0.160925
0.042288 -0.030031 -0.132917
0.085654 0.139388 0.102477
0.093699 0.029000 0.029257
-0.020572 0.001000 0.113828
0.092009 -0.035462 0.030517
0.018846 -0.132655 -0.085255
0.004956 -0.068112 -0.001587
-0.046649 0.076487 0.068938
0.077399 0.108137 0.149851
0.061588 0.122278 0.100814
0.060222 0.116175 0.107251
0.084434 0.116175 0.168907
0.105776 -0.035500 0.090503
0.010215 0.123031 -0.079269
0.040034 -0.035615 -0.168314
0.030969 0.105213 -0.087830
0.035276 -0.114387 -0.087414
0.069883 0.135965 0.111739
0.015833 -0.131928 -0.083385
0.052177 -0.001366 -0.149280
0.019838 0.126269 -0.086318
0.076641 0.031445 0.017534
0.032643 0.103879 -0.085704
0.035438 -0.137692 -0.075207
0.074437 0.140374 0.106752
-0.074427 0.059305 0.104185
0.071217 -0.101593 0.100564
0.075388 0.118989 0.150428
-0.098866 0.003126 -0.162799
0.023309 0.128257 -0.085070
0.101042 0.035472 0.044495
-0.097650 0.059776 0.073595
0.086124 0.130057 0.132358
-0.031366 -0.032960 0.069291
-0.098957 0.001000 -0.153068
0.011422 0.112570 -0.079872
0.017953 -0.029500 -0.018778
0.015079 -0.063236 -0.079001
0.093751 -0.015000 0.111163
0.084603 0.111884 0.168472
-0.108850 0.000000 0.057889
0.019596 0.138610 -0.073209
-0.083971 -0.061849 0.100132
0.080327 -0.140096 0.107371
0.022399 -0.056281 -0.162895
0.096427 -0.127448 0.165283
0.052317 0.007486 -0.162325
0.108250 0.029535 0.050767
0.091801 -0.016382 0.043474
0.091345 0.114511 0.089938
0.091877 -0.128593 0.110177
0.070428 0.122140 0.134231
0.038999 -0.120413 -0.081677
0.079943 -0.099455 0.095309
0.014850 0.031500 0.004581
0.088679 0.129427 0.141378
0.057359 0.114029 0.092667
0.030756 -0.135059 -0.084521
0.011745 0.122086 -0.074854
0.066732 0.114429 0.100996
0.064072 -0.122491 0.108202
0.017908 0.140247 -0.077860
0.032499 -0.117598 -0.087888
0.031263 0.122421 -0.087476
0.039520 -0.109773 -0.078358
-0.011402 -0.003000 0.116022
0.085869 -0.135063 0.096440
0.016736 0.029000 -0.022417
0.035288 -0.123302 -0.088190
0.031956 -0.114813 -0.089813
0.028404 -0.132283 -0.085493
0.035319 0.120648 -0.086728
0.023674 0.125625 -0.082755
-0.096388 0.000000 -0.137990
0.092979 -0.128342 0.138656
0.013985 -0.126474 -0.070895
-0.046921 0.068409 -0.167741
-0.086069 -0.072596 0.041981
0.092970 0.031500 0.112512
0.020623 -0.134865 -0.084462
0.025471 -0.126471 -0.087898
0.012104 -0.105670 -0.076262
-0.018272 0.075813 -0.162324
0.030077 -0.138506 -0.080369
0.083495 0.031500 0.019062
0.025006 0.138446 -0.081291
0.058321 -0.120186 0.099740
0.075845 -0.129632 0.131291
0.025658 0.128756 -0.087666
0.084968 -0.139644 0.103851
0.074598 -0.114830 0.148938
0.085397 -0.120988 0.168619
0.068284 -0.135020 0.106800
0.021469 -0.124263 -0.072716
0.018755 0.106936 -0.086025
0.012234 -0.127236 -0.080378
-0.097099 0.017996 -0.162352
-0.027202 -0.066665 0.033965
-0.091052 0.025651 -0.162921
0.015831 0.127501 -0.081873
-0.093661 -0.044028 -0.115611
0.074840 -0.117446 0.143861
-0.028782 -0.080127 0.016849
0.012708 0.108326 -0.075430
0.042764 0.031900 -0.103792
0.030745 0.135059 -0.084531
0.067945 0.130966 0.109009
0.089739 0.131501 0.121672
0.088765 0.107071 0.167624
0.084222 -0.137648 0.084700
-0.097556 0.056400 -0.023241
0.044989 0.035500 0.133502
0.021419 -0.138791 -0.063902
-0.057353 0.061156 -0.162446
0.098004 0.015096 0.059970
0.076069 0.108388 0.098308
0.065593 -0.137568 0.097327
0.030418 0.124875 -0.088989
0.097766 0.015088 0.081202
0.025825 0.050246 -0.168058
-0.018153 0.064190 0.029334
0.030551 0.104191 -0.083873
0.052237 0.009823 -0.153722
-0.067134 0.057709 -0.160169
0.076749 -0.131724 0.125910
0.073932 -0.128908 0.122434
0.047225 -0.018747 -0.110771
-0.024135 -0.072656 -0.167667
0.014791 0.065597 -0.009708
0.000846 -0.068367 -0.162895
0.036720 -0.123059 -0.087138
-0.060737 0.061008 -0.160322
0.025343 0.126012 -0.085832
0.086407 0.128381 0.087675
0.024888 0.126575 -0.087739
0.085868 0.138475 0.105518
0.028727 -0.125467 -0.071379
-0.109620 -0.003000 0.086828
0.051386 0.012479 -0.151090
0.083769 -0.139149 0.107119
0.015637 0.135268 -0.082351
-0.012817 -0.031893 0.025953
0.022645 -0.124685 -0.071481
0.015725 0.131048 -0.080322
0.100368 0.106496 0.164295
0.032231 0.031212 0.133766
-0.064355 -0.066870 -0.131400
0.064072 -0.122491 0.108202
0.098600 -0.104086 0.154805
0.035401 -0.038571 -0.168262
0.001258 0.071941 -0.036920
0.086662 -0.137903 0.104729
0.017695 -0.058422 -0.085447
-0.069068 0.073947 0.094162
0.048508 -0.029000 0.133013
0.075166 -0.133629 0.119834
0.014463 -0.064872 -0.006097
0.051113 0.006485 -0.134440
0.055428 0.035500 0.132711
0.079973 -0.101559 0.095401
0.012952 -0.131267 -0.078776
0.020619 0.126331 -0.084450
0.031928 0.114472 -0.081584
0.095791 0.035466 0.035333
0.001779 -0.029000 0.006574
0.052364 -0.007759 -0.155664
0.013130 -0.111455 -0.082029
0.010279 -0.111802 -0.067999
0.084663 -0.138945 0.106475
0.012645 -0.062211 0.001484
0.036585 0.131202 -0.083021
0.036300 0.107469 -0.082199
0.087140 0.130751 0.098264
0.033904 -0.117258 -0.081139
0.083301 -0.119286 0.163496
0.100238 0.030520 0.105905
0.073813 0.133352 0.119102
0.085018 -0.134685 0.109654
0.029347 -0.103658 -0.083710
-0.064838 -0.077162 0.087110
0.034068 -0.116175 -0.080795
0.019275 0.138548 -0.075592
0.009921 0.118675 -0.067885
-0.063582 0.064295 -0.162706
0.098510 0.105613 0.164828
0.102284 -0.107143 0.153748
0.087376 -0.135489 0.094064
0.086995 -0.125755 0.091186
0.020464 -0.126031 -0.086515
-0.005463 -0.076254 -0.003385
0.041544 -0.114283 -0.071236
0.083880 -0.115166 0.165396
0.051570 -0.123244 0.026418
0.034542 0.112861 -0.089717
0.046812 -0.010953 -0.114784
0.010686 -0.115351 -0.072174
0.021127 0.126535 -0.086687
0.012492 0.114634 -0.081968
0.048125 -0.008784 -0.130865
0.018755 0.059818 -0.083293
0.030890 0.131746 -0.087243
0.064335 0.104941 0.097688
0.015339 0.107043 -0.081992
0.027626 0.140162 -0.083171
-0.028623 0.032966 0.065691
0.009717 0.120668 -0.070593
0.038640 0.135547 -0.076125
0.012639 0.127362 -0.081169
0.004462 -0.030520 0.126592
0.026455 0.093500 -0.083690
0.014006 0.122043 -0.082403
-0.104904 -0.042828 0.087249
0.012527 0.122244 -0.070130
-0.106443 0.023027 -0.036409
0.100334 0.107879 0.161153
0.087276 0.137372 0.103976
0.014556 0.130760 -0.076509
0.032019 0.111186 -0.087693
0.081281 -0.138042 0.106561
0.011545 0.114465 -0.080904
0.058723 0.109456 0.025051
0.082505 -0.103993 0.151454
0.072339 -0.136172 0.113630
0.004956 -0.068112 -0.001587
0.072518 0.136187 0.113734
0.032530 -0.118278 -0.085296
0.047994 0.014638 -0.168680
-0.015964 0.075120 -0.162843
0.012581 0.131208 -0.075721
0.083772 0.113409 0.100269
0.078082 -0.100965 0.102199
0.090368 -0.123078 0.091524
0.101938 0.030520 0.037029
0.075631 0.131924 0.118853
0.022697 0.130323 -0.086860
-0.012552 0.034448 0.023353
0.085727 -0.102215 0.131116
0.089604 -0.118321 0.083416
0.101195 -0.116175 0.130245
0.059296 -0.016500 0.131843
0.007304 0.066701 -0.160130
0.012469 0.122434 -0.080172
0.065086 0.137532 0.103300
0.073694 0.125422 0.098642
0.011740 -0.122115 -0.077186
-0.090263 0.011267 0.105869
0.015239 0.131766 -0.082797
-0.021056 0.072387 -0.162921
0.056010 -0.016348 0.122261
0.102098 -0.016500 0.098671
0.028315 -0.050659 -0.087176
0.085353 0.135091 0.094061
0.080009 0.118732 0.161710
0.095802 -0.102959 0.142854
0.090519 0.118897 0.094191
0.043653 -0.118328 -0.070674
0.032991 0.113966 -0.087972
0.036312 -0.016104 0.003756
0.090300 -0.128925 0.147265
-0.013822 0.031500 0.114694
0.090081 0.131302 0.121080
0.073820 -0.126513 0.127951
-0.030244 -0.065357 0.065615
0.010118 0.120185 -0.068269
0.033184 0.117522 -0.083525
-0.086558 0.033453 -0.160438
0.081977 0.129751 0.132356
0.033636 0.117699 -0.090018
-0.108680 0.000000 -0.006675
0.086544 0.015137 0.035931
0.079206 0.108235 0.092216
0.033991 -0.106982 -0.087767
0.040834 -0.120650 -0.076755
0.042807 0.015393 0.008291
0.086221 -0.128421 0.087742
0.032018 0.122929 -0.087382
0.091237 0.000000 0.022287
0.048420 -0.031431 0.130962
0.022364 -0.093500 -0.079232
-0.044831 0.081033 0.046870
-0.101857 -0.048382 -0.024279
0.076439 0.140096 0.108486
-0.096888 -0.015295 -0.122275
0.028348 -0.128523 -0.086043
0.015544 -0.106962 -0.082144
0.031882 -0.135366 -0.086166
0.031198 0.127984 -0.088064
-0.085583 0.072114 0.057786
0.028902 0.108295 -0.086856
0.103369 0.112759 0.155530
-0.043268 0.073048 -0.131435
0.097588 -0.031431 0.102114
0.031575 -0.114844 -0.083082
0.084781 -0.016405 0.106261
0.029038 0.030004 0.131097
0.020742 -0.045586 -0.028099
0.019582 -0.140610 -0.073260
0.102123 0.122988 0.142758
0.033674 -0.111177 -0.089628
0.035918 -0.116175 -0.089453
0.016832 0.131455 -0.081600
-0.104475 -0.035221 0.086840
0.067655 0.135506 0.105418
0.079111 0.101101 0.101394
-0.047539 -0.077632 0.069246
0.012841 -0.061992 -0.067826
0.022090 0.056556 -0.162921
0.094644 0.120967 0.105434
0.078956 -0.027000 0.016819
0.017528 0.138557 -0.062786
0.068301 -0.114435 0.100357
-0.071389 -0.059576 0.102750
0.027145 -0.123948 -0.070658
0.030867 -0.122211 -0.075590
0.029889 -0.109864 -0.089220
0.014742 0.000000 -0.013313
0.006053 0.063876 -0.167820
0.061777 -0.029535 0.133593
0.090740 0.127295 0.100073
0.094111 -0.122159 0.104931
0.033574 0.138449 -0.083222
0.051656 -0.010773 -0.155516
0.077754 -0.035472 0.121957
0.089962 -0.128753 0.117120
0.094468 -0.127539 0.165845
-0.076932 0.047414 -0.160368
0.013552 0.120002 -0.084533
0.033487 0.103358 -0.084215
0.076624 0.106725 0.101799
0.045742 0.031238 0.134576
-0.009083 0.071328 -0.167690
0.020434 -0.128325 -0.084156
-0.005463 -0.076254 -0.003385
0.009072 0.120494 -0.075203
0.011301 0.031500 0.123420
0.092523 -0.035462 0.031115
0.072632 -0.101365 0.102048
0.048425 -0.025141 -0.162294
0.085523 0.135209 0.094967
0.030468 -0.108213 -0.077530
0.081599 -0.117323 0.165400
0.052617 -0.001000 -0.158967
0.011029 0.122872 -0.068203
0.066179 0.130777 0.105216
-0.078057 0.073609 0.026404
0.071388 -0.134808 0.110941
0.052500 -0.005365 -0.157699
0.042098 0.112314 -0.079882
0.022000 0.099304 -0.072003
0.079165 -0.101421 0.093433
0.018343 0.132170 -0.082678
0.010155 -0.122904 -0.072560
0.077434 -0.125422 0.097569
-0.111564 0.001000 0.056061
0.020333 0.140472 -0.078923
0.029720 -0.134865 -0.084983
0.015831 0.127501 -0.081873
0.017463 0.115180 -0.076354
0.015636 -0.135161 -0.072807
0.037393 -0.137108 -0.078459
0.016931 -0.137646 -0.062614
0.020827 0.128306 -0.084296
0.071895 -0.136135 0.113355
0.031808 0.124325 -0.089082
0.082691 -0.115287 0.094849
0.026601 -0.099768 -0.080774
0.087402 -0.124397 0.167872
0.028736 0.030004 0.132102
0.083499 -0.117115 0.097698
0.072605 0.140409 0.105899
0.051112 -0.109456 0.027234
-0.095049 -0.028348 -0.147109
0.087920 -0.135413 0.096771
0.089986 -0.029000 0.114714
0.032940 -0.122979 -0.087135
-0.061634 -0.079782 0.026162
0.028795 0.135042 -0.087152
0.050840 0.000250 -0.149642
-0.100378 0.001000 -0.119623
0.014560 -0.130748 -0.076607
0.072829 0.126017 0.126662
0.080850 -0.140282 0.106155
0.021926 0.101399 -0.072289
0.024382 -0.130264 -0.085227
0.015936 0.135224 -0.082737
0.077623 -0.123667 0.097417
0.051892 0.007028 -0.162845
0.083658 0.139603 0.106239
0.104769 0.110885 0.162687
0.025840 -0.001000 0.134310
0.108483 0.016500 0.077804
0.015914 -0.132364 -0.069605
0.023085 0.100049 -0.081230
0.038258 0.139752 -0.068733
0.038241 0.039941 -0.160247
0.017334 -0.138320 -0.062730
0.087926 0.131328 0.108822
0.081806 -0.130820 0.125933
0.068248 0.138674 0.096565
-0.090488 -0.025745 -0.168486
0.024189 -0.056554 -0.088930
0.020742 -0.023500 -0.031513
0.043759 -0.023089 -0.109921
-0.098128 -0.001000 -0.161792
0.063004 -0.120706 0.113856
0.087921 -0.135869 0.105181
0.095651 0.105127 0.157744
0.050774 0.014165 -0.148915
-0.099314 -0.014695 -0.123331
0.011703 0.122092 -0.076289
0.027823 0.102087 -0.081032
0.032207 -0.113358 -0.087804
0.104010 0.031500 0.044898
0.069753 -0.113409 0.104291
0.015804 -0.063069 -0.004945
0.097667 -0.128358 0.160789
0.060889 0.116590 0.102749
0.082061 0.138268 0.105010
0.046816 0.002960 -0.168884
0.027615 0.107661 -0.083886
-0.030195 0.064682 0.066409
0.028732 -0.055390 -0.162294
0.029212 0.135094 -0.087096
0.032106 0.135116 -0.083717
-0.066274 0.070994 0.095098
0.051596 0.010948 -0.140400
-0.069213 -0.077384 0.073580
-0.000088 -0.074340 -0.007342
0.036198 -0.135402 -0.082146
0.086304 0.135038 0.100199
0.026836 -0.054277 -0.099943
0.034744 -0.135117 -0.080742
0.085353 -0.125434 0.164322
0.090568 -0.113478 0.094074
0.046966 -0.028190 -0.162772
0.025020 0.031238 0.132613
0.088069 -0.131805 0.134011
0.026705 0.136520 -0.086954
0.101596 0.107254 0.147701
-0.110528 0.017748 -0.005353
-0.025752 0.075803 -0.162686
-0.003159 0.072957 -0.162799
0.066495 -0.138220 0.097068
0.108467 0.031500 0.060367
0.019119 -0.102492 -0.075973
0.090295 0.105673 0.166839
-0.084791 0.038233 -0.162921
-0.104410 0.021772 -0.067801
-0.042977 0.080267 0.047773
0.031827 -0.127073 -0.086015
0.084243 0.139852 0.104560
0.067768 0.114072 0.104340
0.051531 0.008883 -0.138250
0.075874 -0.129650 0.131282
0.069030 0.132276 0.114295
0.089092 0.132878 0.112341
0.035025 0.117032 -0.087640
0.014675 0.103801 -0.069250
0.074891 0.133575 0.119707
0.031424 0.103601 -0.082065
0.012309 -0.122694 -0.083498
0.081801 -0.139765 0.107466
0.039758 -0.112367 -0.080254
0.027832 0.125840 -0.088500
0.032418 0.123969 -0.089108
0.063163 -0.126438 0.100545
0.017267 0.022991 0.126236
0.085676 -0.031500 0.119454
0.009753 -0.111493 -0.070681
0.021445 -0.056244 -0.085226
0.041553 0.123029 -0.078575
0.069370 0.104640 0.120382
0.021073 -0.140461 -0.079581
0.036193 0.029331 0.008607
0.084625 0.114093 0.168852
-0.091547 0.061464 -0.036281
0.077499 -0.100927 0.102503
0.106117 0.029000 0.087888
0.016527 0.113409 -0.081225
0.017314 0.134152 -0.081462
0.014642 0.131624 -0.082140
0.030249 -0.122724 -0.087242
0.011449 -0.063786 0.000506
-0.086558 0.033453 -0.160438
0.040508 -0.112253 -0.078219
0.083254 -0.117679 0.097161
0.067543 -0.135468 0.105278
-0.019837 -0.062770 0.033003
-0.005983 0.071727 -0.099944
0.013604 -0.122544 -0.081919
0.109183 0.031500 0.067742
-0.007142 -0.029000 0.039706
0.039164 -0.128224 -0.076275
0.074632 0.137637 0.108956
-0.066857 -0.068760 -0.099968
0.027579 -0.102972 -0.083203
0.085451 0.107518 0.165483
0.033709 0.114670 -0.081607
-0.107381 -0.022883 0.094078
0.033095 -0.113097 -0.087929
0.089103 -0.126671 0.101560
0.062908 -0.135522 0.099369
-0.045000 -0.072291 -0.162816
0.014212 -0.126507 -0.069988
0.043306 0.033292 -0.128884
0.052634 0.001000 -0.162597
0.011342 0.112372 -0.072208
0.091966 0.119973 0.093714
0.072360 0.118973 0.136307
0.033817 0.131352 -0.085928
0.060247 0.122182 0.026683
0.029810 0.016355 0.128528
0.023234 0.102719 -0.082584
0.082505 -0.103993 0.151454
0.070770 0.101637 0.099770
0.032530 -0.114072 -0.085296
-0.040531 -0.067830 -0.167751
-0.027555 0.031892 0.065932
-0.048922 -0.079620 0.069040
-0.009398 0.030237 0.043281
0.058993 -0.124658 0.025246
0.086883 0.130486 0.123858
-0.097416 -0.002500 -0.143919
-0.046437 -0.079011 0.067745
-0.000535 0.066486 -0.167775
0.097649 0.029535 0.030178
0.072709 -0.029000 0.126807
0.035023 0.105886 -0.081833
0.061078 0.118511 0.102772
-0.102392 0.050783 0.010703
0.076439 0.140096 0.108486
0.031222 0.138549 -0.078980
0.013647 -0.062734 -0.007339
0.058975 -0.128684 0.091943
0.016476 0.128680 -0.082049
0.105968 -0.114058 0.161769
0.084284 0.118287 0.165758
0.108407 0.031500 0.059933
0.075512 -0.129396 0.123986
0.034846 0.122365 -0.086305
0.069745 -0.126457 0.124735
0.012062 0.125560 -0.068500
0.011053 -0.120252 -0.076397
0.014458 0.131582 -0.081907
0.009240 -0.063718 0.002311
-0.072758 0.059441 0.103908
0.019746 0.062030 -0.162843
0.097698 0.031500 0.106584
0.030955 -0.109021 -0.087315
0.018401 -0.136224 -0.063036
0.089578 0.131534 0.101907
0.064248 0.116175 0.113198
0.017603 0.129056 -0.085059
0.040250 0.128287 -0.072938
0.028552 -0.125301 -0.086661
0.082034 0.140553 0.097464
0.099704 -0.031500 0.103526
0.075264 0.139344 0.110076
0.030748 -0.016281 0.125408
0.019491 0.100160 -0.072412
-0.037640 -0.073381 0.055524
0.108790 0.031500 0.077540
0.096595 -0.113183 0.111633
-0.047139 -0.068453 -0.162895
0.014576 0.127023 -0.069221
0.032706 0.116882 -0.087945
0.009411 0.113554 -0.070141
0.106400 -0.035478 0.075968
0.013360 -0.122766 -0.081518
0.104921 0.121695 0.161598
0.016502 0.105087 -0.084541
0.079154 -0.100982 0.094065
0.034304 0.138455 -0.082415
0.024189 0.056554 -0.088930
0.105304 0.113026 0.162878
0.075388 0.113361 0.150428
-0.011436 0.000000 0.116080
-0.062844 0.076458 0.088313
0.077069 0.118906 0.154738
0.076883 0.100923 0.102692
0.096526 0.105113 0.165397
-0.097696 0.011741 0.104421
0.023807 0.093500 -0.070936
0.050802 -0.007782 -0.131442
0.036779 -0.131208 -0.082721
0.022477 -0.140449 -0.080452
0.103656 -0.031500 0.096084
0.071569 0.140202 0.106961
0.081682 -0.125821 0.149738
0.033010 -0.127530 -0.087643
0.096427 -0.127448 0.165283
0.053992 0.035500 0.132934
0.049252 -0.009856 -0.155346
0.027873 0.133872 -0.087360
-0.096367 -0.003000 -0.136740
0.069674 0.125040 0.127590
0.038863 -0.120515 -0.085977
0.065312 0.139148 0.100288
-0.010220 0.029331 0.042881
0.024898 -0.128291 -0.085484
0.012597 0.122495 -0.080416
0.030701 -0.121405 -0.089452
-0.041398 -0.073300 -0.162816
0.030776 -0.122067 -0.084793
0.014818 0.114072 -0.080214
0.033264 0.135427 -0.085325
0.074700 -0.140282 0.107699
0.017420 0.134974 -0.084121
0.084263 -0.030333 0.117710
0.047983 -0.002500 -0.168857
0.014321 0.127928 -0.083138
0.031876 -0.101396 -0.081935
0.015935 -0.063331 -0.006409
0.088109 0.135781 0.103844
0.017267 -0.022991 0.126236
0.082156 0.118472 0.161616
0.029148 -0.029000 0.128798
-0.084178 0.045393 -0.146025
0.080540 0.131434 0.132634
0.040059 0.120494 -0.084094
-0.026575 0.065285 0.045695
0.072675 0.137909 0.108046
0.039606 0.115124 -0.081715
-0.060564 -0.076574 0.073454
0.063214 -0.135396 0.100394
0.094520 0.123211 0.118208
-0.048483 0.078668 0.069533
0.102188 0.114897 0.145335
0.067563 0.136957 0.103808
-0.013860 -0.072001 -0.167679
-0.090862 0.063561 0.073383
0.013668 -0.063389 -0.000886
-0.021290 -0.062853 0.035878
-0.061256 0.075768 -0.036923
0.094609 -0.126586 0.118036
-0.096648 0.045265 -0.099845
0.021761 0.135000 -0.072521
0.011301 0.031500 0.123420
-0.071794 0.067072 0.100814
0.085116 0.117044 0.097284
0.077798 -0.117445 0.157062
-0.050676 0.067014 -0.162921
0.098786 -0.015089 0.074086
0.083800 -0.138119 0.102512
0.085523 0.135209 0.094967
0.017109 0.139704 -0.069948
-0.076712 0.059440 0.103772
0.078234 -0.112405 0.156937
0.032039 -0.048920 -0.099944
0.089390 0.131401 0.100224
0.032201 0.127713 -0.087890
0.024389 -0.106384 -0.087642
0.072351 -0.100515 0.111174
0.074437 0.140374 0.106752
0.065547 -0.126610 0.107286
0.018152 0.057258 -0.160946
-0.074006 0.029000 0.103059
0.037902 -0.131242 -0.080609
0.012054 0.120150 -0.068990
0.013898 -0.137039 -0.074212
0.031933 0.045123 -0.099379
0.041422 0.131790 -0.069641
-0.026072 -0.064662 0.045824
0.007592 -0.065599 -0.162895
0.081496 -0.100213 0.092764
-0.059579 0.069383 -0.083456
0.012679 -0.108536 -0.077976
0.071403 0.131407 0.114637
-0.013991 -0.063992 0.023442
0.071305 -0.103132 0.110565
0.104051 -0.114167 0.159609
0.084113 -0.139880 0.104676
