0.106040 -0.073807 0.009962
0.078872 -0.043557 0.096740
-0.038639 0.060228 0.093413
0.120550 -0.001347 0.076476
0.092409 -0.062762 -0.034722
0.069965 0.049773 0.092905
-0.064832 -0.019318 0.094662
0.089758 0.061870 -0.034479
0.109047 -0.072441 -0.008889
-0.050032 -0.051895 0.091657
0.105481 0.027526 0.067996
0.120768 -0.001303 0.073986
0.108670 0.029801 -0.069319
0.114274 -0.000536 0.074324
0.099292 -0.021908 0.094617
0.056786 0.057028 0.045709
0.107800 0.074114 -0.013783
0.094274 0.061282 -0.037062
0.114554 0.018845 0.073592
0.107397 -0.071578 -0.012932
0.084351 -0.050220 0.053434
0.094202 0.060641 0.034521
-0.066891 -0.019443 0.033339
0.075711 -0.039922 0.032206
0.120768 0.014727 -0.072520
0.019079 -0.061677 0.034077
-0.060637 -0.032218 0.094106
0.053776 -0.059384 0.038374
0.079270 0.052377 -0.050684
0.075641 0.038714 -0.035441
0.008213 -0.068745 -0.091343
0.109246 0.020947 -0.070730
0.110329 0.000539 0.081043
0.105348 -0.011544 0.093554
0.096354 -0.063571 0.038617
-0.067602 0.006217 0.094891
-0.068704 -0.012990 -0.092281
0.109464 0.000000 0.077717
0.053790 -0.058937 0.034967
0.103443 0.032500 0.068124
0.070383 0.051101 0.095173
0.091206 -0.061068 0.032919
-0.007861 -0.071078 0.036057
0.106831 -0.010379 0.079008
-0.034623 -0.062744 0.035916
-0.061737 -0.032787 0.091948
0.108829 -0.074913 -0.009193
-0.066020 -0.019689 -0.094323
0.055856 0.057272 0.037265
0.104459 0.011346 -0.094468
0.044347 0.058441 0.037742
0.094670 0.032943 0.093190
0.097873 -0.030328 0.071051
0.090650 -0.057390 -0.033695
0.108024 0.001026 -0.080024
0.080015 0.045317 0.091746
-0.072951 -0.001685 -0.036028
0.094933 0.043902 0.059886
0.092317 0.063247 0.035656
0.112892 -0.022276 0.069846
0.109663 0.000000 0.092501
0.086590 -0.060008 0.036548
0.104382 0.069421 0.019441
0.096565 0.061445 -0.037320
0.093934 -0.061172 0.036131
-0.020827 0.065612 0.034145
0.086022 -0.041310 0.093048
0.095509 0.065037 -0.032671
0.103926 -0.028050 0.071779
-0.068097 -0.015035 -0.033262
0.078487 0.039083 -0.030710
0.107659 0.000000 -0.081087
0.097756 -0.063736 0.031877
0.095395 0.063886 0.037633
0.095418 0.061479 -0.033522
-0.012564 -0.070412 -0.036046
0.113659 -0.011334 -0.075697
0.108161 -0.075102 -0.004537
-0.042226 0.057928 0.091559
0.104107 -0.069038 -0.021870
0.118407 -0.003354 -0.073715
-0.072374 -0.006433 0.034961
0.070072 0.050083 -0.091667
0.076277 -0.050603 0.054650
0.102032 0.069211 0.028578
0.103758 -0.025318 0.075394
0.108728 0.072203 0.010457
0.110929 0.011016 0.077375
0.046770 0.060352 -0.036391
0.088251 0.061022 0.034173
0.053773 0.059557 0.036008
0.095923 -0.063898 -0.037890
0.085110 -0.048235 -0.051929
-0.072570 0.001703 -0.094386
-0.042226 0.057894 0.036969
0.080613 -0.046577 -0.095249
0.102185 0.028073 0.074044
-0.024425 0.062280 0.096413
0.092470 0.063327 0.035784
-0.025105 -0.064041 0.096009
-0.009396 -0.064065 0.034118
0.118562 -0.000646 0.073805
-0.067602 -0.006217 -0.094891
0.115057 -0.001226 0.076678
-0.017140 0.066923 -0.091373
0.051228 0.059525 0.035795
0.107479 -0.016600 -0.074116
0.094078 0.063774 -0.036018
0.081921 0.048592 -0.055955
-0.042348 -0.051982 0.094092
-0.038639 0.060228 0.093413
0.043545 0.059191 -0.034177
0.107895 0.025852 -0.071401
0.099848 -0.034619 0.063992
0.089229 -0.047648 0.056299
0.087997 -0.036911 0.096856
-0.063604 -0.027835 -0.096637
0.099930 -0.064774 -0.031833
0.015460 -0.069839 -0.036036
0.112989 0.013870 0.075202
0.092954 0.063510 -0.036198
0.107920 -0.002890 0.079950
0.090623 -0.042904 -0.061765
-0.072570 0.001703 0.094386
0.092161 -0.060988 0.036786
0.015512 -0.070056 -0.091362
0.076076 -0.061915 0.037437
0.090725 -0.056477 0.031049
0.101865 0.023919 0.074550
0.120768 -0.059382 0.044168
0.069497 0.000000 -0.035500
-0.063604 0.027835 -0.096637
0.109246 0.020947 0.070730
-0.050669 0.047327 0.036821
-0.067302 -0.026475 -0.092070
0.081240 0.046452 -0.054841
-0.064093 0.033216 0.035415
0.092900 -0.062492 0.032723
0.092842 0.062645 0.033899
0.115078 0.000585 0.076691
0.078045 0.039899 0.033474
0.102230 -0.069391 -0.028183
0.109035 -0.072765 -0.004337
0.015511 -0.070056 -0.037172
0.102185 -0.028073 -0.074044
-0.005468 0.066550 -0.093838
0.097499 -0.066396 0.032916
0.114280 0.000000 0.074337
0.080160 0.045557 -0.060352
0.089622 0.061794 0.034443
0.100247 0.026763 0.073120
-0.025105 0.064041 -0.096009
0.076117 -0.061489 -0.038619
0.098423 0.035490 -0.067504
0.078872 -0.043557 -0.096740
-0.065054 -0.025583 -0.036444
0.001481 -0.071711 -0.091335
-0.070156 -0.015511 -0.034145
-0.069584 0.015400 0.095774
0.021002 -0.063441 0.093892
-0.072568 0.000000 0.094387
0.075865 -0.047822 0.091704
0.104107 -0.069038 -0.021870
-0.069753 -0.006432 -0.093640
0.102825 -0.031165 -0.066092
0.100405 -0.022458 0.094276
0.120768 -0.050367 0.054222
0.093716 0.060206 0.034230
0.096565 0.061445 0.037320
0.001481 0.071711 -0.037200
-0.005567 0.067778 0.093489
0.057389 -0.029984 0.033523
0.115682 0.000000 -0.076527
0.099551 -0.066855 -0.033237
0.096572 -0.061443 0.037324
0.094155 0.063747 0.034254
0.085355 -0.053452 -0.030965
-0.019079 0.061677 0.036577
0.102185 -0.028073 0.074044
0.090799 -0.040068 -0.061271
0.090725 0.056477 -0.031049
0.096161 -0.062147 -0.035090
-0.049758 -0.051638 0.093556
0.095185 0.038907 0.065070
0.105622 -0.021484 0.077008
0.093682 0.038835 0.067015
0.058078 0.054704 0.042515
0.015512 0.070056 0.091362
0.089277 -0.038306 -0.096457
0.019305 0.066061 0.034153
-0.052904 -0.043449 0.093911
0.096572 0.061443 -0.037324
-0.070087 -0.006447 0.036112
0.078872 -0.045150 -0.035560
-0.065076 0.028488 -0.095551
-0.030494 -0.064719 -0.037083
0.120550 0.052062 0.056047
0.093934 -0.061172 -0.036131
0.096427 -0.030843 0.091987
0.088534 -0.058372 -0.032539
0.099915 -0.064745 0.031818
0.063189 -0.055272 0.041133
0.107511 -0.006642 -0.079609
0.098292 -0.064233 -0.031020
0.092235 0.036920 0.066309
0.112305 0.000000 0.078428
-0.017140 -0.066923 0.037160
0.088959 -0.038926 0.091852
0.109900 0.027298 -0.067740
0.120768 0.066420 0.032643
0.106799 -0.071264 -0.012697
0.094078 0.063774 -0.036018
0.107895 0.025852 0.071401
0.108067 -0.071703 -0.013147
0.110211 0.002947 -0.080963
0.093716 -0.060206 0.034230
0.106163 0.070789 0.014745
0.021002 0.063441 -0.093892
0.105321 0.070150 -0.017108
-0.026220 -0.066859 0.091414
0.093158 -0.063333 -0.035411
0.111681 -0.006994 -0.077964
-0.061438 0.032644 -0.093192
0.057450 -0.029178 -0.033509
0.076100 0.039827 -0.030710
0.091206 0.061068 0.032919
-0.037202 -0.057987 -0.096114
0.091099 0.040255 0.093755
0.094297 -0.063886 -0.034510
0.090725 0.056477 0.031049
0.086022 0.041310 -0.093048
0.103598 -0.020329 0.076099
0.078239 -0.051443 0.051808
0.001462 -0.070851 -0.035097
-0.072072 -0.001686 -0.033907
0.095100 -0.063777 0.037835
0.086407 -0.045935 0.058860
0.106626 0.070583 -0.017714
-0.068827 0.000000 0.094859
-0.004186 0.068971 0.091339
0.086437 0.041406 0.065357
0.078383 -0.038558 0.030681
0.101529 -0.022980 0.092118
-0.036193 0.056388 -0.096516
0.064592 -0.004517 -0.033079
-0.030494 -0.064719 -0.091448
0.102470 0.037337 0.064944
0.109650 0.000584 -0.084264
-0.059015 0.041067 -0.093731
-0.062369 0.017261 0.033301
0.052135 -0.058876 -0.034896
0.043261 0.058321 -0.034018
-0.047907 0.049717 0.096258
0.080613 -0.046577 -0.095249
-0.065076 0.028488 0.095551
0.022270 -0.067338 -0.035037
0.056786 -0.057028 -0.045709
0.022290 -0.060792 -0.036561
-0.019084 -0.061606 0.034075
0.076358 0.059170 -0.036577
0.055668 -0.059133 0.035055
0.046134 0.057538 -0.034004
0.044188 0.061121 0.037018
0.076328 0.059451 -0.037097
0.097921 -0.066789 -0.032217
0.114287 0.000000 0.074335
0.087570 -0.040500 -0.066314
0.120768 0.073701 0.006752
0.069300 -0.047792 -0.096666
-0.054998 0.043912 0.033992
-0.071487 0.001688 0.096007
0.095395 0.063886 -0.037633
0.090793 0.040935 0.091850
0.022472 -0.067942 0.036004
0.056786 0.057028 -0.045709
-0.060955 0.038470 -0.091875
0.091328 0.061188 -0.032968
0.094670 0.032943 0.093190
0.112892 -0.022276 -0.069846
0.104382 -0.069421 0.019441
-0.045272 -0.053657 0.034161
0.074399 -0.048468 -0.056181
0.107175 0.017556 -0.078362
0.093145 0.063380 -0.035394
0.069965 -0.049773 -0.092905
0.096560 -0.061442 -0.037323
-0.044753 0.046795 -0.033817
0.101223 0.022850 -0.093362
0.092484 0.060255 0.035631
-0.029482 0.062517 -0.091447
0.120768 0.039675 0.062470
0.109631 0.001175 -0.084250
0.092119 -0.058035 0.031265
-0.038060 -0.059334 0.095026
0.089157 0.042432 0.066314
0.099848 0.034619 -0.063992
-0.029431 -0.057674 -0.036507
0.076169 0.040986 0.032230
0.097225 -0.063228 0.032694
0.043545 0.059191 -0.034177
0.094530 0.061262 -0.035764
0.095203 0.033717 0.068774
-0.068008 0.015043 -0.096859
0.115078 -0.000585 -0.076691
0.094933 -0.043902 0.059886
0.058308 -0.057085 0.043247
0.090793 0.040935 0.091850
0.022086 0.066794 0.094899
0.095556 -0.063727 0.038134
0.091328 -0.061188 -0.032968
0.120768 -0.001303 -0.073986
0.078045 -0.039899 0.033474
0.094590 -0.063909 0.036679
0.088959 -0.038926 0.091852
0.107175 -0.017556 0.078362
0.101223 -0.022850 -0.093362
0.109158 -0.075162 0.006885
0.076150 -0.061224 -0.035077
0.108019 -0.011429 -0.092319
0.104989 0.072756 -0.017826
-0.019084 -0.061606 0.036576
0.080613 0.046577 0.095249
0.092696 0.061075 0.036846
0.057660 -0.029302 0.036012
0.103758 0.025318 -0.075394
0.057389 -0.029984 0.033523
0.109774 0.007012 -0.080610
-0.032083 -0.061139 0.092705
0.088644 0.058220 0.035790
0.104716 -0.022092 0.079839
-0.052904 0.043449 0.093911
0.047134 -0.057332 0.034001
0.115057 -0.001226 -0.076678
0.095835 -0.065361 -0.000491
0.055850 -0.057333 -0.036856
-0.005468 -0.066550 0.093838
0.109278 0.000000 -0.077956
0.055899 -0.056907 -0.033993
0.093795 0.034481 -0.071783
0.115057 -0.001226 -0.076678
0.022405 0.067741 -0.035682
0.108315 -0.072363 0.005458
0.096170 0.065675 0.031689
-0.019234 -0.066214 -0.092618
0.057389 0.029984 -0.036024
0.073136 -0.051119 -0.047946
0.096827 0.035455 0.069557
0.089156 0.061532 0.034352
0.001419 -0.068764 -0.034200
0.107163 0.000000 -0.092500
0.118322 -0.001343 0.076282
0.087710 -0.059076 -0.033635
0.062369 0.017261 -0.033301
-0.018645 -0.064167 0.093880
0.081240 -0.046452 -0.054841
-0.069619 0.006173 0.033108
0.102106 -0.021397 -0.092144
-0.012605 0.070631 -0.091352
0.112097 0.000000 0.075373
-0.045272 -0.053657 0.034161
-0.056819 0.039539 -0.096434
0.052157 -0.059494 -0.038153
0.091206 -0.061068 0.032919
0.072349 0.052672 -0.050544
0.105957 0.073492 0.015010
0.075865 0.047822 -0.091704
0.105348 0.011544 0.093554
-0.071487 -0.001688 0.096007
0.077224 0.050842 0.053152
0.082620 0.044116 -0.062240
0.105170 0.013543 0.082448
0.076340 -0.059336 0.036704
-0.044753 -0.046795 0.033817
0.019084 0.061606 0.034075
-0.066891 0.019443 0.033339
0.047324 0.058328 0.034196
0.105737 -0.033688 -0.067229
-0.012347 -0.069221 -0.094857
0.093797 0.043365 -0.057030
0.105476 -0.020326 0.092178
0.087084 -0.060344 -0.034063
-0.069758 0.020276 0.036339
-0.066064 0.028911 0.093933
0.105653 0.072377 0.020399
0.087359 -0.044755 0.055727
-0.066206 -0.028962 -0.035343
0.108200 0.075131 0.004119
0.108730 -0.029038 -0.066921
-0.032242 0.061427 0.091466
0.094906 0.061265 0.035131
0.057660 0.029302 -0.033511
0.084898 0.049931 -0.053755
-0.066020 0.019689 -0.094323
-0.060637 0.032218 -0.094106
0.070383 0.051101 -0.095173
-0.072570 -0.001703 0.094386
0.100780 0.066453 0.026778
0.108899 0.072669 0.005558
0.073235 0.040623 0.036209
0.076087 0.061821 0.036182
0.102185 -0.028073 0.074044
0.104752 0.072856 0.014475
0.089603 -0.041028 -0.060421
-0.062306 -0.017622 -0.035808
0.107397 0.071578 -0.012932
-0.049421 -0.051282 -0.034760
0.113673 0.006913 -0.073934
0.078383 -0.038558 0.030681
0.110211 0.002947 0.080963
-0.066420 -0.029039 -0.036486
0.103952 0.007663 0.097366
-0.067602 -0.006217 0.094891
0.076378 -0.058967 -0.036530
0.094933 -0.043902 -0.059886
0.058078 0.054704 -0.042515
0.102793 0.025959 0.078093
0.091206 -0.061068 0.032919
0.094936 0.033140 -0.091949
0.105476 -0.020326 0.092178
0.108024 -0.001026 0.080024
0.096548 -0.037879 -0.061713
0.072904 0.038941 -0.036180
0.109900 -0.027298 0.067740
0.055638 0.059360 0.038623
0.044347 -0.058441 0.037742
0.081429 0.047755 0.091741
0.043801 -0.059972 0.034608
0.099661 -0.031865 -0.071908
0.053372 -0.036661 -0.036140
-0.007887 0.071300 0.037193
0.070051 0.050090 -0.095900
0.055899 -0.056907 0.033993
0.099411 0.068573 -0.026308
0.070383 -0.051101 0.095173
0.096570 -0.061447 -0.037317
-0.017709 -0.069217 -0.037158
0.095680 -0.064036 0.037446
0.098648 -0.032442 0.074385
0.055856 -0.057272 -0.037265
0.098927 -0.027609 -0.076517
0.108387 0.075262 -0.000198
0.112989 -0.013870 0.075202
0.076335 0.059380 -0.037294
0.105835 0.007976 0.096981
0.110875 -0.017197 0.071918
0.053768 0.059714 0.037209
0.095395 0.063886 -0.037633
0.076335 -0.059380 -0.037294
0.086590 -0.060052 0.034048
0.081409 -0.047720 0.060357
0.079894 0.048616 0.059242
-0.005567 -0.067778 -0.093489
0.075853 -0.039821 -0.035463
0.109527 0.003056 0.084175
0.107224 -0.074429 0.010328
0.117674 -0.007644 -0.075854
0.120550 -0.068655 0.033742
0.087007 -0.053161 0.033712
0.085110 0.048235 -0.051929
0.104361 0.022370 0.092145
0.022290 0.060792 0.036561
-0.030494 0.064719 -0.037083
0.100067 0.030333 0.068221
0.087599 -0.052737 0.030980
0.009225 -0.070798 -0.037185
-0.036193 -0.056388 0.096516
0.074397 -0.038861 -0.033277
0.081153 -0.047495 0.093636
0.095835 0.065361 -0.000491
0.073235 -0.040667 0.033710
0.043545 0.059191 0.034177
-0.007686 -0.069495 0.034436
0.087359 -0.044755 -0.055727
0.053768 -0.059714 0.037209
0.093056 0.062847 -0.034094
0.096621 -0.030969 -0.074369
-0.040787 -0.055908 -0.091559
0.053780 -0.057166 -0.037220
0.106831 0.010379 0.079008
0.109063 0.007267 0.083783
-0.053865 -0.044223 -0.091755
-0.058789 0.037070 0.091876
-0.017140 0.066923 0.091373
-0.020827 -0.065612 0.034145
0.090793 0.040935 -0.091850
0.102185 -0.028073 0.074044
0.021002 -0.063441 -0.093892
0.099037 0.039428 0.060368
0.008909 0.068314 -0.037184
-0.068000 0.000000 -0.095000
0.113659 -0.011334 0.075697
0.069300 -0.047792 -0.096666
0.106578 -0.006981 0.083772
0.095110 0.064203 -0.036317
-0.029432 0.062465 -0.037083
0.107175 -0.017556 -0.078362
0.044139 0.060986 0.036100
0.107920 0.002890 0.079950
0.043801 0.059972 -0.034608
0.087792 0.046575 -0.057407
0.116782 -0.011956 -0.075216
0.101719 0.067052 -0.026738
-0.012069 -0.067652 -0.095947
-0.072951 -0.001685 -0.092473
0.029431 -0.057674 0.036507
0.109887 -0.073057 0.000054
0.114554 -0.018845 0.073592
0.088158 0.059432 -0.033596
0.078700 -0.039575 0.030738
0.109774 -0.007012 -0.080610
0.093318 0.063647 -0.036508
-0.036193 -0.056388 -0.096516
-0.059144 0.041145 -0.035549
0.120768 0.039675 -0.062470
0.100599 -0.024760 -0.078093
0.094801 -0.060859 -0.032835
-0.042226 0.057928 -0.091559
0.015512 -0.070056 -0.091362
-0.052467 -0.049021 0.036820
0.096971 0.039564 -0.063512
0.108157 0.000000 0.096000
-0.060637 -0.032218 0.094106
0.105476 0.020326 -0.092178
-0.021453 0.067605 0.035041
0.107224 -0.074429 0.010328
0.062369 0.017261 -0.035802
0.110929 -0.011016 0.077375
0.110211 0.002947 -0.080963
0.107315 -0.073730 0.015500
0.077224 -0.050842 0.053152
0.110306 0.013497 0.076880
0.041641 0.049409 -0.033862
0.109663 0.000000 -0.092501
0.021587 0.065280 -0.095988
0.076330 -0.059435 -0.036888
0.015115 -0.068284 -0.034415
0.101865 0.023919 -0.074550
0.093682 0.038835 -0.067015
0.102106 0.021397 -0.092144
-0.055747 -0.044515 0.034644
-0.064592 -0.004517 0.033079
0.064592 0.004517 -0.033079
0.094297 0.063886 0.034510
0.021620 0.065352 -0.034141
0.107432 -0.008228 0.095897
0.120550 -0.041009 0.064573
0.076561 0.046600 -0.036314
-0.058789 -0.037070 -0.091876
0.109774 0.007012 0.080610
0.075892 -0.038775 0.030681
0.114469 -0.007217 -0.076286
0.075892 -0.038775 0.030681
0.097295 0.033765 0.066082
-0.066064 0.028911 -0.093933
0.091405 -0.062765 -0.035098
-0.019330 -0.066527 -0.091380
0.088959 -0.038926 -0.091852
0.091414 0.062770 0.035094
-0.029482 0.062517 0.037084
0.008172 -0.068419 -0.092580
-0.069866 -0.001641 0.097091
0.099246 0.064124 0.033017
0.090155 -0.056929 0.033780
-0.072722 0.001695 -0.034880
-0.070087 -0.006447 0.092391
0.058078 0.054704 -0.042515
0.104532 0.022464 0.079671
-0.004338 0.071340 0.037194
-0.026134 0.066652 -0.035982
0.105481 0.027526 -0.067996
-0.054116 -0.043192 0.033754
0.080571 0.044110 -0.033549
0.112901 -0.010749 0.073388
0.107432 0.008228 0.095897
0.104459 0.011346 0.094468
0.105212 0.000000 0.094939
0.083120 0.049215 0.054556
0.093752 0.063566 0.034971
0.120550 0.041009 0.064573
0.109527 -0.003056 0.084175
0.088644 -0.058220 0.035790
0.109601 0.000000 -0.093286
0.096570 -0.061447 0.037317
-0.038726 0.060350 -0.035875
0.048497 0.059728 -0.035585
-0.034738 0.062937 0.037053
-0.066206 0.028962 -0.035343
0.114254 -0.001146 0.074311
0.089277 -0.038306 0.096457
0.055594 -0.059806 -0.037438
0.104989 -0.072756 -0.017826
0.089134 -0.039105 -0.067668
0.107511 0.006642 -0.079609
0.089260 0.060483 -0.036602
-0.061659 0.031938 0.033557
0.097225 -0.063228 0.032694
0.088959 -0.038926 -0.091852
0.120768 -0.059382 0.044168
0.117878 0.007478 -0.073366
0.019084 0.061606 0.034075
0.019305 -0.066061 0.034153
0.103952 -0.007663 0.097366
0.105348 0.011544 0.093554
0.077722 -0.045696 -0.033400
0.107132 -0.001079 -0.084250
-0.050669 -0.047327 -0.091703
0.110434 0.002896 -0.076447
0.093795 -0.034481 0.071783
0.099639 -0.040017 0.063012
-0.059144 0.041145 -0.035549
0.108267 -0.011500 -0.083073
0.105653 0.072377 0.020399
0.108730 -0.029038 0.066921
0.108024 -0.001026 0.080024
0.099639 -0.040017 -0.063012
0.075445 -0.050740 -0.056227
0.076358 -0.059170 -0.036577
0.096621 -0.030969 0.074369
0.076076 -0.061915 0.037437
0.090382 -0.059840 0.031296
0.108728 -0.072203 0.010457
0.021775 0.065775 -0.037140
0.120550 0.015223 0.074960
-0.017709 -0.069217 -0.037158
0.099542 0.031203 0.092005
0.093841 0.044689 -0.059181
0.090725 -0.056477 -0.031049
0.075720 -0.047527 -0.092943
-0.017023 0.062472 0.034090
-0.037202 0.057987 -0.096114
0.053790 -0.058937 0.034967
0.108024 -0.001026 -0.080024
0.093472 -0.061190 0.036956
0.051185 -0.058885 0.034858
0.114138 -0.003060 0.074244
0.030973 -0.056676 0.033989
0.103443 0.032500 -0.068124
-0.029431 -0.057674 -0.036507
0.019084 -0.061606 -0.036576
0.020065 0.068678 0.036016
-0.050669 -0.047327 0.091703
0.094914 -0.061416 0.036034
0.102106 0.021397 -0.092144
0.117674 0.007644 0.075854
0.096827 0.035455 0.069557
0.105820 -0.010980 -0.083064
-0.057389 -0.029984 -0.036024
0.070997 0.000000 0.032597
0.021385 0.064613 0.093544
0.106385 0.000000 -0.097195
0.120768 -0.050367 0.054222
0.046687 -0.059994 -0.035454
-0.048757 0.050587 -0.034108
-0.070639 -0.015624 0.094154
-0.047977 0.049762 -0.033869
-0.040787 0.055908 0.091559
-0.071015 -0.015680 -0.092246
0.079813 0.045196 -0.096338
0.080613 -0.046577 0.095249
-0.071727 0.006381 0.033988
0.076460 0.046485 -0.033811
0.092842 0.062645 0.033899
0.120550 -0.073644 -0.020705
0.080015 -0.045317 0.091746
0.009225 0.070798 -0.091350
0.096971 0.039564 0.063512
0.051185 0.058885 0.034858
0.094590 -0.063909 0.036679
0.050050 0.041080 -0.033717
-0.068000 0.000000 -0.095000
-0.042226 -0.057928 -0.091559
-0.056819 -0.039539 0.096434
0.120768 0.050367 -0.054222
0.044050 0.060722 0.035546
-0.072374 -0.006433 0.034961
0.101529 0.022980 -0.092118
0.014873 -0.067177 -0.034173
0.090805 0.040960 0.067677
-0.007861 0.071078 0.036057
-0.018984 -0.065351 0.093531
0.097002 0.029509 -0.096609
0.089277 -0.038306 -0.096457
0.075215 0.041509 0.033327
0.021587 -0.065280 -0.095988
0.091747 -0.062254 0.034318
0.109449 0.075383 -0.004685
0.109663 0.000000 -0.092501
0.077774 -0.039257 -0.033452
0.090623 0.042904 0.061765
0.030941 0.056567 0.036488
0.093015 0.063225 0.035250
0.092877 0.059447 -0.033889
0.056080 -0.054629 -0.045750
-0.068097 -0.015035 -0.033262
0.049627 -0.059852 -0.037800
0.099769 0.064625 -0.032128
-0.056819 -0.039539 -0.096434
0.086407 0.045935 -0.058860
-0.050669 0.047327 -0.091703
0.099848 0.034619 0.063992
0.053817 0.057957 0.034256
0.097488 0.063485 -0.000397
0.100405 -0.022458 -0.094276
-0.049013 0.050874 -0.095170
-0.006458 0.064190 -0.036621
0.090623 -0.042904 0.061765
0.101865 -0.023919 -0.074550
0.044050 0.060722 -0.035546
0.097873 -0.030328 -0.071051
0.105115 -0.020211 -0.094083
0.109158 -0.075162 0.006885
-0.005640 0.068672 -0.092576
0.001476 -0.071487 -0.036064
-0.012564 0.070412 -0.036046
0.076117 -0.061489 -0.038619
-0.020827 0.065612 0.034145
0.120768 0.071247 0.020031
0.086437 -0.041406 0.065357
0.089603 -0.041028 -0.060421
-0.050657 -0.040162 -0.033701
0.115057 0.001226 -0.076678
0.102196 0.066860 0.027732
0.088251 0.061022 0.034173
0.089603 0.041028 -0.060421
0.059955 -0.058130 0.041107
0.109998 0.000000 -0.077100
0.109034 0.017505 0.075859
0.073182 -0.053393 -0.049340
-0.005640 -0.068672 -0.092576
0.044188 -0.061121 -0.037018
0.120768 -0.059382 -0.044168
0.055861 0.057235 -0.036670
0.051228 -0.059525 0.035795
0.078239 -0.051443 -0.051808
0.097921 -0.066789 -0.032217
-0.072951 -0.001685 0.092473
0.120550 0.052062 -0.056047
-0.071316 0.013505 0.092281
-0.026134 0.066652 -0.035982
-0.061737 -0.032787 -0.091948
0.053768 0.059714 0.037209
0.043801 0.059972 -0.034608
-0.012535 -0.070266 0.093246
0.107446 -0.071226 0.015268
0.076117 0.061489 0.038619
0.102613 -0.019233 -0.096787
0.108502 -0.008381 -0.094277
0.089622 -0.061794 0.034443
0.096347 -0.063577 -0.038607
0.096342 0.063574 -0.038611
0.112892 -0.022276 0.069846
0.108423 -0.013542 -0.079450
-0.042226 0.057928 -0.036969
0.094914 0.061416 -0.036034
0.075489 -0.048291 -0.054113
-0.070760 -0.006290 0.033338
0.075892 -0.038775 0.030681
0.112246 -0.000539 0.078368
0.093318 0.063647 -0.036508
0.081429 0.047755 0.091741
0.099856 -0.038682 0.060910
-0.017738 0.069251 0.037159
0.059738 0.024979 0.035936
0.099143 0.066453 0.033956
-0.038853 0.060534 -0.091516
0.095110 0.064203 -0.036317
-0.058132 0.040462 -0.095347
0.120550 0.061380 0.045655
0.008936 -0.068586 -0.091345
0.115858 0.015137 0.074545
0.114309 0.000000 -0.074392
0.076526 0.040810 -0.030738
0.102106 -0.021397 0.092144
0.113422 0.000000 0.077494
0.108019 0.011429 -0.092319
0.069493 0.000000 0.033000
0.109546 0.072809 0.005651
-0.063519 0.032924 0.034445
0.092119 0.058035 0.031265
0.053372 0.036661 0.033640
-0.031099 -0.059247 0.093965
-0.070120 0.000000 0.093825
0.043716 0.059712 0.034465
0.056786 -0.057028 -0.045709
0.041558 0.049275 0.033860
-0.037202 -0.057987 0.096114
0.088644 -0.058220 -0.035790
0.094078 0.063774 -0.036018
-0.030514 0.064717 0.037083
-0.068008 0.015043 -0.096859
-0.034244 -0.054953 0.036460
0.080015 -0.045317 -0.091746
0.107224 -0.074429 0.010328
0.093464 -0.059478 0.031833
0.001451 0.070277 -0.094839
0.094078 -0.063774 0.036018
0.087359 -0.044755 -0.055727
0.094540 0.063773 -0.037434
0.092603 0.039354 -0.069164
0.120768 0.000000 -0.074009
0.078045 0.039899 0.033474
0.076340 0.059336 0.036704
-0.072570 0.001703 -0.094386
0.072047 -0.050360 0.049641
0.019885 0.068067 0.035049
0.046782 -0.060388 -0.037396
0.110875 -0.017197 0.071918
0.075720 -0.047527 -0.092943
0.094078 0.063774 0.036018
0.070072 0.050083 -0.053434
-0.069758 -0.020276 0.036339
0.090219 -0.041991 0.064309
0.094670 -0.032943 -0.093190
0.098539 0.032346 0.091986
0.090650 -0.057390 -0.033695
0.104716 0.022092 -0.079839
0.019084 0.061606 0.036576
-0.072759 0.000000 -0.034821
-0.011742 -0.065794 -0.096352
-0.005468 -0.066550 0.093838
0.057389 -0.029984 0.036024
0.106040 0.073807 0.009962
0.081429 -0.047755 0.091741
-0.012535 0.070266 0.093246
0.055594 -0.059806 -0.037438
0.070845 0.052460 -0.091667
0.096354 0.063571 0.038617
-0.019084 0.061606 -0.034075
0.104361 -0.022370 -0.092145
0.078650 0.045130 -0.032304
0.051122 -0.057942 0.034227
0.087570 0.040500 -0.066314
-0.012451 -0.069785 -0.035079
0.104361 0.022370 0.092145
-0.072951 0.001685 0.092473
0.076100 0.039827 0.030710
0.052103 -0.057919 -0.034237
0.044845 -0.058326 0.037043
0.049331 -0.057447 -0.037129
-0.048771 0.049645 -0.036861
0.058078 0.054704 -0.042515
0.115078 0.000585 0.076691
0.108423 0.013542 -0.079450
0.111624 0.017957 -0.074184
0.102484 -0.067117 -0.027174
0.091869 0.062348 -0.034383
0.062094 -0.017173 -0.033300
0.001419 0.068764 -0.034200
0.099848 0.034619 -0.063992
0.107021 -0.003041 0.084165
-0.060637 -0.032218 -0.094106
-0.067955 0.001570 -0.097473
0.098327 -0.030416 -0.095522
0.109035 0.011052 -0.079979
0.070997 0.000000 0.032597
-0.068913 0.020052 0.034223
0.110540 0.001049 -0.076513
-0.051955 -0.042653 0.094255
-0.006434 -0.064215 -0.034121
0.105825 0.032725 -0.064913
0.079405 -0.050617 0.048911
0.096467 0.061717 -0.036796
0.001419 0.068764 -0.034200
0.044188 -0.061121 -0.037018
0.112989 0.013870 -0.075202
0.103247 0.011060 0.094807
0.104239 -0.072173 0.019758
0.096621 0.030969 0.074369
-0.058789 0.037070 0.091876
0.120550 0.052062 -0.056047
0.091405 0.062765 -0.035098
0.021753 0.065783 0.095626
0.102613 -0.019233 -0.096787
0.114469 -0.007217 -0.076286
0.058078 -0.054704 0.042515
0.108812 0.000000 0.078627
0.090793 0.040935 -0.091850
-0.037847 -0.058213 -0.037009
0.085551 -0.043915 -0.057631
0.092603 -0.039354 -0.069164
0.092535 0.062353 -0.033653
0.088644 0.058220 0.035790
0.089260 0.060483 -0.036602
0.005983 -0.068521 0.034196
0.092409 -0.062762 -0.034722
0.109488 0.075412 0.004254
0.074270 0.000000 0.032753
0.092681 0.058644 -0.031457
0.089622 -0.061794 0.034443
0.108502 0.008381 0.094277
0.022547 -0.068153 0.037140
0.105992 -0.020265 -0.072919
0.110329 -0.000539 0.081043
0.120768 0.027661 0.068638
0.052156 0.059511 -0.035871
-0.061871 0.027051 -0.097028
0.103758 -0.025318 -0.075394
0.109278 0.000000 -0.077956
0.103952 -0.007663 0.097366
0.120550 -0.061380 0.045655
0.048551 0.060049 -0.036592
0.096548 0.037879 -0.061713
-0.025552 -0.065168 -0.034361
0.110329 0.000539 0.081043
0.092877 0.059447 -0.033889
0.107151 0.000533 -0.084263
0.055638 0.059360 -0.038623
-0.024425 -0.062280 -0.096413
0.116047 0.014601 0.074682
0.105348 -0.011544 -0.093554
0.108881 0.008412 0.092367
0.108674 0.012879 0.075076
0.081153 0.047495 -0.093636
0.040597 0.050442 -0.033880
-0.012088 -0.067729 -0.034182
0.073918 0.042239 -0.033737
0.107175 0.017556 -0.078362
0.094155 0.063747 0.034254
0.081208 -0.043754 -0.030815
0.095754 0.036038 -0.071854
0.110239 0.000000 -0.081298
0.091920 0.058568 -0.033689
0.075865 0.047822 -0.091704
-0.025144 0.064111 -0.034119
0.080015 -0.045317 -0.091746
0.074275 0.000000 -0.032748
-0.072951 0.001685 -0.092473
0.109035 -0.011052 0.079979
0.092119 -0.058035 0.031265
0.055605 -0.059726 0.036173
-0.068008 -0.015043 -0.096859
0.085465 0.040603 -0.093962
-0.058789 -0.037070 -0.091876
-0.072570 -0.001703 0.094386
0.046770 0.060352 -0.036391
0.076328 -0.059451 0.037097
0.105622 -0.021484 -0.077008
0.104239 -0.072173 0.019758
0.105348 0.011544 0.093554
-0.021165 -0.066693 0.034388
-0.066020 -0.019689 0.094323
0.104532 -0.022464 0.079671
0.106578 0.006981 0.083772
0.047616 0.059844 0.035521
0.043801 0.059972 0.034608
0.109362 -0.072673 -0.006657
-0.012284 0.068844 -0.034425
0.110612 0.000000 0.076579
0.096342 0.063574 0.038611
0.114554 0.018845 -0.073592
0.118322 -0.001343 -0.076282
0.015512 -0.070056 0.091362
0.094787 0.061327 -0.037124
0.110511 -0.026954 0.070647
0.096342 -0.063574 0.038611
0.064592 -0.004517 0.035579
-0.067302 0.026475 -0.092070
0.096345 0.063575 -0.038609
0.120768 -0.027661 0.068638
-0.012564 -0.070412 -0.036046
-0.052499 0.049076 0.091703
0.114469 0.007217 0.076286
0.093006 0.031595 -0.094448
-0.006458 -0.064190 0.034120
0.022422 -0.067802 -0.093287
0.099411 -0.068573 -0.026308
0.051185 -0.058885 0.034858
0.096565 -0.061445 0.037320
0.109774 0.007012 -0.080610
0.103926 0.028050 -0.071779
0.107639 -0.013997 -0.082504
-0.072702 0.000000 0.034884
-0.068843 0.006348 0.094555
0.105820 0.010980 -0.083064
0.056080 0.054629 -0.045750
0.107175 -0.017556 -0.078362
0.003896 -0.064633 0.034128
0.109246 -0.072915 0.000053
0.092484 0.060255 0.035631
0.094599 -0.060653 0.032647
-0.026134 0.066652 -0.035982
-0.068000 0.000000 -0.095000
0.076335 -0.059380 -0.037294
0.098539 0.032346 0.091986
-0.037202 -0.057987 -0.096114
0.110729 0.026067 0.068320
-0.043689 -0.053645 -0.092833
0.059955 -0.058130 0.041107
0.003896 0.064633 -0.034128
0.008172 -0.068419 -0.092580
0.081208 0.043754 -0.030815
0.098870 0.040745 -0.062488
0.106578 -0.006981 -0.083772
0.073918 -0.042239 0.033737
0.110511 0.026954 0.070647
0.108423 -0.013542 0.079450
0.085355 0.053452 -0.030965
0.082620 -0.044116 -0.062240
0.096570 -0.061447 -0.037317
0.090650 -0.057390 -0.033695
-0.019079 -0.061677 -0.036577
-0.019330 -0.066527 0.091380
0.094741 0.064161 -0.035522
0.099037 0.039428 -0.060368
0.094741 0.064161 0.035522
-0.070087 -0.006447 0.092391
0.103932 0.017388 -0.081266
0.092954 0.063510 0.036198
0.103443 -0.032500 0.068124
-0.005668 -0.068999 0.091338
0.009225 -0.070798 0.091350
0.114949 0.003074 0.076615
0.008065 -0.067528 0.093493
0.105622 -0.021484 0.077008
-0.052499 -0.049076 -0.091703
0.103932 0.017388 -0.081266
0.120768 -0.027661 -0.068638
-0.069134 0.000000 -0.097370
-0.026075 0.066515 -0.093308
0.069300 0.047792 -0.096666
0.045000 -0.060858 0.037650
0.103926 0.028050 0.071779
0.022270 -0.067338 -0.035037
0.086022 -0.041310 0.093048
0.074232 -0.052254 0.046481
0.091651 -0.041885 0.058449
0.069682 -0.048920 0.093818
-0.068704 0.012990 0.036225
0.109063 0.007267 0.083783
0.076117 -0.061489 -0.038619
-0.072356 0.000000 0.034143
0.104614 -0.071499 -0.022992
0.052135 0.058876 -0.034896
0.105212 0.000000 0.094939
0.110929 0.011016 0.077375
0.093318 0.063647 -0.036508
0.092920 0.040928 0.059281
0.096971 0.039564 -0.063512
0.095151 0.042429 -0.057877
0.075711 -0.039922 0.032206
-0.007564 0.068370 0.034193
0.096132 -0.061544 0.037012
0.107920 0.002890 0.079950
0.094787 0.061327 0.037124
0.093965 0.032378 -0.094104
-0.005567 0.067778 -0.093489
0.049322 0.057427 0.037129
0.069682 -0.048920 -0.093818
0.115858 0.015137 -0.074545
0.095835 -0.065361 -0.000491
0.112227 -0.001152 -0.078355
0.095151 -0.042429 -0.057877
0.056786 -0.057028 0.045709
0.105622 0.021484 0.077008
0.094297 0.063886 -0.034510
0.056080 0.054629 -0.045750
0.089691 0.060647 -0.033668
0.072904 0.038941 0.036180
0.096427 -0.030843 0.091987
0.095185 0.038907 0.065070
0.096354 0.063571 -0.038617
0.109527 -0.003056 0.084175
0.043716 0.059712 -0.034465
0.073918 -0.042196 -0.036237
-0.007861 0.071078 0.036057
0.090805 0.040960 0.067677
-0.049758 -0.051638 -0.093556
0.072262 0.000000 0.034760
0.094274 -0.061282 0.037062
-0.066206 0.028962 -0.035343
0.108267 0.011500 -0.083073
0.098648 -0.032442 0.074385
0.081429 -0.047755 -0.091741
-0.050669 0.047327 -0.091703
0.069885 -0.049587 -0.096262
0.022547 -0.068153 -0.091393
0.046687 0.059994 -0.035454
-0.071316 0.013505 0.092281
0.090434 -0.060305 -0.032674
-0.064592 -0.004517 -0.033079
0.073179 0.053250 -0.049252
-0.071159 -0.013460 0.036225
0.093795 0.034481 -0.071783
0.118344 0.000668 -0.076295
0.087084 0.060344 -0.034063
0.093470 -0.063429 -0.035194
-0.069753 0.006432 0.093640
0.108829 -0.074913 -0.009193
0.118562 -0.000646 0.073805
0.021971 0.066429 -0.034383
0.087359 -0.044755 0.055727
0.106225 0.000000 -0.094452
0.095216 0.064172 -0.036528
0.062976 -0.057267 -0.042618
-0.071316 -0.013505 0.092281
0.093317 0.060724 -0.035855
0.120768 -0.050367 -0.054222
0.085434 -0.054378 0.035722
0.104459 0.011346 0.094468
0.105957 -0.073492 0.015010
0.017023 -0.062472 0.034090
-0.025684 0.065527 0.094920
0.077722 0.045696 -0.033400
-0.061438 -0.032644 -0.093192
0.107446 0.071226 0.015268
0.112246 0.000539 0.078368
0.048248 -0.058191 -0.034202
0.107639 -0.013997 -0.082504
0.089691 -0.060647 -0.033668
0.110211 0.002947 -0.080963
0.108052 0.000000 -0.080047
-0.070087 0.006447 0.092391
0.095556 0.063727 -0.038134
0.076087 -0.061821 -0.036182
0.076277 -0.050603 0.054650
0.117878 0.007478 -0.073366
-0.025684 0.065527 -0.094920
0.048497 0.059728 -0.035585
0.089229 0.047648 -0.056299
-0.071316 -0.013505 -0.036226
0.106798 0.000000 0.093733
0.086437 0.041406 -0.065357
0.009225 0.070798 -0.037185
0.006080 0.069649 0.034439
0.063582 0.012243 0.033214
0.109774 0.007012 0.080610
0.094530 0.061262 0.035764
0.098421 0.064097 0.032494
0.085757 -0.054437 0.030982
0.055856 0.057272 -0.037265
-0.056251 -0.044912 0.035613
0.100372 0.036141 0.065910
0.056080 -0.054629 -0.045750
0.021753 0.065783 -0.095626
0.003896 0.064633 -0.034128
-0.056819 -0.039539 0.096434
0.093233 0.042758 0.060955
0.022290 0.060792 0.034061
-0.060637 0.032218 0.094106
0.073918 -0.042239 0.033737
0.090820 0.037601 0.069126
-0.064870 0.025491 0.036442
0.108730 -0.029038 -0.066921
0.092193 0.043558 0.060260
-0.072570 -0.001703 0.094386
0.105992 0.020265 0.072919
0.096295 -0.062036 -0.035841
0.015426 -0.069694 -0.093255
0.046134 0.057538 -0.034004
-0.064832 -0.019318 0.094662
0.029431 0.057674 -0.034007
0.094936 -0.033140 0.091949
0.095110 -0.064203 0.036317
0.091617 -0.042103 0.062472
-0.043689 0.053645 0.092833
0.112189 -0.013374 -0.072874
0.096347 0.063577 -0.038607
-0.018645 -0.064167 0.093880
0.105820 0.010980 -0.083064
-0.069866 -0.001641 0.097091
0.001481 -0.071711 -0.091335
-0.070087 0.006447 0.036112
0.109246 -0.020947 -0.070730
-0.012069 -0.067652 -0.095947
0.097225 0.063228 0.032694
0.021587 -0.065280 -0.095988
-0.068000 0.000000 0.095000
0.105476 0.020326 -0.092178
-0.070156 0.015511 -0.034145
0.073179 0.053250 -0.049252
0.099411 -0.068573 -0.026308
0.094741 -0.064161 -0.035522
-0.067985 0.019776 0.033572
0.076117 -0.061489 0.038619
0.099411 -0.068573 -0.026308
0.093158 -0.063333 0.035411
0.058078 -0.054704 -0.042515
-0.064731 -0.028316 -0.033721
0.043545 0.059191 0.034177
-0.012088 -0.067729 -0.034182
-0.065614 -0.028708 -0.034372
0.091099 0.040255 0.093755
0.090820 0.037601 -0.069126
-0.060955 0.038470 -0.036643
0.087710 -0.059076 -0.033635
0.107898 0.000000 0.096314
-0.029482 0.062517 -0.091447
0.096565 -0.061445 -0.037320
0.099639 0.040017 -0.063012
-0.006458 0.064190 -0.034120
0.105622 0.021484 0.077008
0.085434 -0.054669 0.032473
0.041641 -0.049409 0.033862
0.099930 -0.064774 -0.031833
0.102528 -0.026734 -0.070154
0.078998 -0.044937 -0.030812
0.109216 0.000000 -0.094391
0.030973 0.056676 -0.033989
0.009396 -0.064065 -0.034118
0.095741 -0.063804 -0.038008
0.073918 0.042239 0.033737
0.076340 -0.059336 -0.036704
0.115057 0.001226 -0.076678
0.090366 -0.039479 0.095369
0.014449 -0.065258 -0.096361
0.072904 -0.038941 -0.036180
0.110540 0.001049 0.076513
0.107163 0.000000 0.084276
0.110114 0.000000 0.081629
-0.069134 0.000000 0.097370
-0.026220 -0.066859 0.091414
-0.024425 -0.062280 0.096413
-0.071015 -0.015680 0.092246
0.055605 -0.059726 -0.036173
0.107441 0.000000 0.081874
0.103758 0.025318 0.075394
0.095741 -0.063804 -0.038008
0.073139 -0.051307 0.048061
-0.053865 0.044223 0.036767
0.062306 -0.017622 0.035808
0.086437 0.041406 0.065357
0.112708 0.022964 0.072244
0.075720 -0.047527 0.092943
0.120550 -0.015223 -0.074960
0.109650 -0.000584 -0.084264
-0.070760 0.006290 0.033338
-0.050513 -0.040022 0.036199
0.084164 0.046094 -0.062383
-0.022290 0.060792 -0.034061
0.021971 -0.066429 -0.034383
0.076169 -0.040986 -0.032230
0.109927 0.021953 0.072916
0.095315 -0.061538 0.036359
0.091626 0.060893 0.036731
0.080823 0.048388 0.057548
0.085465 -0.040603 -0.093962
0.098954 0.064592 -0.031618
0.079270 0.052377 -0.050684
0.094914 0.061416 0.036034
0.117878 0.007478 -0.073366
0.053849 0.056776 0.033991
-0.052499 -0.049076 -0.091703
0.057450 0.029178 0.036010
0.079813 0.045196 0.096338
0.091652 0.061200 0.031833
-0.069325 0.000000 -0.094620
0.120550 -0.052062 0.056047
0.091437 -0.062782 0.035105
-0.066892 0.019949 0.093409
0.015460 0.069839 -0.036036
0.001418 -0.068685 0.095929
0.110310 -0.001135 -0.081030
0.080823 -0.048388 0.057548
0.101336 0.031868 0.069747
0.093682 -0.038835 -0.067015
0.093797 0.043365 0.057030
0.001379 0.066799 -0.096334
0.104202 0.023870 0.071485
0.076330 -0.059435 0.036888
0.090366 0.039479 -0.095369
0.051228 -0.059525 0.035795
0.095793 0.061403 -0.037242
0.108019 -0.011429 0.092319
0.088964 -0.039922 0.063683
0.075215 -0.041509 -0.033327
0.092470 0.063327 0.035784
0.021775 -0.065775 -0.037140
0.088534 -0.058372 -0.032539
0.107432 0.008228 0.095897
0.021775 0.065775 0.091393
0.112989 0.013870 0.075202
0.118344 0.000668 0.076295
-0.068913 0.020052 0.034223
0.008065 0.067528 -0.093493
-0.042348 0.051982 -0.094092
0.075010 0.000000 -0.030008
0.120768 -0.073701 0.006752
0.048248 0.058191 -0.034202
0.114254 -0.001146 -0.074311
0.062369 -0.017261 0.033301
0.098421 0.064097 0.032494
0.084898 0.049931 -0.053755
-0.067215 -0.020030 0.092163
-0.070087 -0.006447 -0.092391
0.094274 0.061282 0.037062
0.006240 -0.071458 0.037196
0.108881 -0.008412 -0.092367
0.109488 -0.075412 0.004254
0.120550 0.041009 0.064573
0.120768 0.066420 -0.032643
0.088964 -0.039922 0.063683
-0.072937 0.000000 0.035387
-0.012564 0.070412 -0.036046
0.015321 -0.069217 -0.035069
0.055594 0.059806 0.037438
0.109375 0.072682 0.006658
0.092470 -0.063327 -0.035784
0.095110 -0.064203 -0.036317
-0.050050 -0.041080 -0.036217
0.106204 0.012938 0.078445
0.074399 0.048468 0.056181
0.095443 -0.028427 0.097004
0.095680 -0.064036 0.037446
0.112189 0.013374 -0.072874
-0.053602 0.044023 0.092997
0.021775 0.065775 0.037140
0.113422 0.000000 0.077494
0.102185 0.028073 0.074044
-0.071015 0.015679 -0.036262
0.099661 0.031865 0.071908
0.022547 0.068153 -0.037140
0.070072 -0.050083 -0.053434
0.098614 0.032492 -0.074355
0.101223 -0.022850 -0.093362
-0.050702 0.047391 -0.036822
0.095509 -0.065037 -0.032671
0.109035 0.011052 -0.079979
0.007921 0.066305 -0.093842
0.118540 0.001300 0.073791
0.120550 -0.028592 -0.070948
0.021587 0.065280 0.095988
-0.046304 -0.054880 0.035782
0.105844 -0.010885 -0.083087
0.014449 -0.065258 0.096361
0.091651 -0.041885 -0.058449
0.097002 0.029509 -0.096609
0.090805 -0.040960 0.067677
-0.058789 0.037070 -0.091876
0.104716 0.022092 0.079839
-0.065076 0.028488 0.095551
0.058308 0.057085 0.043247
0.001379 -0.066799 0.096334
0.096394 0.061877 -0.036404
0.089229 -0.047648 -0.056299
-0.004338 0.071340 0.037194
0.093556 0.063152 -0.033402
0.069300 -0.047792 -0.096666
0.092464 0.061035 0.036815
0.043801 0.059972 -0.034608
0.055899 0.056864 -0.036493
0.076335 -0.059380 0.037294
0.072096 0.000000 -0.031502
0.120550 0.028592 0.070948
0.078872 0.045150 -0.035560
0.112892 -0.022276 -0.069846
0.071597 0.052566 0.051989
-0.070120 0.000000 0.093825
-0.041641 -0.049409 -0.033862
0.057450 0.029178 0.036010
0.094599 -0.060653 0.032647
0.056080 -0.054629 -0.045750
0.044006 0.060590 0.035270
0.079806 -0.046183 0.056928
-0.021165 0.066693 0.034388
0.103443 -0.032500 -0.068124
0.120550 -0.015223 -0.074960
0.089603 -0.041028 0.060421
0.120768 -0.039675 0.062470
0.073136 0.051119 0.047946
0.078056 -0.049393 -0.050386
0.096161 -0.062147 0.035090
-0.064592 0.004517 -0.035579
0.093841 0.044689 0.059181
0.117000 0.011565 0.072756
0.050050 -0.041080 0.033717
0.110310 -0.001135 0.081030
0.072500 0.000000 0.030004
0.109670 0.072899 0.004505
0.088756 -0.061309 -0.034254
0.088845 0.058126 -0.031049
0.079270 -0.052377 0.050684
0.112097 0.000000 0.075373
-0.007564 -0.068370 0.034193
-0.071316 0.013505 -0.092281
0.099700 0.066985 0.032919
0.092954 0.063510 0.036198
0.107800 -0.074114 -0.013783
0.120550 0.076181 -0.006979
0.043716 -0.059712 -0.034465
0.095680 0.064036 -0.037446
0.081429 -0.047755 -0.091741
0.080571 0.044110 -0.033549
0.070608 0.051774 0.094096
0.109650 0.000584 0.084264
0.105622 0.021484 -0.077008
-0.024425 -0.062280 0.096413
0.106561 0.000000 0.097092
0.104110 -0.019827 0.095701
0.083120 -0.049215 0.054556
0.108423 -0.013542 -0.079450
-0.072951 -0.001685 -0.036028
-0.025144 0.064111 -0.034119
-0.071015 0.015680 0.092246
0.078239 -0.051443 0.051808
-0.004186 0.068971 0.091339
0.095315 -0.061538 -0.036359
0.006163 0.070601 0.035093
0.076328 -0.059451 0.037097
0.105042 0.016667 0.077398
-0.019079 -0.061677 -0.036577
0.118562 -0.000646 0.073805
0.111643 0.000000 -0.079009
0.076729 0.048604 0.052149
-0.005468 0.066550 0.093838
0.120550 0.001347 -0.076476
-0.042348 0.051982 0.094092
-0.004186 0.068971 -0.091339
0.095240 -0.061366 0.037180
0.099218 -0.031010 0.093906
-0.068000 0.000000 -0.095000
0.109650 0.000584 -0.084264
0.095047 -0.061513 0.035354
-0.017140 -0.066923 0.037160
-0.038378 -0.059814 -0.034907
0.048497 0.059728 -0.035585
-0.052904 0.043449 0.093911
0.110329 0.000539 0.081043
0.014449 -0.065258 -0.096361
0.008172 -0.068419 0.092580
0.079813 0.045196 0.096338
0.109998 0.000000 -0.077100
0.095109 0.061170 0.033153
0.096497 -0.031149 0.074254
0.029431 0.057674 -0.034007
0.076335 0.059380 -0.037294
0.102250 0.021448 -0.079661
0.096342 0.063574 0.038611
0.084351 0.050220 0.053434
0.094540 0.063773 0.037434
0.052164 0.059728 -0.037014
0.117674 -0.007644 0.075854
0.101915 0.070653 -0.021467
-0.064908 0.000000 -0.035500
0.093056 -0.062847 -0.034094
-0.037202 0.057987 -0.096114
0.086407 -0.045935 -0.058860
0.070383 0.051101 -0.095173
0.096394 0.061877 -0.036404
0.105896 0.000000 -0.094634
-0.063582 -0.012243 0.033214
0.092603 -0.039354 0.069164
0.085434 0.054378 0.035722
0.095506 -0.065041 0.032689
0.108283 -0.011438 0.083087
0.043261 0.058321 0.034018
-0.072603 0.006437 0.036107
0.120768 -0.050367 0.054222
0.104832 -0.069128 -0.022230
0.109546 -0.072809 0.005651
0.076335 -0.059380 -0.037294
0.064592 0.004517 0.035579
-0.060637 -0.032218 0.094106
0.096467 -0.061717 -0.036796
-0.068549 0.000000 -0.094939
0.001419 0.068764 -0.034200
0.102793 0.025959 0.078093
0.090001 0.058901 0.035553
0.089226 0.060279 0.033612
-0.049758 -0.051638 -0.093556
0.052135 -0.058876 -0.034896
0.015194 -0.068658 -0.094867
0.015460 0.069839 -0.036036
0.095185 0.038907 -0.065070
0.103758 0.025318 0.075394
0.120768 0.039675 0.062470
-0.070087 -0.006447 -0.092391
-0.072951 -0.001685 -0.036028
0.050657 0.040162 -0.036201
0.089157 0.042432 -0.066314
0.070072 0.050083 0.091667
-0.070760 0.006290 0.033338
0.108423 -0.013542 -0.079450
0.015426 0.069694 0.093255
0.051235 -0.059590 0.038026
0.099551 -0.066855 -0.033237
0.090820 0.037601 -0.069126
-0.049758 -0.051638 0.093556
-0.026075 0.066515 0.093308
-0.031099 -0.059247 0.093965
0.081240 -0.046452 -0.054841
0.007921 0.066305 0.093842
0.108052 0.000000 -0.080047
0.077646 0.038574 0.033428
0.091099 -0.040255 0.093755
-0.007564 -0.068370 0.034193
0.092900 -0.062492 0.032723
0.084164 -0.046094 -0.062383
0.109035 -0.072765 -0.004337
0.006080 0.069649 0.034439
0.103483 -0.068705 -0.021467
0.078045 -0.039899 -0.033474
-0.043905 -0.053895 0.036934
0.099037 0.039428 -0.060368
0.043801 -0.059972 -0.034608
0.043545 -0.059191 -0.034177
0.102825 0.031165 -0.066092
-0.031666 -0.060343 -0.093618
0.044753 0.046795 0.033817
0.075865 -0.047822 -0.091704
0.120550 -0.061380 0.045655
0.105835 -0.007976 -0.096981
0.046541 0.059353 -0.034692
-0.029432 -0.062465 -0.037083
-0.038639 0.060228 0.093413
0.088959 0.038926 0.091852
0.105115 0.020211 0.094083
0.073918 0.042239 -0.033737
0.120550 0.073644 0.020705
0.075010 0.000000 -0.030008
0.030941 -0.056567 -0.033987
-0.060955 0.038470 0.091875
-0.070639 -0.015624 0.094154
-0.056251 0.044912 0.035613
0.079806 0.046183 0.056928
-0.043120 0.052946 0.093746
-0.068001 0.000000 0.097500
0.088644 0.058220 0.035790
-0.068000 0.000000 0.095000
0.055772 -0.058134 0.034282
0.099712 -0.067008 -0.032932
0.019885 -0.068067 0.035049
0.014852 -0.067102 0.095956
0.101425 -0.066799 0.027288
0.109927 0.021953 -0.072916
0.089260 -0.060483 -0.036602
0.063582 -0.012243 -0.033214
0.099856 -0.038682 -0.060910
0.085551 -0.043915 0.057631
0.053837 0.057167 0.037221
-0.070639 0.015624 0.094154
0.064908 0.000000 -0.033000
-0.072374 0.006433 0.034961
0.111643 0.000000 -0.079009
0.106799 -0.071264 -0.012697
0.084164 0.046094 -0.062383
-0.059015 -0.041067 -0.093731
-0.050050 0.041080 0.033717
0.102470 -0.037337 0.064944
0.087235 -0.060124 -0.036552
0.094540 -0.063773 0.037434
0.070608 -0.051774 0.094096
0.095418 -0.061479 -0.033522
0.072500 0.000000 -0.030004
0.071597 0.052566 0.051989
0.112227 0.001152 0.078355
0.108881 0.008412 -0.092367
0.069300 -0.047748 0.094166
0.088251 -0.061022 0.034173
0.075865 0.047822 0.091704
0.101182 -0.028719 0.076641
0.089255 0.042782 -0.063574
0.084351 0.050220 -0.053434
-0.054116 -0.043192 0.033754
0.105476 -0.020326 -0.092178
0.015321 0.069217 -0.035069
0.098327 -0.030416 0.095522
-0.036193 0.056388 -0.096516
0.076526 -0.040810 0.030738
0.108730 0.029038 0.066921
0.086590 -0.060052 0.034048
0.109679 -0.072906 -0.004410
0.112227 -0.001152 0.078355
0.075720 -0.047527 0.092943
0.095203 -0.033717 0.068774
0.009396 -0.064065 -0.036619
0.093965 0.032378 -0.094104
-0.021647 0.068212 0.036008
-0.071316 0.013505 -0.036226
-0.067955 0.001570 0.097473
0.106378 -0.072974 -0.018406
0.095509 -0.065037 -0.032671
-0.025455 -0.064474 -0.037118
-0.067302 -0.026475 0.092070
0.102196 0.066860 0.027732
0.073235 0.040667 -0.033710
0.118203 0.003288 0.076212
0.091651 -0.041885 0.058449
0.049627 -0.059852 -0.037800
0.021753 -0.065783 0.095626
0.079813 0.045196 -0.096338
0.087007 0.053161 0.033712
0.093841 -0.044689 0.059181
0.076340 -0.059336 -0.036704
0.021002 0.063485 -0.096392
0.115858 0.015137 -0.074545
0.102613 -0.019233 0.096787
0.105348 0.011544 0.093554
0.047684 -0.060185 0.036493
0.021971 0.066429 0.034383
0.110015 -0.006618 0.076137
0.014852 -0.067102 -0.095956
0.078383 -0.038558 -0.030681
0.096345 -0.063575 -0.038609
0.100067 0.030333 0.068221
0.097225 0.063228 0.032694
-0.017140 -0.066923 0.091373
-0.025684 0.065527 -0.094920
0.120768 -0.050367 0.054222
0.120768 0.001303 0.073986
0.104459 0.011346 0.094468
-0.018645 0.064167 -0.093880
0.014449 -0.065258 -0.096361
0.109774 -0.007012 -0.080610
0.112126 -0.002953 -0.078292
0.096046 0.062099 -0.034510
0.105538 0.025281 -0.073058
-0.066206 -0.028962 -0.035343
0.085465 -0.040603 0.093962
-0.057660 0.029302 0.033511
0.008936 0.068586 0.091345
0.076378 0.059010 -0.034030
0.088959 -0.038926 -0.091852
-0.061871 0.027051 -0.097028
0.051185 -0.058885 0.034858
-0.059738 -0.024979 0.033436
-0.041558 -0.049275 0.033860
-0.059548 -0.031623 -0.094448
0.110729 0.026067 -0.068320
0.096427 0.030843 0.091987
0.118203 0.003288 0.076212
0.022422 -0.067802 0.093287
0.053773 0.059557 0.036008
0.079813 -0.045196 0.096338
0.096342 -0.063574 -0.038611
0.015194 -0.068658 -0.094867
0.107151 0.000533 -0.084263
0.095418 -0.061479 -0.033522
0.084578 0.055334 0.033569
0.015194 -0.068658 -0.094867
0.100493 0.069087 0.027691
0.003896 0.064633 -0.036629
0.108283 0.011438 0.083087
-0.059336 0.041264 0.091830
0.087792 -0.046575 0.057407
-0.032083 -0.061139 0.092705
0.095741 -0.063804 -0.038008
0.108041 0.000474 0.080037
-0.033311 -0.060350 0.034053
0.108267 0.011500 0.083073
0.079270 -0.052377 0.050684
0.097229 -0.063224 -0.032671
0.095923 0.063898 0.037890
0.118359 0.000000 0.076308
0.021775 -0.065775 -0.091393
-0.006434 -0.064215 -0.036621
0.095101 0.061437 0.035365
-0.056819 -0.039539 -0.096434
-0.057804 -0.039102 -0.036678
-0.038639 -0.060228 0.093413
0.063582 0.012243 0.035714
-0.034313 -0.062186 0.034948
0.085465 -0.040603 -0.093962
0.021775 0.065775 -0.091393
0.112126 0.002953 0.078292
0.093233 -0.042758 -0.060955
0.074397 0.038861 0.033277
0.080015 -0.045317 -0.091746
0.007921 -0.066305 -0.093842
0.075339 -0.046713 0.093856
0.093337 -0.062933 0.033153
0.120550 0.015223 -0.074960
0.089603 0.041028 0.060421
0.090219 0.041991 0.064309
0.099246 0.064124 0.033017
0.053837 0.057167 0.037221
-0.004159 0.068768 -0.037192
-0.029482 -0.062517 -0.091447
0.057389 -0.029984 0.033523
0.063189 -0.055272 0.041133
0.087792 0.046575 0.057407
0.083120 -0.049215 -0.054556
0.085434 0.054669 0.032473
0.110211 -0.002947 0.080963
0.096427 0.030843 0.091987
0.071059 0.050221 -0.051538
0.075853 -0.039821 0.035463
0.079813 -0.045196 0.096338
-0.040787 0.055908 0.091559
0.109035 -0.011052 0.079979
-0.037202 0.057987 0.096114
0.070072 0.050083 -0.091667
0.019079 0.061677 -0.034077
-0.031666 0.060343 0.093618
-0.017709 -0.069217 -0.091375
0.021587 0.065280 0.095988
0.092696 0.061075 0.036846
0.104716 0.022092 -0.079839
0.097873 -0.030328 -0.071051
0.079405 -0.050617 0.048911
0.096046 -0.062099 0.034510
-0.069753 -0.006432 -0.093640
-0.052904 -0.043449 -0.093911
0.001379 0.066799 0.096334
0.092920 -0.040928 -0.059281
0.107520 -0.074644 -0.008901
0.091099 0.040255 -0.093755
0.094540 -0.063773 -0.037434
0.073179 -0.053250 0.049252
-0.018645 -0.064167 0.093880
0.100247 -0.026763 -0.073120
0.107432 0.008228 -0.095897
0.076330 -0.059435 -0.036888
