0.060825 0.039626 -0.094308
0.089105 0.013870 -0.075202
0.069913 0.043365 -0.057030
0.051836 -0.047527 0.092943
0.022250 0.057538 -0.034004
0.080318 -0.023870 -0.071485
-0.036168 0.068844 -0.034425
-0.076382 -0.049076 -0.091703
-0.006861 -0.062472 0.034090
0.085802 -0.028230 -0.070052
-0.002217 -0.065466 -0.092631
-0.048309 -0.062280 -0.096413
0.022803 0.059994 -0.035454
-0.094899 0.015680 -0.092246
0.074443 -0.030416 -0.095522
0.093875 0.000000 0.073778
0.054499 0.038558 -0.030681
0.082677 0.000000 0.097092
-0.002499 0.064613 0.093544
-0.095956 -0.001686 -0.033907
-0.088184 0.033307 0.036557
-0.022433 0.070277 0.094839
0.086550 0.002896 -0.076447
0.096884 0.001303 -0.073986
-0.096454 0.001703 0.094386
-0.028070 0.068971 -0.091339
0.054499 0.038558 0.030681
0.050391 0.000000 -0.032748
0.048465 -0.052672 0.050544
-0.042963 0.061677 0.034077
0.071301 -0.038907 0.065070
-0.046174 -0.060792 0.034061
0.086327 0.002947 0.080963
0.086991 -0.017197 0.071918
0.091974 -0.015137 -0.074545
-0.002882 0.063441 -0.093892
0.090830 0.018367 -0.071138
0.081951 0.007976 0.096981
0.076965 0.018517 -0.097177
-0.036419 0.070266 0.093246
-0.008690 0.068658 0.094867
0.082300 -0.028651 -0.070134
0.007057 -0.056567 -0.033987
0.081597 0.027526 0.067996
0.054161 0.039899 -0.033474
-0.092797 -0.020052 0.034223
0.075829 -0.067008 -0.032932
0.067322 -0.061068 0.032919
-0.043214 -0.066527 0.091380
0.065807 -0.060647 -0.033668
0.064274 -0.059432 -0.033596
-0.008563 0.069217 -0.035069
0.075408 -0.021908 -0.094617
0.082300 -0.028651 -0.070134
0.052446 -0.059435 0.036888
0.086445 0.000539 -0.081043
0.071163 -0.061513 0.035354
-0.055550 -0.060343 0.093618
0.085141 0.072759 0.004431
0.024508 -0.059082 -0.034754
0.075320 0.068395 0.026676
-0.093836 0.000000 -0.094062
0.081769 -0.072377 0.020399
0.051969 0.039821 -0.035463
0.069911 -0.034481 0.071783
0.031966 0.057333 -0.036856
-0.048309 0.062280 0.096413
0.063908 0.046575 -0.057407
0.068805 0.060370 -0.035674
0.045609 0.000000 -0.033000
0.081105 -0.072756 -0.017826
-0.001337 -0.068153 -0.091393
-0.089948 -0.028911 -0.093933
0.066336 -0.041991 0.064309
0.028251 0.058876 -0.034896
-0.073916 -0.051894 -0.036868
-0.093095 -0.015297 -0.033494
0.021449 0.060798 -0.037184
0.081936 -0.010980 0.083064
-0.096649 0.000000 -0.034853
0.065393 0.038306 -0.096457
0.083562 0.021435 0.074584
-0.096487 0.006437 0.036107
0.050939 0.045593 -0.094204
-0.080783 -0.039568 -0.033691
0.052642 -0.040810 0.030738
0.078301 -0.028073 -0.074044
0.070390 -0.061282 -0.037062
-0.073915 -0.051895 -0.091657
0.051605 -0.048291 0.054113
0.052285 0.040986 0.032230
0.049298 -0.053393 -0.049340
0.084567 -0.072460 -0.004260
0.062350 -0.041563 -0.091808
0.086043 -0.021953 -0.072916
0.065349 -0.046159 0.054272
0.028280 -0.059728 -0.037014
0.090371 -0.001146 -0.074311
0.024508 0.059082 -0.034754
0.051331 0.041509 0.033327
-0.090036 0.014606 0.097245
-0.036231 0.069221 -0.094857
0.064317 -0.043201 0.065542
0.066766 -0.057390 -0.033695
0.050348 -0.052254 -0.046481
0.067553 -0.062782 0.035105
0.085134 0.000000 -0.094958
0.027301 -0.058885 0.034858
0.091974 -0.015137 -0.074545
0.022898 -0.060388 -0.037396
0.062706 -0.060052 0.034048
0.073604 0.063485 -0.000397
0.067390 0.060832 -0.036704
0.075885 -0.064625 -0.032128
-0.066110 -0.057894 0.036969
-0.084769 0.038404 0.036642
-0.054983 0.059247 0.093965
0.023803 0.060181 0.037526
-0.014975 -0.068314 -0.037184
0.046188 -0.050083 -0.091667
0.046001 0.049587 -0.096262
0.049020 -0.038985 0.033680
0.094460 -0.000668 -0.076295
-0.022411 -0.071338 0.093228
0.064650 0.058372 0.032539
0.084658 0.074692 0.010666
0.072543 -0.030843 -0.091987
-0.083622 0.024979 -0.033436
0.052457 0.059336 0.036704
0.083628 0.006642 -0.079609
0.071052 -0.033140 0.091949
0.054161 -0.039899 0.033474
0.091974 -0.015137 -0.074545
0.066909 0.040935 -0.091850
0.077973 -0.070606 0.021590
0.082899 0.000000 -0.093825
0.056131 0.045317 0.091746
0.069913 -0.043365 -0.057030
0.064368 -0.061022 0.034173
-0.001479 0.067741 0.035682
0.086656 0.001049 0.076513
0.081960 0.010885 0.083087
0.081592 -0.020326 0.092178
0.087740 0.017957 0.074184
0.071625 0.065037 -0.032671
0.071559 -0.028427 -0.097004
-0.096884 0.000000 0.036000
0.096666 0.073644 0.020705
0.076363 0.026763 -0.073120
0.086483 0.000000 -0.081070
0.062706 0.060008 -0.036548
0.051969 0.039821 -0.035463
0.082300 -0.028651 -0.070134
0.082932 0.000000 -0.093745
0.027362 0.059772 0.036905
0.052216 -0.039827 0.030710
0.071267 -0.042429 0.057877
-0.029352 0.066550 -0.093838
-0.095043 0.013460 0.036225
0.073345 0.063224 -0.032671
0.073989 0.030328 0.071051
0.086656 -0.001049 0.076513
0.054355 0.051443 -0.051808
0.051836 0.047527 -0.092943
0.054355 0.051443 -0.051808
0.050034 0.042196 -0.036237
-0.089904 -0.019689 0.094323
-0.031570 0.069495 0.034436
-0.095845 0.000000 -0.095552
0.070075 0.061087 0.036162
0.027301 0.058885 0.034858
0.065080 0.039922 0.063683
-0.079631 0.044515 0.034644
0.081853 0.033688 -0.067229
-0.003752 -0.068892 0.037153
0.083291 0.017556 0.078362
0.081853 0.033688 0.067229
0.068352 0.036920 0.066309
0.067733 0.042103 -0.062472
-0.050104 0.066859 0.091414
0.050939 0.045593 0.094204
0.081286 -0.013543 0.082448
0.096884 0.050367 -0.054222
-0.035953 -0.067652 0.095947
0.050034 -0.042239 0.033737
0.049351 0.040667 -0.033710
0.078301 -0.028073 0.074044
0.052233 0.061489 0.038619
0.083595 -0.016600 -0.074116
0.067215 0.040255 -0.093755
-0.070489 -0.048341 0.096656
0.071796 0.064036 -0.037446
-0.017804 -0.069649 0.034439
-0.048989 0.064041 0.096009
0.096884 -0.059382 0.044168
0.082932 0.000000 -0.093745
-0.088938 0.025583 -0.036444
0.085478 -0.072673 -0.006657
-0.062523 0.060228 0.093413
-0.054378 -0.064719 -0.037083
-0.022433 0.070277 -0.094839
-0.088480 0.026994 -0.036468
0.080226 0.019827 0.095701
0.091974 0.015137 -0.074545
-0.093468 -0.015400 -0.095774
0.065393 0.038306 -0.096457
-0.058507 -0.062744 0.035916
0.082108 -0.020265 -0.072919
0.077298 0.028719 0.076641
0.051836 -0.047527 -0.092943
-0.083220 0.041264 0.091830
0.075362 -0.064124 0.033017
-0.082673 -0.037070 0.091876
0.048163 0.050360 -0.049641
0.051561 -0.050740 0.056227
0.090390 -0.000536 0.074324
-0.091884 0.000000 0.095000
0.067733 -0.042103 -0.062472
-0.008690 0.068658 0.094867
0.072714 -0.066072 -0.031020
-0.042529 0.064167 -0.093880
0.058923 0.047269 0.053007
0.071431 0.061538 -0.036359
0.039698 -0.012243 -0.033214
0.061551 -0.054669 0.032473
0.050513 0.038861 0.033277
0.077452 0.031868 0.069747
-0.094899 -0.015679 -0.036262
0.041024 0.000000 -0.035500
0.072686 -0.061447 -0.037317
-0.001412 -0.067942 -0.036004
-0.022403 0.071711 -0.037200
0.072277 0.062147 0.035090
0.081286 -0.013543 -0.082448
-0.048989 -0.064041 -0.096009
0.055521 -0.050617 0.048911
0.051981 0.047822 0.091704
0.075777 -0.031865 0.071908
0.045609 0.000000 0.033000
0.081941 0.032725 -0.064913
0.086445 0.000539 0.081043
0.083137 0.003041 0.084165
0.081654 -0.025281 0.073058
0.076183 0.030333 0.068221
-0.096258 -0.006433 0.034961
0.069672 -0.063152 -0.033402
0.070390 0.061282 0.037062
0.083291 -0.017556 -0.078362
0.049351 -0.040667 -0.033710
0.066841 0.056477 -0.031049
-0.091839 0.001570 -0.097473
0.081951 0.007976 -0.096981
-0.093095 -0.015297 -0.033494
-0.015819 0.067528 -0.093493
0.077192 0.066707 -0.026239
-0.017721 0.070601 0.035093
0.050034 -0.042239 -0.033737
-0.092727 0.006348 -0.094555
0.080893 0.069082 0.022357
0.084539 0.013542 -0.079450
0.038485 -0.017261 0.035802
-0.001479 0.067741 -0.035682
-0.093018 0.000000 0.097370
0.039306 0.055272 0.041133
0.071301 0.038907 0.065070
-0.036490 -0.070631 -0.037182
0.072613 0.031149 0.074254
-0.015712 -0.068419 -0.092580
0.020305 -0.061121 -0.037018
0.062553 -0.041406 0.065357
0.053341 0.050842 0.053152
-0.091885 0.000000 -0.097500
0.096666 0.001347 -0.076476
0.084945 -0.074913 -0.009193
-0.048309 0.062280 -0.096413
-0.043214 -0.066527 -0.091380
0.064650 -0.058372 0.032539
-0.001479 -0.067741 -0.035682
-0.031745 -0.071078 0.036057
0.083412 -0.024620 0.069310
0.085747 -0.001175 0.084250
0.062706 -0.060052 -0.034048
0.075070 0.064592 -0.031618
-0.009010 0.067177 -0.034173
0.075667 -0.066855 -0.033237
0.067520 0.058092 0.033655
0.086426 -0.001135 -0.081030
0.053762 -0.038574 -0.033428
-0.096487 0.006437 0.036107
0.085890 0.007012 0.080610
-0.086548 -0.032476 0.033793
0.046167 0.050090 0.095900
0.052369 0.060229 -0.034315
0.091065 0.003074 -0.076615
0.069122 -0.031595 0.094448
0.070706 0.063909 0.036679
0.079363 -0.011060 -0.094807
-0.049568 -0.065527 0.094920
0.082695 -0.006981 0.083772
-0.091486 -0.006217 0.094891
0.071559 0.028427 -0.097004
0.096666 -0.073644 0.020705
0.084140 0.001026 0.080024
-0.053366 0.062517 -0.091447
0.079363 0.011060 -0.094807
0.094460 0.000668 0.076295
0.084183 -0.071703 -0.013147
0.075070 0.064592 -0.031618
0.051607 -0.038785 -0.032179
0.052216 0.039827 -0.030710
-0.093750 0.001641 -0.097091
-0.086548 -0.032476 0.033793
0.077645 -0.022980 0.092118
-0.022422 -0.070851 -0.035097
0.046188 -0.050083 -0.091667
-0.094674 -0.015646 -0.035117
0.026773 0.040162 -0.036201
0.084503 0.075262 -0.000198
0.071625 0.065037 -0.032671
-0.095200 -0.013505 -0.036226
-0.001593 -0.060792 -0.034061
0.032196 -0.054629 0.045750
0.035854 0.024979 0.033436
0.052394 0.050603 -0.054650
-0.087977 -0.033216 0.035415
0.054499 -0.038558 -0.030681
0.051969 0.039821 0.035463
-0.062262 -0.059814 -0.034907
0.090390 0.000536 0.074324
-0.076382 0.049076 0.091703
0.034424 0.057085 0.043247
0.036356 -0.056079 -0.039705
0.067702 0.059756 -0.035518
0.051757 -0.038714 0.035441
0.045799 0.048920 -0.093818
0.071431 0.061538 0.036359
0.072162 0.062099 -0.034510
-0.017450 -0.064215 0.034121
0.096884 0.059382 -0.044168
-0.091839 -0.001570 0.097473
0.086445 -0.000539 0.081043
0.085141 -0.072759 0.004431
-0.084839 0.038470 0.091875
0.082108 0.020265 0.072919
0.024667 -0.060049 -0.036592
0.070656 0.063773 0.037434
0.053890 -0.039257 0.033452
0.096666 0.068655 -0.033742
-0.094523 0.015624 -0.094154
0.090390 0.000536 0.074324
0.046499 0.051101 0.095173
0.072737 -0.030969 -0.074369
0.036071 -0.058130 0.041107
0.066550 -0.060305 -0.032674
0.077981 0.023919 -0.074550
0.080575 -0.011346 -0.094468
-0.017644 -0.071458 0.037196
0.023800 0.060185 0.036493
0.083340 -0.074429 0.010328
-0.009435 -0.065258 0.096361
0.085332 0.000000 -0.094391
0.086550 0.002896 0.076447
-0.089948 0.028911 0.093933
0.081464 -0.011544 0.093554
0.089842 0.000000 -0.077313
0.081328 0.000000 0.094939
-0.084521 0.032218 0.094106
-0.002217 -0.065466 0.092631
0.063200 0.060344 -0.034063
0.072676 0.061442 -0.037323
0.076965 0.018517 -0.097177
0.067215 -0.040255 0.093755
0.081874 0.010972 -0.092317
0.052446 -0.059435 0.036888
0.066117 0.058901 0.035553
-0.087488 0.027835 0.096637
-0.036489 0.070631 -0.091352
0.089105 0.013870 -0.075202
0.077541 0.066799 0.027288
0.054705 -0.046478 -0.059146
0.022803 0.059994 -0.035454
0.068304 0.062593 0.034572
-0.002296 -0.065280 0.095988
0.068600 0.060255 0.035631
-0.094018 0.000000 -0.093733
0.050034 -0.042239 -0.033737
-0.070489 0.048341 0.096656
-0.002296 0.065280 0.095988
0.062350 -0.041563 0.091808
0.029889 0.059557 0.036008
-0.053366 -0.062517 0.091447
0.064113 0.036911 0.096856
0.033566 -0.029178 -0.033509
0.045799 0.048920 -0.093818
0.070050 -0.061172 -0.036131
0.072583 -0.061717 -0.036796
0.087797 -0.006994 0.077964
0.067767 -0.041885 0.058449
-0.086190 -0.017622 -0.033308
0.029965 -0.056776 0.033991
0.051455 -0.046713 0.093856
0.029488 -0.036661 -0.033640
0.070081 -0.032378 0.094104
0.049020 0.038985 -0.033680
0.078600 -0.067117 -0.027174
0.080042 0.028050 0.071779
0.085362 -0.020947 -0.070730
0.085150 0.017505 0.075859
0.081158 0.016667 -0.077398
0.020463 -0.058441 -0.037742
0.046188 -0.050083 0.091667
-0.035953 0.067652 -0.095947
-0.028199 -0.071267 0.091342
-0.001813 0.066731 0.034600
0.096666 0.076181 0.006979
0.085784 0.075548 -0.000205
0.052457 0.059336 -0.036704
0.071030 0.061416 0.036034
0.075334 0.031010 0.093906
0.052413 0.040857 -0.035484
-0.093419 -0.020227 0.035195
0.028219 -0.057919 -0.034237
-0.001337 0.068153 -0.091393
0.046836 -0.052109 0.093561
0.028219 -0.057919 -0.034237
-0.086253 -0.017261 -0.035802
-0.031448 0.068370 0.034193
0.071622 0.065041 0.032689
0.073341 0.063228 0.032694
0.085802 0.028230 -0.070052
-0.069156 -0.053657 0.034161
-0.077486 -0.044023 0.092997
0.080477 -0.022370 -0.092145
-0.095377 0.000000 -0.095990
0.079874 0.025318 -0.075394
-0.002109 0.065775 0.091393
0.069586 -0.063429 -0.035194
0.067521 0.062765 -0.035098
-0.035953 -0.067652 -0.095947
0.090830 0.018367 0.071138
0.034424 0.057085 0.043247
-0.045337 0.067605 0.035041
0.067521 0.062765 -0.035098
0.071857 -0.063804 0.038008
-0.089948 -0.028911 -0.093933
-0.088938 0.025583 -0.036444
0.084011 -0.025852 0.071401
0.074986 -0.040745 -0.062488
0.068277 -0.060988 0.036786
0.031964 0.057347 -0.037067
-0.041024 0.066923 0.091373
-0.036419 -0.070266 -0.093246
-0.076383 -0.049076 -0.036821
0.078222 -0.021397 0.092144
0.090371 -0.001146 -0.074311
0.063686 -0.040500 0.066314
0.052576 -0.046485 -0.033811
0.052369 0.060229 0.034315
-0.073642 -0.051638 0.093556
0.051605 0.048291 -0.054113
0.096884 0.039675 -0.062470
0.065299 0.058483 -0.035673
0.085747 0.001175 -0.084250
0.046961 0.052460 -0.053434
-0.076788 -0.043449 -0.093911
0.083593 0.071760 0.010100
0.054989 -0.043557 0.096740
-0.093750 0.001641 0.097091
0.063253 0.052054 0.030967
-0.095611 -0.006381 0.033988
-0.083220 -0.041264 0.091830
0.056010 -0.048616 -0.059242
0.062138 -0.041310 -0.093048
0.070050 -0.061172 -0.036131
0.071672 -0.063727 0.038134
-0.065442 0.049275 -0.033860
0.084157 -0.000474 0.080037
-0.076383 0.049076 -0.036821
-0.058197 0.062186 0.034948
0.023732 -0.059844 0.035521
0.075964 -0.034619 0.063992
0.074656 0.032346 0.091986
0.056687 0.044110 -0.033549
0.072162 0.062099 -0.034510
0.096884 0.059382 -0.044168
-0.090303 -0.029040 0.092029
0.083150 -0.074519 0.003974
-0.073915 0.051895 0.091657
0.066915 0.040068 0.061271
0.076363 0.026763 -0.073120
0.057324 -0.043754 -0.030815
0.063686 -0.040500 0.066314
-0.054398 0.064717 0.037083
0.075885 0.064625 -0.032128
0.049351 -0.040667 0.033710
0.056010 0.048616 0.059242
-0.094899 -0.015679 -0.036262
-0.091869 -0.019776 0.033572
-0.093129 0.000000 -0.094653
0.032196 0.054629 0.045750
0.050130 -0.054115 0.048136
0.068812 -0.061075 0.036846
-0.036231 -0.069221 -0.094857
0.084157 -0.000474 -0.080037
-0.002882 -0.063441 0.093892
-0.087575 0.027846 -0.033486
-0.002296 -0.065280 0.095988
0.020869 0.046795 0.033817
0.061014 0.049931 0.053755
-0.022505 0.066799 0.096334
0.084618 -0.008381 0.094277
0.081464 0.011544 0.093554
-0.067573 0.053645 0.092833
0.081437 -0.070150 -0.017108
0.052576 -0.046485 -0.033811
0.073604 -0.063485 -0.000397
-0.060077 0.056388 0.096516
0.045609 0.000000 0.033000
0.070323 0.037016 -0.063758
0.052369 -0.060229 -0.034315
0.052446 0.059435 -0.036888
0.089538 0.000000 0.077494
-0.041024 0.066923 0.037160
0.060531 -0.048584 -0.051534
0.070715 -0.060653 0.032647
0.085434 -0.010331 -0.075590
-0.068637 0.046795 -0.033817
0.082915 0.071264 -0.012697
-0.091186 0.026475 -0.092070
0.052394 -0.050603 0.054650
0.088305 0.013374 -0.072874
0.084997 -0.008412 0.092367
0.057525 0.047720 -0.060357
0.029906 0.058937 0.034967
-0.031745 -0.071078 0.036057
0.086016 -0.027298 0.067740
0.069070 -0.063510 0.036198
0.052394 -0.050603 0.054650
0.070138 0.063770 -0.037063
0.065345 -0.047648 0.056299
0.083562 0.021435 0.074584
0.086422 -0.013497 0.076880
0.062138 -0.041310 0.093048
0.019661 -0.059191 -0.034177
0.071857 0.063804 0.038008
0.086445 0.000539 -0.081043
0.069759 0.063396 0.034771
0.057324 -0.043754 -0.030815
-0.088938 -0.025583 -0.036444
-0.080319 -0.045043 0.036753
0.090585 -0.007217 -0.076286
0.084277 0.075102 -0.004537
-0.002109 -0.065775 -0.091393
0.096884 0.014727 -0.072520
0.080575 0.011346 0.094468
0.072688 0.061443 -0.037324
0.096666 0.041009 0.064573
0.081738 -0.021484 0.077008
0.074539 0.035490 -0.067504
-0.092588 0.012990 -0.092281
0.069826 0.059736 -0.031980
0.086674 0.000475 -0.076525
0.085362 0.020947 0.070730
0.061226 -0.048235 -0.051929
0.073411 -0.033765 0.066082
-0.049436 0.065168 -0.034361
0.071959 -0.061900 0.034144
-0.091839 0.001570 -0.097473
-0.022408 0.071487 -0.036064
0.068036 0.058568 -0.033689
0.075777 -0.031865 0.071908
0.066735 -0.061376 -0.033872
-0.058622 0.062937 0.037053
0.032015 -0.056907 0.033993
-0.014659 -0.070798 -0.037185
0.075043 -0.027609 0.076517
0.088305 -0.013374 0.072874
0.027165 0.056832 0.033992
-0.085542 0.031938 0.033557
0.046081 -0.049773 0.092905
-0.022411 -0.071338 0.093228
0.080675 -0.071452 0.023124
-0.089948 -0.028911 -0.093933
0.083279 0.000000 -0.084276
-0.083622 -0.024979 0.035936
0.054172 0.049393 0.050386
0.050130 0.054115 0.048136
0.096884 -0.039675 0.062470
0.007089 0.056676 -0.033989
-0.015671 -0.068745 -0.091343
0.065250 -0.039105 0.067668
0.096666 0.073644 0.020705
-0.093018 0.000000 -0.097370
0.057545 -0.047755 -0.091741
0.086674 0.000475 -0.076525
0.091179 0.000000 -0.074104
0.070271 -0.063747 0.034254
0.075972 -0.038682 0.060910
-0.094040 -0.015511 -0.034145
0.085150 -0.017505 0.075859
-0.001593 -0.060792 -0.034061
-0.014659 -0.070798 -0.091350
0.068797 -0.058644 -0.031457
0.085394 0.000000 -0.077956
0.054355 -0.051443 -0.051808
0.073345 0.063224 -0.032671
0.083412 -0.024620 0.069310
0.084135 0.011429 0.092319
0.070050 -0.061172 0.036131
0.080042 -0.028050 -0.071779
-0.077256 -0.036661 0.033640
-0.001337 -0.068153 -0.091393
-0.042968 0.061606 -0.034075
0.064368 0.061022 0.034173
0.086550 -0.002896 -0.076447
0.031710 -0.059806 0.037438
0.083311 0.000000 -0.083458
-0.077256 -0.036661 0.036140
0.046081 0.049773 -0.092905
-0.001614 0.067338 0.035037
0.085784 -0.075548 -0.000205
0.075043 0.027609 0.076517
0.088343 -0.001152 0.078355
-0.036168 0.068844 -0.034425
0.092200 0.014644 -0.072110
-0.093636 0.006432 -0.093640
0.085444 -0.075292 0.005844
-0.064481 0.050442 0.033880
0.086131 -0.006618 -0.076137
0.073411 -0.033765 0.066082
0.084157 -0.000474 -0.080037
-0.029552 0.068999 0.037196
-0.083221 0.041263 -0.036690
0.068812 -0.061075 0.036846
-0.091099 -0.020030 0.092163
0.050348 -0.052254 0.046481
0.063475 -0.044755 -0.055727
0.058736 0.044116 -0.062240
0.085134 0.000000 -0.094958
0.081750 -0.072352 -0.020340
0.096666 0.073644 -0.020705
0.081936 -0.010980 0.083064
0.054603 -0.039083 -0.030710
-0.009435 -0.065258 -0.096361
-0.048989 0.064041 -0.096009
0.071332 0.064172 0.036528
0.077835 -0.067052 -0.026738
0.081750 -0.072352 -0.020340
-0.004805 -0.061677 0.036577
0.072664 -0.037879 0.061713
0.046188 -0.050083 -0.053434
0.065349 -0.046159 -0.054272
0.084316 0.075131 0.004119
-0.074397 0.040022 -0.033699
0.071511 0.063886 0.037633
0.052642 0.040810 -0.030738
-0.093095 -0.015297 -0.033494
-0.073305 0.051282 -0.034760
0.050939 -0.045593 -0.094204
0.051607 -0.038785 0.032179
0.066673 -0.059196 -0.035510
0.064650 0.058372 0.032539
0.046081 -0.049773 -0.092905
0.055929 -0.045196 0.096338
-0.096653 0.000000 0.094003
0.086627 0.026954 0.070647
0.058037 -0.048592 -0.055955
0.079281 -0.071318 -0.022272
0.054705 0.046478 -0.059146
0.031888 -0.058134 -0.034282
0.031754 0.059360 -0.038623
0.025907 -0.057369 -0.037138
0.065418 -0.058643 -0.031077
0.088343 0.001152 0.078355
-0.027780 -0.064633 -0.036629
0.070318 0.060641 0.034521
0.054816 0.039575 0.030738
0.049351 -0.040623 0.036209
0.061581 0.040603 -0.093962
-0.061142 0.058046 -0.034013
-0.045337 0.067605 0.035041
-0.093468 0.015400 -0.095774
0.096884 0.073701 0.006752
0.080477 -0.022370 -0.092145
0.088213 0.000000 0.075373
0.065349 -0.046159 -0.054272
0.050779 0.040229 0.033303
0.081874 -0.010972 -0.092317
0.040708 0.004517 0.033079
-0.095841 0.000000 -0.033726
0.024508 0.059082 -0.034754
0.051605 0.048291 0.054113
-0.090036 0.014606 -0.097245
-0.045603 -0.068424 0.037145
0.052413 0.040857 0.035484
-0.028199 -0.071267 0.091342
0.068600 -0.060255 0.035631
-0.082673 0.037070 0.091876
0.031754 0.059360 0.038623
0.075070 0.064592 -0.031618
0.020255 0.060986 -0.036100
0.049351 -0.040623 0.036209
0.072714 -0.066072 -0.031020
0.086327 -0.002947 -0.080963
0.084786 -0.029801 0.069319
0.063475 -0.044755 0.055727
-0.017426 0.064190 0.034120
0.077298 0.028719 -0.076641
0.077339 -0.022850 0.093362
0.052369 0.060229 -0.034315
-0.009010 0.067177 -0.034173
0.096884 0.039675 -0.062470
0.082573 -0.073865 -0.013347
-0.058507 0.062744 0.035916
0.052266 0.061224 -0.035077
0.083628 -0.006642 0.079609
0.051331 -0.041509 0.033327
-0.073752 0.051740 -0.035729
0.071796 0.064036 0.037446
0.031784 -0.059133 0.035055
0.075658 0.031203 -0.092005
0.075816 -0.066985 0.032919
0.031972 0.057272 -0.037265
0.096666 0.028592 -0.070948
0.045416 0.047792 0.096666
0.089105 -0.013870 0.075202
0.083755 -0.013997 0.082504
0.096884 -0.001303 -0.073986
0.031710 0.059806 0.037438
0.088242 -0.002953 -0.078292
0.020166 0.060722 -0.035546
0.084846 -0.029038 0.066921
0.096884 0.027661 0.068638
0.080068 -0.007663 -0.097366
0.089538 0.000000 0.077494
-0.001913 -0.066429 -0.034383
-0.028199 0.071267 -0.091342
0.085491 -0.072682 0.006658
0.057525 -0.047720 0.060357
0.072385 0.062077 -0.035694
0.084618 0.008381 0.094277
0.077981 0.023919 -0.074550
-0.068432 -0.052783 0.033921
0.072681 -0.061445 0.037320
-0.042868 0.065351 -0.093531
0.081951 0.007976 -0.096981
0.096884 0.000000 -0.074009
0.072470 0.063571 -0.038617
0.087958 0.000000 -0.075538
0.076715 -0.024760 -0.078093
0.054172 0.049393 -0.050386
-0.002217 0.065466 -0.092631
0.051561 0.050740 -0.056227
0.053890 0.039257 0.033452
-0.095377 0.000000 0.095990
0.054161 -0.039899 -0.033474
0.066498 0.059840 0.031296
-0.066110 0.057928 0.091559
-0.014659 -0.070798 0.091350
0.058037 -0.048592 -0.055955
0.061551 -0.054669 0.032473
0.071944 -0.061575 -0.036777
-0.076351 0.049021 0.036820
0.023803 -0.060181 0.037526
-0.092767 0.013789 -0.036239
0.031964 -0.057347 0.037067
0.046188 -0.050083 -0.091667
0.069453 0.062933 0.033153
0.084383 0.011500 -0.083073
0.046167 0.050090 -0.095900
0.078312 -0.066860 0.027732
-0.001813 -0.066731 0.034600
0.075334 0.031010 0.093906
0.031721 -0.059726 -0.036173
0.063715 0.052737 0.030980
0.086550 0.002896 0.076447
-0.029524 -0.068672 -0.092576
0.019832 0.059712 -0.034465
-0.090090 0.028962 -0.035343
0.073989 0.030328 -0.071051
0.096666 -0.073644 -0.020705
0.085150 0.017505 -0.075859
-0.017450 -0.064215 0.034121
-0.068637 -0.046795 0.036317
0.056131 0.045317 -0.091746
-0.095043 -0.013460 0.036225
-0.091072 0.026412 0.036442
0.019661 0.059191 0.034177
0.052446 -0.059435 0.036888
0.052495 -0.058967 0.036530
0.082501 0.000000 -0.097195
0.031721 -0.059726 0.036173
-0.015712 0.068419 -0.092580
0.036356 -0.056079 0.039705
0.024201 0.057166 -0.033998
0.096884 -0.059382 0.044168
0.052444 -0.059451 -0.037097
-0.081544 0.029302 0.033511
0.071356 0.061366 -0.037180
0.085362 0.020947 0.070730
0.056276 0.045557 -0.060352
-0.008338 0.067488 -0.037170
-0.067573 0.053645 0.092833
0.084185 0.072072 0.010285
-0.088476 -0.004517 0.033079
-0.029524 0.068672 -0.092576
-0.022411 0.071338 -0.093228
0.078346 0.069391 -0.028183
0.056276 0.045557 -0.060352
0.067215 0.040255 -0.093755
-0.073642 -0.051638 -0.093556
0.067484 0.040516 -0.091856
0.031966 0.057333 0.036856
0.085362 -0.072915 0.000053
0.064113 0.036911 -0.096856
0.053838 -0.045696 -0.033400
0.091065 -0.003074 0.076615
0.054499 0.038558 -0.030681
-0.008690 -0.068658 0.094867
0.086426 -0.001135 -0.081030
0.091194 0.000585 0.076691
0.088824 -0.022964 -0.072244
-0.049959 -0.066515 0.093308
0.083593 0.071760 0.010100
0.071030 0.061416 0.036034
0.078941 0.031165 0.066092
-0.071860 -0.049762 -0.033869
0.058037 0.048592 -0.055955
0.050130 0.054115 0.048136
0.069798 0.038835 0.067015
0.083513 -0.071578 -0.012932
0.072463 -0.063577 0.038607
0.063253 -0.052054 0.030967
0.069580 -0.059478 0.031833
-0.062523 0.060228 -0.093413
0.019917 -0.059972 0.034608
0.056687 -0.044110 -0.033549
0.073345 -0.063224 -0.032671
0.039306 0.055272 -0.041133
0.061226 0.048235 0.051929
0.077973 -0.070606 0.021590
0.060694 0.055334 0.033569
-0.002882 -0.063441 -0.093892
0.075043 0.027609 0.076517
0.078710 0.036190 -0.062722
0.086656 -0.001049 0.076513
0.058037 0.048592 0.055955
-0.001798 -0.066794 -0.094899
0.068352 -0.036920 0.066309
0.021449 0.060798 -0.037184
-0.094984 -0.001658 -0.033257
0.052266 -0.061224 0.035077
0.056276 0.045557 0.060352
0.088242 -0.002953 0.078292
0.084014 0.000000 0.096314
0.081377 0.073235 -0.012872
-0.029552 -0.068999 0.091338
0.010360 0.054953 0.033959
0.071951 -0.065361 -0.000491
0.070390 0.061282 -0.037062
0.062138 -0.041310 0.093048
0.021449 -0.060813 0.037184
0.066909 -0.040935 -0.091850
0.025750 -0.059856 0.037800
0.029896 -0.057166 -0.037220
0.068651 0.062353 -0.033653
0.005548 -0.057674 0.034007
0.083595 -0.016600 -0.074116
0.084224 0.000000 0.080074
0.046001 -0.049587 -0.096262
0.086550 -0.002896 -0.076447
-0.071791 0.049717 -0.096258
0.086043 0.021953 -0.072916
0.066550 0.060305 -0.032674
0.071050 0.043902 0.059886
0.033566 -0.029178 -0.033509
-0.003999 0.068067 0.035049
0.075829 -0.067008 -0.032932
0.084790 0.012879 -0.075076
-0.093750 -0.001641 0.097091
0.076488 -0.036141 0.065910
0.070706 -0.063909 -0.036679
-0.090775 0.019443 0.033339
0.093790 0.007644 -0.075854
-0.096258 0.006433 0.034961
0.083557 0.000000 0.081874
0.066841 0.056477 0.031049
0.073345 0.063224 -0.032671
0.083248 -0.001079 0.084250
-0.096454 0.001703 -0.094386
0.019377 -0.058321 -0.034018
0.051969 -0.039821 -0.035463
0.076363 -0.026763 0.073120
0.082108 -0.020265 -0.072919
0.069588 -0.061190 0.036956
-0.090776 0.019949 0.093409
0.086426 0.001135 0.081030
-0.022441 -0.069895 -0.034443
0.057525 0.047720 0.060357
0.078366 -0.021448 0.079661
-0.043214 -0.066527 -0.091380
0.056131 -0.045317 -0.091746
0.096666 0.001347 0.076476
0.080068 -0.007663 -0.097366
-0.055967 -0.061139 -0.092705
0.075885 0.064625 -0.032128
-0.070489 -0.048341 -0.096656
-0.057195 -0.060350 0.034053
-0.036168 0.068844 -0.034425
0.080498 0.069421 0.019441
-0.029552 -0.068999 0.091338
0.022250 -0.057538 -0.034004
0.083431 0.073730 0.015500
0.075658 -0.031203 0.092005
0.096884 0.050367 0.054222
0.046001 -0.049587 0.096262
0.024613 -0.059728 -0.035585
-0.073934 -0.041080 -0.033717
0.073872 0.063736 0.031877
-0.008690 -0.068658 -0.094867
0.063351 -0.060124 -0.036552
0.073872 -0.063736 0.031877
0.071431 -0.061538 -0.036359
0.083755 -0.013997 -0.082504
0.086845 0.026067 0.068320
0.096666 -0.052062 0.056047
-0.015963 0.066305 -0.093842
0.052233 0.061489 0.038619
-0.001574 0.067467 0.093823
0.077298 0.028719 -0.076641
-0.009010 0.067177 -0.034173
-0.043118 -0.066214 0.092618
0.075972 -0.038682 -0.060910
0.075964 0.034619 -0.063992
-0.055550 0.060343 0.093618
-0.001479 0.067741 -0.035682
0.094460 0.000668 -0.076295
-0.094523 0.015624 -0.094154
0.072039 0.063898 0.037890
0.028280 0.059728 -0.037014
0.024667 -0.060049 -0.036592
0.081158 0.016667 -0.077398
0.077835 0.067052 -0.026738
-0.094384 0.000000 -0.036000
0.096666 -0.041009 0.064573
-0.091839 -0.001570 0.097473
0.075777 -0.031865 -0.071908
0.072411 -0.062036 0.035841
0.082982 -0.074400 0.005458
0.088921 0.000000 -0.074968
0.087759 0.000000 -0.079009
0.085151 -0.072765 -0.004337
-0.096653 0.000000 -0.094003
0.077298 0.028719 0.076641
0.083595 -0.016600 -0.074116
0.052495 -0.059010 -0.034030
0.082300 0.028651 -0.070134
0.084140 -0.001026 0.080024
0.031977 0.057235 -0.036670
0.075755 -0.040017 -0.063012
-0.045337 -0.067605 0.035041
0.080223 -0.069038 -0.021870
0.094438 0.001343 -0.076282
0.055929 -0.045196 0.096338
-0.096258 -0.006433 0.034961
-0.035626 0.065794 0.096352
0.086656 0.001049 0.076513
0.072461 0.063575 0.038609
-0.017901 -0.068521 0.034196
-0.022402 0.071711 -0.091335
0.096884 0.001303 0.073986
-0.090776 0.019949 0.093409
0.086991 0.017197 0.071918
-0.095611 0.006381 0.033988
0.050779 0.040229 0.033303
-0.070489 0.048341 -0.096656
0.083248 0.001079 -0.084250
-0.031570 -0.069495 0.034436
-0.043118 0.066214 0.092618
0.071301 0.038907 -0.065070
-0.091186 -0.026475 -0.036443
0.078644 0.026734 -0.070154
-0.096835 -0.001685 0.092473
-0.029524 0.068672 -0.092576
0.076363 0.026763 0.073120
0.077339 -0.022850 -0.093362
-0.089904 0.019689 0.094323
0.086016 -0.027298 -0.067740
0.071217 0.061437 -0.035365
0.081793 0.011602 -0.092307
0.069261 0.063380 -0.035394
-0.040971 0.066796 -0.037158
0.065273 0.042432 0.066314
0.091065 0.003074 -0.076615
0.072714 -0.066072 -0.031020
-0.093636 0.006432 -0.093640
0.072686 0.061447 0.037317
-0.002264 0.065352 -0.034141
0.080575 -0.011346 0.094468
0.072470 0.063571 -0.038617
0.068600 -0.060255 0.035631
0.049020 0.038985 -0.033680
0.089105 -0.013870 0.075202
0.085747 0.001175 -0.084250
0.075408 0.021908 0.094617
0.072249 -0.061544 -0.037012
0.031972 0.057272 -0.037265
-0.090303 0.029040 0.092029
0.085717 0.000000 -0.093286
-0.066110 0.057928 -0.036969
0.076896 0.066453 0.026778
0.082300 -0.028651 0.070134
-0.071860 -0.049762 -0.033869
-0.089904 -0.019689 0.094323
0.046961 -0.052460 -0.091667
0.075885 -0.064625 -0.032128
0.096884 0.039675 -0.062470
0.080893 -0.069082 0.022357
-0.078000 -0.043192 0.033754
0.065250 -0.039105 0.067668
0.059236 0.049215 -0.054556
0.049295 -0.053250 0.049252
0.067083 -0.062530 0.034889
-0.003752 0.068892 0.037153
0.070646 0.061262 -0.035764
0.072686 0.061447 -0.037317
0.085151 -0.011052 0.079979
0.077973 0.070606 0.021590
-0.008458 0.069694 -0.093255
0.090390 -0.000536 -0.074324
0.039698 -0.012243 -0.035714
0.070646 0.061262 0.035764
0.069588 -0.061190 0.036956
-0.008372 0.070056 0.091362
0.083549 0.008228 0.095897
-0.064671 -0.055908 0.036969
-0.008458 -0.069694 0.093255
-0.082899 0.041067 0.093731
0.081231 0.020211 0.094083
0.075964 -0.034619 0.063992
0.031721 0.059726 -0.036173
0.069070 0.063510 -0.036198
0.085163 0.072441 -0.008889
-0.078882 0.043912 0.033992
0.081592 0.020326 -0.092178
0.065079 0.058815 -0.032512
-0.087403 0.032924 0.034445
0.067894 -0.061332 -0.031905
0.071951 -0.065361 -0.000491
0.051126 0.000000 -0.030008
0.078941 0.031165 0.066092
0.064368 -0.061022 0.034173
-0.093419 -0.020227 0.035195
0.050939 0.045593 0.094204
0.054989 0.043557 -0.096740
0.082501 0.000000 0.097195
-0.001479 -0.067741 -0.035682
0.069122 0.031595 -0.094448
-0.008338 0.067488 -0.037170
0.031721 0.059726 -0.036173
0.052369 0.060229 0.034315
0.075527 0.068573 -0.026308
0.064317 0.043201 -0.065542
0.074765 0.032442 0.074385
0.036356 0.056079 0.039705
0.065719 0.041028 0.060421
-0.008458 0.069694 -0.093255
0.051981 0.047822 0.091704
0.073087 -0.039564 -0.063512
0.085787 0.000000 -0.083922
0.066909 0.040935 0.091850
0.052413 -0.040857 0.035484
-0.090776 -0.019949 -0.093409
0.056010 0.048616 -0.059242
0.073411 -0.033765 -0.066082
-0.088184 -0.033307 0.036557
0.086230 0.000000 0.081629
-0.009010 0.067177 -0.034173
0.081377 0.073235 -0.012872
0.076521 0.022458 0.094276
0.072286 -0.065675 0.031689
0.069832 -0.060206 0.034230
0.068958 0.062645 0.033899
0.034194 0.054704 0.042515
-0.095956 0.001686 -0.033907
0.080223 -0.069038 -0.021870
-0.087466 0.012243 -0.033214
0.087391 0.000000 -0.079462
0.025438 -0.057427 0.037129
0.080730 -0.071499 -0.022992
0.080575 -0.011346 0.094468
0.038422 0.017622 -0.033308
-0.090303 -0.029040 -0.092029
0.096884 -0.071247 -0.020031
-0.036231 -0.069221 -0.094857
-0.090090 0.028962 -0.035343
-0.022465 -0.068764 -0.034200
-0.015819 -0.067528 0.093493
0.071052 -0.033140 0.091949
-0.002131 -0.065783 0.095626
0.072411 -0.062036 0.035841
0.084539 0.013542 -0.079450
0.069798 -0.038835 -0.067015
0.081960 -0.010885 0.083087
0.088343 0.001152 0.078355
0.081597 0.027526 -0.067996
0.049252 0.051119 0.047946
0.069434 -0.063647 0.036508
-0.085322 -0.032644 -0.093192
0.065393 0.038306 0.096457
-0.093636 0.006432 -0.093640
0.048163 0.050360 0.049641
-0.095971 0.000000 -0.033904
0.086674 -0.000475 -0.076525
0.072411 0.062036 0.035841
0.085779 0.000000 0.092501
0.072510 -0.061877 -0.036404
0.088305 0.013374 -0.072874
0.087045 -0.011016 0.077375
-0.082673 -0.037070 -0.091876
0.094678 0.000646 -0.073805
0.084509 0.072306 -0.008744
0.057545 -0.047755 0.091741
0.085362 0.020947 -0.070730
-0.046174 0.060792 -0.034061
-0.049783 0.066059 -0.035015
0.071030 0.061416 -0.036034
0.075658 -0.031203 0.092005
-0.095200 0.013505 0.092281
0.078644 -0.026734 0.070154
0.046961 0.052460 0.053434
0.072943 0.035455 -0.069557
0.065080 0.039922 -0.063683
0.063475 -0.044755 -0.055727
-0.067573 0.053645 0.092833
0.028273 -0.059494 -0.038153
-0.071860 -0.049762 -0.033869
0.066936 0.037601 0.069126
0.085151 0.011052 -0.079979
0.084509 -0.072306 -0.008744
0.069274 -0.063333 -0.035411
-0.093468 -0.015400 0.095774
0.034194 0.054704 -0.042515
0.023607 0.059200 0.034723
-0.054857 0.056676 0.033989
0.069070 0.063510 0.036198
0.096884 0.039675 -0.062470
-0.091839 0.001570 -0.097473
0.049351 -0.040667 -0.033710
0.084790 0.012879 -0.075076
0.060280 0.046094 -0.062383
-0.083028 -0.041145 -0.035549
0.081592 0.020326 0.092178
-0.050018 0.066652 -0.035982
0.082882 -0.071108 0.015018
-0.086253 -0.017261 -0.033301
-0.083432 -0.031623 -0.094448
0.072613 0.031149 0.074254
-0.095611 0.006381 0.033988
0.052369 -0.060229 0.034315
0.072664 -0.037879 -0.061713
-0.077749 -0.044223 -0.091755
0.083562 -0.021435 0.074584
0.075972 0.038682 0.060910
-0.076382 -0.049076 -0.091703
0.082947 0.010379 0.079008
0.060825 -0.039626 0.094308
0.090830 -0.018367 -0.071138
0.069434 0.063647 -0.036508
0.084185 0.072072 0.010285
-0.044711 -0.065612 0.034145
0.050386 0.000000 0.032753
0.021449 -0.060813 0.037184
0.067733 -0.042103 0.062472
-0.071860 0.049762 -0.033869
0.084185 -0.072072 0.010285
0.051836 0.047527 0.092943
0.019377 0.058321 -0.034018
-0.095956 -0.001686 -0.033907
-0.088959 0.028488 0.095551
0.028280 -0.059728 -0.037014
-0.042963 -0.061677 -0.034077
0.035854 0.024979 0.033436
-0.056126 0.061427 0.091466
-0.022403 -0.071711 -0.037200
0.057324 -0.043754 -0.030815
0.089017 -0.010749 0.073388
0.051981 -0.047822 0.091704
0.086426 -0.001135 0.081030
-0.062523 -0.060228 -0.093413
0.066103 0.059856 0.032584
0.096666 -0.068655 -0.033742
-0.036419 0.070266 -0.093246
-0.085621 0.032787 0.091948
-0.001593 0.060792 0.034061
0.067742 -0.060893 0.036731
0.080042 -0.028050 -0.071779
-0.065525 -0.049409 -0.036363
0.020305 0.061121 0.037018
0.073604 -0.063485 -0.000397
-0.002882 0.063485 -0.096392
0.071870 0.036038 0.071854
-0.094040 -0.015511 -0.034145
-0.061731 -0.058213 -0.037009
0.089105 0.013870 -0.075202
-0.066232 0.051982 -0.094092
-0.001798 -0.066794 -0.094899
0.045799 0.048920 0.093818
-0.096835 0.001685 -0.092473
0.071559 0.028427 0.097004
0.070138 -0.063770 0.037063
0.039306 -0.055272 0.041133
-0.092853 0.013053 -0.036227
-0.067789 -0.053895 -0.091593
0.081286 0.013543 -0.082448
0.085604 0.075412 0.004254
-0.088716 -0.019318 0.094662
0.052495 0.059010 -0.034030
0.051836 0.047527 -0.092943
0.081654 -0.025281 -0.073058
-0.084521 -0.032218 0.094106
0.092163 -0.014601 0.074682
0.052451 0.059380 -0.037294
0.096666 0.015223 0.074960
0.072688 -0.061443 0.037324
0.067484 0.040516 -0.091856
-0.085621 0.032787 -0.091948
0.057356 -0.046452 0.054841
0.068309 0.043558 -0.060260
0.080948 -0.069128 -0.022230
-0.058622 -0.062937 0.037053
0.074765 -0.032442 -0.074385
0.085643 0.003056 0.084175
0.070050 -0.061172 0.036131
0.084183 -0.071703 -0.013147
0.079223 -0.071272 0.022400
0.096666 -0.028592 -0.070948
0.075777 0.031865 0.071908
0.070903 -0.061327 0.037124
0.055114 -0.044937 -0.030812
0.078644 0.026734 -0.070154
-0.036489 0.070631 -0.091352
0.085151 -0.072765 -0.004337
-0.033279 -0.064065 0.036619
-0.091486 -0.006217 0.094891
0.066841 -0.056477 -0.031049
-0.062523 0.060228 0.093413
0.083916 -0.074114 -0.013783
0.079223 0.071272 0.022400
0.083267 0.000533 -0.084263
0.065273 -0.042432 0.066314
0.082982 -0.074400 0.005458
-0.036448 -0.070412 -0.036046
0.096884 -0.050367 0.054222
0.066735 -0.061376 -0.033872
0.065275 0.061534 -0.034345
0.075070 -0.064592 -0.031618
-0.041622 0.069251 0.037159
0.072664 0.037879 0.061713
0.061284 -0.045770 0.060558
-0.001798 -0.066794 0.094899
-0.015819 0.067528 -0.093493
0.096884 0.000000 0.074009
-0.095371 -0.001688 0.096007
0.046961 0.052460 0.091667
0.026629 0.040022 0.033699
0.084997 0.008412 -0.092367
0.056010 -0.048616 0.059242
0.087045 0.011016 0.077375
0.096884 -0.027661 -0.068638
0.069434 0.063647 0.036508
0.052457 0.059336 0.036704
0.052008 0.038775 -0.030681
0.032015 0.056864 -0.036493
0.076521 0.022458 0.094276
0.070614 -0.060904 -0.034743
0.081853 -0.033688 0.067229
0.080318 0.023870 0.071485
0.096666 0.061380 -0.045655
0.096884 -0.066420 -0.032643
0.079884 -0.072110 -0.017187
-0.093884 0.000000 0.033000
0.080048 -0.017388 0.081266
-0.089497 -0.028708 -0.034372
0.084658 0.074692 0.010666
-0.014659 -0.070798 0.091350
0.079559 -0.032500 0.068124
0.049298 0.053393 0.049340
0.088343 -0.001152 0.078355
0.047117 0.000000 -0.032596
0.080318 -0.023870 0.071485
0.063715 -0.052737 0.030980
0.052369 0.060229 0.034315
0.048465 0.052672 -0.050544
-0.087403 -0.032924 0.034445
0.064650 0.058372 -0.032539
-0.014488 -0.064065 -0.036619
0.074656 0.032346 0.091986
0.085150 0.017505 0.075859
0.067705 0.060886 -0.036730
0.081597 -0.027526 0.067996
0.074538 0.064097 0.032494
0.065075 -0.038926 0.091852
0.050939 0.045593 -0.094204
-0.067004 0.052946 0.093746
0.086327 0.002947 0.080963
0.050348 0.052254 -0.046481
0.076521 -0.022458 0.094276
0.078524 -0.021129 0.079812
0.094678 0.000646 -0.073805
-0.001574 0.067467 0.093823
-0.091885 0.000000 -0.097500
0.029906 0.058937 0.034967
0.054989 -0.043557 0.096740
-0.041593 -0.069217 -0.091375
-0.040971 -0.066796 -0.037158
0.032902 0.057028 0.045709
0.078909 -0.025959 -0.078093
0.089789 -0.006913 -0.073934
-0.004800 -0.061606 -0.036576
-0.022465 0.068764 -0.034200
0.033776 -0.029302 0.036012
-0.090090 -0.028962 -0.035343
0.072510 -0.061877 -0.036404
-0.073915 0.051895 -0.091657
-0.062610 -0.060350 -0.035875
0.051827 0.039922 -0.032206
0.086422 0.013497 0.076880
0.082300 0.028651 0.070134
-0.022403 -0.071711 -0.037200
0.078729 -0.019233 0.096787
0.073411 0.033765 0.066082
0.085151 -0.011052 0.079979
0.069911 -0.034481 0.071783
0.061014 -0.049931 -0.053755
-0.001614 0.067338 -0.035037
0.096884 0.000000 0.074009
0.089775 0.011334 0.075697
-0.027780 -0.064633 -0.036629
-0.093419 -0.020227 0.035195
0.033505 -0.029984 0.033523
0.066921 0.040960 0.067677
-0.090303 0.029040 -0.092029
0.051455 -0.046713 0.093856
0.071909 0.061403 0.037242
-0.077486 -0.044023 0.092997
-0.095956 -0.001686 -0.033907
0.027301 0.058885 0.034858
-0.030318 -0.064215 -0.036621
0.081967 0.069954 -0.019666
-0.061944 -0.059334 0.095026
0.063351 -0.060124 -0.036552
-0.061747 -0.059006 -0.034254
-0.045049 -0.066693 0.034388
0.049255 0.051307 -0.048061
-0.042868 0.065351 -0.093531
0.088362 0.000539 -0.078368
-0.001593 -0.060792 -0.036561
0.054988 0.045150 -0.035560
0.064314 -0.060296 0.036568
0.032196 -0.054629 0.045750
0.086674 -0.000475 0.076525
0.091194 -0.000585 -0.076691
-0.001462 0.067802 -0.093287
0.096884 -0.066420 0.032643
0.020305 -0.061121 -0.037018
0.090390 -0.000536 0.074324
0.091065 -0.003074 -0.076615
-0.035953 -0.067652 0.095947
0.092163 0.014601 0.074682
0.065719 0.041028 -0.060421
0.052451 -0.059380 -0.037294
0.052216 0.039827 0.030710
0.081377 0.073235 -0.012872
0.086003 -0.073057 0.000054
-0.092797 0.020052 0.034223
0.078366 -0.021448 0.079661
0.090390 -0.000536 -0.074324
0.067215 0.040255 0.093755
0.064113 -0.036911 0.096856
0.081738 -0.021484 0.077008
0.083431 -0.073730 0.015500
0.083513 -0.071578 -0.012932
0.046724 0.051774 0.094096
-0.088476 0.004517 0.033079
0.052446 -0.059435 -0.036888
0.061551 -0.054669 0.032473
-0.045531 0.068212 0.036008
0.056131 -0.045317 -0.091746
0.091229 0.000000 -0.076756
0.062553 0.041406 -0.065357
-0.014659 0.070798 -0.037185
-0.017450 0.064215 -0.034121
0.083628 -0.006642 -0.079609
-0.003999 0.068067 0.035049
0.069070 0.063510 0.036198
0.084509 -0.072306 -0.008744
0.083339 -0.074653 -0.000191
-0.088716 -0.019318 0.094662
-0.017665 -0.071235 0.036060
0.080226 0.019827 -0.095701
-0.088476 -0.004517 -0.033079
-0.022408 0.071487 -0.036064
0.075885 -0.064625 -0.032128
0.083291 0.017556 -0.078362
-0.022422 0.070851 -0.035097
-0.015671 -0.068745 0.037192
-0.001337 0.068153 -0.091393
0.048163 0.050360 0.049641
-0.085322 0.032644 -0.093192
0.080042 -0.028050 -0.071779
0.052444 0.059451 -0.037097
0.047127 0.050010 0.051497
-0.008424 -0.069839 -0.036036
-0.022408 -0.071487 -0.036064
0.064961 -0.058126 0.031049
0.054705 0.046478 0.059146
0.085362 -0.020947 -0.070730
-0.094674 0.000000 0.096649
0.086845 -0.026067 0.068320
0.086422 0.013497 -0.076880
0.074656 0.032346 -0.091986
0.046001 -0.049587 -0.096262
-0.001813 0.066731 -0.034600
0.023607 -0.059200 0.034723
0.087759 0.000000 -0.079009
0.020166 -0.060722 0.035546
0.053890 0.039257 0.033452
-0.075839 0.042653 0.094255
-0.091186 -0.026475 -0.092070
0.062553 0.041406 0.065357
0.079599 0.068705 -0.021467
0.096884 0.050367 -0.054222
0.023803 -0.060181 0.037526
0.086674 0.000475 0.076525
0.076521 0.022458 -0.094276
0.087797 -0.006994 -0.077964
-0.036489 0.070631 0.091352
0.070706 -0.063909 -0.036679
0.062138 -0.041310 -0.093048
0.091974 0.015137 -0.074545
0.050513 0.038861 0.033277
0.086508 0.000000 0.081081
0.092163 0.014601 0.074682
0.072686 -0.061447 -0.037317
-0.073642 0.051638 0.093556
-0.088754 -0.025491 -0.092071
-0.015963 -0.066305 0.093842
-0.077486 -0.044023 -0.092997
0.060825 0.039626 -0.094308
0.031966 -0.057333 0.036856
0.072249 0.061544 -0.037012
0.073119 -0.029509 0.096609
0.085332 0.000000 0.094391
-0.022433 0.070277 -0.094839
0.047113 0.000000 0.032597
0.076363 -0.026763 0.073120
0.027351 0.059590 0.038026
0.054989 0.043557 -0.096740
0.075153 -0.039428 0.060368
-0.084769 0.038404 0.036642
0.024613 0.059728 -0.035585
-0.022433 -0.070277 -0.094839
0.051607 -0.038785 0.032179
-0.090090 0.028962 -0.035343
-0.088716 0.019318 0.094662
0.062553 0.041406 -0.065357
-0.058197 0.062186 0.034948
0.067455 -0.059620 0.035505
0.021318 -0.058222 0.037050
0.066739 -0.042904 -0.061765
0.077835 0.067052 -0.026738
-0.041024 -0.066923 0.037160
0.071511 -0.063886 0.037633
0.055114 0.044937 -0.030812
0.076609 0.069087 0.027691
-0.015819 0.067528 -0.093493
-0.076383 -0.049076 -0.036821
-0.082899 -0.041067 0.093731
0.053890 0.039257 -0.033452
0.052474 0.059170 -0.036577
0.092163 0.014601 0.074682
-0.091072 -0.026412 0.036442
0.051827 -0.039922 0.032206
0.072162 -0.062099 -0.034510
0.072688 0.061443 -0.037324
0.020122 -0.060590 0.035270
-0.075839 -0.042653 -0.094255
-0.091186 0.026475 -0.036443
0.079884 -0.072110 -0.017187
0.069832 0.060206 0.034230
0.071870 -0.036038 0.071854
0.070138 -0.063770 -0.037063
0.056939 -0.048388 0.057548
0.090371 0.001146 -0.074311
0.065342 0.060279 0.033612
0.069305 -0.061148 0.036916
0.084503 -0.075262 -0.000198
0.075408 0.021908 -0.094617
0.046188 0.050083 0.091667
0.096884 -0.014727 -0.072520
0.056276 -0.045557 0.060352
-0.088184 -0.033307 0.036557
0.057469 0.047811 -0.091740
0.096884 -0.014727 -0.072520
0.085795 0.072906 -0.004410
0.060467 0.050220 0.053434
0.064650 -0.058372 -0.032539
0.073341 -0.063228 0.032694
0.034194 -0.054704 -0.042515
-0.035953 -0.067652 -0.095947
0.067768 0.061200 0.031833
0.091173 -0.001226 0.076678
-0.001337 0.068153 0.037140
0.070857 -0.064161 -0.035522
0.093116 -0.011565 -0.072756
0.073989 -0.030328 0.071051
0.084790 -0.012879 -0.075076
0.085890 -0.007012 -0.080610
-0.054378 0.064719 -0.091448
0.071870 0.036038 -0.071854
0.032015 -0.056907 -0.033993
0.063934 -0.040864 0.062786
0.083248 -0.001079 -0.084250
0.089775 -0.011334 0.075697
0.045416 -0.047748 0.094166
-0.002882 -0.063485 0.096392
0.054355 -0.051443 0.051808
0.072470 0.063571 0.038617
0.052266 0.061224 0.035077
0.085274 0.075162 0.006885
-0.053315 -0.057674 -0.034007
0.081738 0.021484 0.077008
0.072470 -0.063571 -0.038617
0.060280 -0.046094 -0.062383
0.068352 0.036920 0.066309
-0.009435 0.065258 0.096361
0.082695 -0.006981 -0.083772
-0.031448 0.068370 0.034193
0.068036 -0.058568 -0.033689
0.090390 0.000536 -0.074324
0.062706 0.060052 0.034048
0.078301 0.028073 -0.074044
0.029884 0.059714 0.037209
0.087797 0.006994 0.077964
0.066965 -0.060346 -0.031457
0.094476 0.000000 0.076308
-0.054825 -0.056567 0.033987
0.054161 -0.039899 0.033474
0.081793 0.011602 0.092307
-0.062523 -0.060228 -0.093413
0.075320 0.068395 0.026676
0.034194 -0.054704 0.042515
0.086016 -0.027298 -0.067740
0.090585 -0.007217 0.076286
0.031784 -0.059133 -0.035055
0.020122 0.060590 -0.035270
0.075972 0.038682 0.060910
-0.022422 -0.070851 -0.035097
0.084383 0.011500 0.083073
0.088305 0.013374 0.072874
0.064317 0.043201 -0.065542
0.080780 0.000000 0.097500
0.085643 0.003056 -0.084175
-0.036335 -0.069785 -0.035079
0.083248 0.001079 0.084250
0.010360 0.054953 0.033959
0.040708 -0.004517 -0.033079
0.096884 -0.073701 -0.006752
0.072162 -0.062099 0.034510
0.085779 0.000000 -0.092501
0.075755 -0.040017 0.063012
0.088242 0.002953 0.078292
0.055521 -0.050617 0.048911
0.083628 0.006642 -0.079609
0.052457 0.059336 -0.036704
0.062523 -0.045935 -0.058860
-0.001479 -0.067741 -0.035682
-0.094899 0.015679 -0.036262
0.086550 -0.002896 -0.076447
0.082501 0.000000 -0.097195
0.094438 -0.001343 -0.076282
0.087797 0.006994 -0.077964
0.056939 -0.048388 0.057548
-0.042963 -0.061677 -0.036577
0.094476 0.000000 0.076308
0.075259 0.066453 0.033956
0.052203 0.061821 -0.036182
0.063351 0.060124 -0.036552
-0.091892 -0.015043 0.096859
-0.009032 0.067102 0.095956
0.051331 0.041509 0.033327
0.078586 -0.037337 -0.064944
-0.014488 0.064065 0.034118
0.073615 -0.066396 0.032916
0.052008 -0.038775 -0.030681
-0.090303 0.029040 -0.092029
0.046961 -0.052460 0.053434
0.086131 -0.006618 0.076137
0.083137 -0.003041 0.084165
0.083412 -0.024620 -0.069310
-0.095200 -0.013505 -0.036226
0.048163 -0.050360 0.049641
0.071030 -0.061416 -0.036034
-0.036419 0.070266 -0.093246
-0.049959 0.066515 0.093308
0.065738 -0.061794 0.034443
0.046724 0.051774 -0.094096
0.057469 0.047811 -0.091740
0.069759 -0.063396 0.034771
0.045416 0.047748 0.094166
0.083150 0.074519 0.003974
0.022657 0.059353 -0.034692
0.072463 0.063577 -0.038607
0.057525 -0.047720 0.060357
0.081989 0.069978 0.019674
0.050130 -0.054115 -0.048136
0.070025 -0.060379 -0.034336
0.057525 -0.047720 -0.060357
0.075334 0.031010 0.093906
0.072737 0.030969 0.074369
0.050391 0.000000 0.032748
0.082915 0.071264 -0.012697
0.054988 0.045150 -0.035560
0.061226 0.048235 0.051929
-0.092588 -0.012990 0.092281
0.031721 -0.059726 -0.036173
0.085141 0.072759 0.004431
-0.073642 -0.051638 -0.093556
-0.045531 0.068212 0.036008
0.070050 -0.061172 -0.036131
-0.086253 0.017261 0.033301
0.054988 0.045150 -0.035560
0.096884 -0.059382 0.044168
-0.036490 -0.070631 -0.037182
0.086445 0.000539 -0.081043
0.071052 -0.033140 -0.091949
-0.090090 0.028962 -0.035343
-0.058128 0.054953 -0.033959
-0.031448 -0.068370 0.034193
0.096666 -0.028592 0.070948
0.023440 0.058328 0.034196
0.049351 0.040667 -0.033710
0.096666 -0.052062 0.056047
0.060467 -0.050220 0.053434
0.046961 -0.052460 0.053434
0.077541 0.066799 0.027288
0.085444 0.075292 0.005844
-0.096835 0.001685 0.092473
-0.008372 -0.070056 -0.091362
-0.050105 -0.066859 -0.037119
0.047676 0.052405 -0.051958
0.075667 -0.066855 -0.033237
-0.062610 0.060350 -0.035875
0.070318 0.060641 0.034521
0.088362 -0.000539 -0.078368
0.028273 0.059494 -0.038153
0.079874 0.025318 0.075394
-0.095043 -0.013460 0.036225
-0.035953 0.067652 0.095947
0.069131 0.063225 0.035250
0.033776 0.029302 -0.033511
0.078729 0.019233 0.096787
0.023803 0.060181 0.037526
0.091194 0.000585 -0.076691
0.084618 0.008381 0.094277
-0.061944 0.059334 0.095026
0.086674 -0.000475 0.076525
0.078729 0.019233 -0.096787
-0.074553 -0.047327 0.091703
0.054355 0.051443 0.051808
-0.031745 0.071078 0.036057
-0.085322 0.032644 -0.093192
0.048369 0.000000 -0.034762
-0.088614 0.028316 -0.033721
0.026166 -0.041080 0.036217
0.069118 0.060546 0.035754
-0.074586 0.047391 -0.036822
0.064959 -0.060410 -0.036585
0.068309 0.043558 0.060260
-0.050018 0.066652 -0.035982
0.078729 0.019233 -0.096787
0.031721 -0.059726 0.036173
0.077339 0.022850 0.093362
0.080042 0.028050 -0.071779
0.071511 -0.063886 -0.037633
0.065371 -0.042782 -0.063574
0.085643 -0.003056 -0.084175
-0.093636 -0.006432 0.093640
0.069350 0.042758 -0.060955
0.081158 -0.016667 0.077398
0.069957 0.044689 -0.059181
-0.066110 0.057928 -0.091559
0.073615 0.066396 0.032916
0.084539 -0.013542 -0.079450
0.085786 -0.072899 0.004505
0.081793 -0.011602 0.092307
0.045609 0.000000 -0.033000
