0.041903 0.055874 -0.170767
-0.065637 -0.014486 -0.047182
0.040243 0.064139 -0.014147
0.041212 -0.058263 0.021828
-0.051369 0.030817 -0.088081
0.069110 0.009636 0.118095
0.075394 0.005349 -0.025841
-0.062406 -0.019913 0.007749
0.066192 -0.025362 -0.014532
-0.002374 0.070685 -0.038458
-0.064840 -0.017328 -0.062369
-0.062271 0.020074 -0.027101
-0.063346 0.022312 -0.035441
-0.051619 0.026718 -0.088831
-0.062414 -0.024854 -0.006195
-0.068074 -0.015247 -0.027042
0.041453 0.061661 -0.153173
-0.029930 0.003912 0.099506
-0.066366 0.001898 -0.061265
0.041368 0.009336 0.070500
-0.052582 -0.037807 0.033970
-0.063574 -0.010852 0.006009
-0.065617 -0.013774 -0.057261
-0.004715 0.049532 0.061894
0.052655 -0.020097 0.152734
0.063214 0.035375 0.000232
-0.060612 -0.016327 -0.058408
-0.062126 -0.022123 -0.082176
0.034969 -0.064024 -0.163608
0.025156 -0.065744 -0.153211
-0.065605 0.014813 -0.017421
-0.062369 0.005151 0.017386
-0.063442 -0.001987 0.009812
-0.065287 0.016198 -0.057044
-0.076430 -0.014686 -0.028398
0.003881 0.065530 -0.164015
-0.063596 0.021217 -0.029369
0.005631 -0.066538 -0.163921
-0.031997 0.009169 0.126939
-0.063010 -0.006267 0.020061
0.061156 -0.019845 0.101975
-0.020815 -0.018870 0.146805
-0.063214 -0.001433 -0.087203
-0.060614 -0.032672 -0.018546
-0.077414 -0.014431 -0.033721
-0.032796 -0.023870 0.119622
-0.063529 -0.009231 0.007199
-0.061879 0.011200 -0.094559
-0.049837 0.028970 -0.170675
-0.066374 -0.014513 -0.058038
-0.073006 -0.017525 -0.039132
0.001578 -0.030601 0.073672
-0.022245 -0.060570 0.044494
0.019981 -0.007358 0.166923
0.027515 0.003883 0.167128
0.042088 -0.064235 -0.060974
-0.055681 -0.025482 0.044100
-0.066376 0.007430 -0.015552
-0.054612 0.024677 -0.078060
0.074075 0.017293 -0.163841
-0.064284 0.019195 -0.048559
0.023955 -0.062827 0.035754
-0.065962 -0.012990 -0.018295
0.015030 0.054615 0.044248
-0.067240 0.015010 -0.007381
-0.061351 -0.028555 -0.004283
-0.066495 0.001162 -0.059823
-0.061718 -0.021117 -0.029124
-0.065095 -0.016636 -0.016594
-0.075867 0.006554 -0.053200
-0.062369 -0.024983 -0.040167
-0.076863 -0.003401 -0.020843
-0.067274 0.009322 0.004287
-0.063841 0.014321 0.002188
-0.054382 -0.017571 -0.170655
-0.016475 -0.027637 0.051315
-0.063547 -0.021720 -0.007913
-0.066780 0.015712 -0.066786
0.007631 0.055466 0.048591
-0.026524 0.066382 -0.064045
-0.063365 -0.014857 0.006554
0.045430 0.058390 -0.163376
-0.061439 0.021918 -0.042080
-0.016079 0.051532 0.049507
-0.066123 -0.010642 -0.058672
0.050645 0.040700 0.017702
-0.076086 -0.004653 -0.022706
-0.065696 0.012920 -0.057667
-0.077369 -0.014809 -0.035380
-0.064144 -0.019184 -0.025263
-0.035153 -0.024179 0.047072
-0.061612 0.001609 -0.087151
-0.065238 0.016141 -0.017048
-0.066807 -0.004135 -0.019712
-0.048770 -0.036878 -0.163921
-0.066027 -0.014583 -0.000350
0.027424 -0.009414 0.168234
-0.075867 0.014444 -0.046798
-0.067186 -0.015087 -0.014803
-0.064645 -0.017483 -0.038517
0.007631 -0.071660 -0.067505
-0.031997 0.009169 0.126939
-0.016249 -0.028628 0.051180
0.075406 -0.000215 -0.030233
0.078012 -0.010304 -0.089222
0.060456 0.005375 0.142006
-0.066254 -0.010058 -0.016551
-0.066174 0.010286 -0.057303
0.063214 -0.035340 0.000232
-0.063475 -0.021962 -0.066185
0.037790 -0.018870 0.075623
-0.053546 0.031342 0.044089
-0.004027 0.010931 0.166364
-0.064987 0.017375 -0.015231
-0.061594 0.028764 -0.065983
0.020920 0.047071 0.056841
-0.060795 0.011217 0.034266
0.015395 0.054361 0.044353
-0.066291 -0.010828 -0.055486
-0.079049 -0.005762 -0.035403
-0.035636 -0.026631 0.049097
0.039416 0.007680 0.064171
-0.060612 0.016459 -0.015235
0.007631 0.011950 0.045637
-0.062022 0.020272 -0.046835
-0.064984 0.017056 -0.015900
-0.013494 -0.046365 0.063406
-0.066374 -0.014513 -0.016128
-0.058768 -0.026502 0.039671
-0.066373 -0.004399 -0.060810
-0.020444 -0.060790 -0.161303
-0.058084 -0.032022 -0.069547
-0.076086 -0.012958 -0.029329
-0.040418 0.046343 -0.170716
0.042529 0.010082 0.163898
-0.078432 0.001583 -0.035833
-0.016042 0.009969 0.159283
0.005631 0.011441 0.060382
-0.063406 0.022309 -0.037571
-0.063645 0.021700 -0.044313
-0.060378 0.032759 -0.009292
-0.065421 0.000018 -0.011897
0.067386 0.032358 -0.137969
0.053113 0.010663 0.080127
-0.062369 -0.019443 -0.085138
-0.060623 0.032705 -0.018885
0.007631 -0.066233 -0.167420
-0.057797 0.032865 -0.063272
-0.007399 -0.072492 -0.089104
-0.030298 -0.019845 0.112208
-0.079049 0.000288 -0.043117
-0.063573 0.014820 -0.056937
-0.064004 0.014960 0.022982
-0.062248 -0.016668 0.013842
0.051361 0.052909 0.010182
-0.067014 -0.005751 -0.062490
-0.062369 -0.019443 -0.085138
-0.061885 -0.029339 -0.080979
-0.025976 0.010501 0.138526
0.037328 -0.066782 -0.062143
-0.032742 -0.030302 0.114380
-0.066563 -0.001718 -0.059072
0.029613 0.009791 0.030957
-0.005427 -0.053977 0.049505
-0.076863 -0.010438 -0.049967
-0.064578 -0.017314 -0.007493
-0.054869 0.022203 -0.086759
-0.065288 -0.018938 -0.095160
-0.059569 -0.007108 -0.161132
0.061073 -0.047489 -0.064342
-0.030419 -0.030322 0.103394
-0.063629 -0.021651 -0.042307
0.057281 -0.039470 -0.161200
-0.061366 0.020259 0.011668
-0.062484 0.006733 -0.063346
0.003651 0.010299 0.168718
-0.065411 -0.013410 -0.076053
-0.061612 -0.023315 -0.075683
-0.060273 0.026511 0.034377
-0.062369 0.025017 -0.026289
-0.061469 -0.025180 -0.078523
-0.019596 0.058907 -0.162449
-0.063013 -0.008483 -0.081804
-0.035349 0.012251 0.048878
-0.068074 -0.005222 -0.019579
0.029340 -0.026999 0.073040
0.049516 -0.041876 0.018653
-0.065522 0.014603 -0.019812
-0.035349 -0.026966 0.048878
-0.065720 0.015278 -0.016474
-0.017958 0.051299 0.048860
-0.066467 0.006750 -0.016091
-0.063162 0.011062 -0.092467
-0.065421 -0.003613 0.008525
-0.062337 -0.024011 -0.078653
0.054828 -0.050878 -0.163375
-0.063758 -0.021344 -0.045215
-0.066179 0.010923 -0.057067
-0.062494 0.004378 0.020222
-0.073006 0.008848 -0.021785
-0.008141 0.003894 0.161559
-0.065938 0.013875 -0.058213
-0.062396 -0.010203 -0.089729
-0.021096 -0.018870 0.146324
-0.063312 -0.001620 -0.062157
0.021494 0.053416 0.040232
-0.043225 -0.055593 -0.013914
-0.079044 -0.005775 -0.038402
-0.002374 0.070685 -0.038458
-0.078131 0.001704 -0.025359
-0.067367 -0.010616 -0.062104
-0.061194 0.002630 0.022554
0.008695 0.055796 0.047868
-0.022360 0.063918 -0.163605
-0.062406 -0.019064 0.008815
0.016631 0.012517 0.168917
-0.066027 0.012483 -0.018032
0.063760 -0.020088 0.101042
-0.062369 0.026564 -0.067081
-0.063013 -0.004382 -0.083502
-0.076430 0.016616 -0.041092
-0.061648 0.028764 -0.028529
-0.064184 -0.020005 -0.027335
0.074504 -0.007619 -0.029669
-0.029102 0.015118 0.107080
-0.066001 -0.015190 -0.016351
-0.062856 -0.017583 -0.051117
-0.063295 0.022589 -0.034337
-0.030201 -0.018870 0.124251
-0.064499 0.017144 -0.067097
-0.060686 0.025258 0.003972
0.070305 0.006491 -0.014439
-0.031278 0.015099 0.129426
-0.064719 -0.004857 -0.015281
0.073686 0.006578 -0.045624
-0.061438 -0.022101 -0.033273
-0.060612 -0.009647 0.005920
-0.062126 -0.002776 -0.093684
0.018955 -0.069464 0.027229
-0.067274 0.014104 -0.002452
-0.033308 0.005370 0.119576
0.057806 0.047925 -0.163374
-0.016149 0.059327 -0.170822
-0.066472 -0.003518 -0.059576
-0.067369 -0.000357 0.001105
-0.062682 0.013191 0.017480
-0.076430 0.009972 -0.050955
-0.062675 -0.017426 0.015349
-0.032248 -0.016778 0.098570
-0.041106 -0.021519 0.045745
-0.063013 0.012038 -0.079102
0.053610 0.009896 0.155431
-0.066290 -0.006978 -0.013768
-0.034013 0.011484 0.109540
-0.064739 -0.017564 -0.036631
-0.035207 0.009647 0.109339
-0.042957 0.053839 -0.114425
0.059328 -0.026487 0.145146
-0.073006 0.013547 -0.048434
-0.065142 -0.016714 -0.016650
-0.005354 -0.054513 0.048945
-0.016255 -0.049494 0.051170
-0.029289 -0.017360 0.058237
0.018211 -0.067593 -0.149863
0.057096 0.015164 0.094885
-0.063013 0.016438 -0.071481
0.043390 -0.060906 -0.147287
-0.066501 -0.001778 -0.059858
-0.031909 -0.015901 0.058234
-0.053466 -0.038578 0.010971
0.003881 0.009795 0.061191
-0.068416 0.007342 -0.054063
-0.063676 0.002043 -0.084156
0.061556 0.003910 0.140059
0.050176 0.055196 0.006383
0.064807 0.009504 0.120095
0.037498 -0.063832 -0.149890
-0.061369 -0.018423 0.009877
-0.065029 -0.017264 -0.032503
0.063760 0.003912 0.101042
-0.063471 0.005939 -0.083029
-0.032652 0.009157 0.113776
-0.067134 -0.012619 -0.014079
-0.065421 -0.015382 -0.001993
-0.078135 0.008423 -0.028766
0.036537 -0.064109 -0.153823
-0.064785 0.016977 -0.058370
-0.066222 0.010554 -0.016784
-0.065498 -0.014199 -0.019536
-0.063241 0.003728 0.012618
0.023842 -0.052629 0.038082
-0.062126 0.024160 0.004545
-0.066250 -0.010108 -0.057585
-0.056488 -0.017604 -0.055745
0.040661 0.002431 0.065085
-0.066730 0.004807 -0.020051
0.070687 -0.016369 -0.010646
-0.075231 -0.014617 -0.046706
-0.058278 -0.014882 0.039932
-0.078131 0.001704 -0.025359
0.039109 -0.023438 0.063954
-0.077119 0.010817 -0.048886
0.005631 0.073909 -0.063808
-0.058842 0.024644 -0.163774
-0.062369 -0.024983 -0.037082
-0.066355 -0.009133 -0.022041
0.061815 0.009758 0.090986
-0.058817 0.028981 -0.073874
-0.066274 -0.007411 -0.013911
-0.007251 0.071842 -0.114290
0.066311 0.036302 -0.163775
-0.051369 0.029317 -0.088832
-0.066510 -0.010162 -0.051753
-0.032224 -0.026169 0.051006
-0.063970 -0.013581 -0.054863
-0.076086 -0.014134 -0.031770
-0.067369 0.000017 0.006935
-0.064426 0.019260 -0.024948
0.011402 0.047776 0.058147
0.069793 0.006302 -0.170646
-0.064044 0.015337 0.000943
-0.014617 0.048082 0.057881
0.034510 0.067241 -0.113708
-0.065829 0.008312 -0.013246
-0.066355 0.006341 -0.012436
-0.065776 0.013970 -0.056914
-0.066017 -0.013319 -0.075991
0.022976 0.014375 0.039497
-0.062369 -0.024983 -0.045841
-0.057264 0.026941 -0.056957
-0.068416 0.005321 -0.054798
0.073897 -0.001503 -0.020026
-0.065461 0.015628 -0.016397
0.063823 0.032076 -0.014552
0.053546 -0.024613 0.155132
-0.061612 0.024829 -0.005423
0.038888 -0.027525 0.027800
-0.062767 0.017922 -0.023328
-0.062369 0.021951 -0.082036
0.009131 -0.018870 0.164613
-0.065604 0.014655 -0.019772
0.007631 0.055731 0.048503
-0.041931 -0.031677 0.045731
-0.066681 0.007928 -0.021081
-0.061612 -0.017233 0.003299
0.022597 -0.052302 0.040012
-0.070799 0.003140 -0.019369
-0.065340 0.016106 -0.052267
-0.035106 0.009457 0.047102
-0.060612 -0.013284 0.002283
0.064807 -0.024219 0.115743
-0.008347 -0.066008 -0.161356
-0.061168 0.023458 0.034431
-0.051877 -0.030629 -0.170666
-0.063464 0.005365 0.009068
-0.067267 0.013972 -0.072078
-0.057879 -0.032880 -0.038638
-0.064027 0.016103 -0.001430
-0.058156 -0.030807 -0.088080
-0.065851 0.013117 -0.025307
0.074769 -0.008321 -0.030310
0.007631 0.069432 -0.138023
-0.028114 0.009236 0.058262
0.058316 0.027776 0.010642
-0.066355 0.002145 -0.011727
-0.067369 0.004462 -0.003293
0.016631 -0.024733 0.168418
-0.062395 0.003846 0.017469
-0.066530 0.000846 -0.014917
0.073227 -0.001013 -0.034137
-0.066401 0.006997 -0.015323
-0.066355 -0.006306 -0.012436
0.009787 0.067702 0.040792
-0.063769 0.009420 -0.081607
-0.066027 -0.010086 0.005288
-0.064863 -0.014095 -0.069273
-0.062248 -0.001983 -0.093768
-0.062061 -0.020192 -0.046950
0.070274 0.026220 -0.137960
-0.079044 -0.005632 -0.035245
-0.075231 -0.012530 -0.024900
-0.060877 -0.030066 0.005563
-0.036466 0.039512 0.048327
-0.077375 -0.002582 -0.051825
-0.007108 -0.064546 -0.170861
-0.062369 -0.019443 -0.085138
-0.062248 -0.026445 -0.003093
-0.002303 -0.069884 -0.013591
-0.047663 0.015836 0.045631
0.075277 -0.001515 -0.032429
-0.065060 0.016066 -0.057170
-0.061300 0.026170 -0.076117
-0.020535 0.011869 0.050604
0.042073 0.064311 -0.068869
-0.063086 0.000036 0.020795
-0.077293 -0.014581 -0.040476
-0.063239 -0.012876 -0.091626
0.041409 -0.002795 0.030126
-0.062443 -0.006202 0.019857
-0.014980 -0.050302 0.053059
0.012918 -0.056892 0.045237
-0.002374 -0.070650 -0.038458
-0.065948 -0.009742 -0.059367
0.051945 -0.038992 0.016565
-0.039595 0.044278 -0.163521
0.007631 0.069923 0.036347
-0.011052 -0.045771 0.064687
0.040804 -0.005829 0.162002
-0.066599 0.009094 -0.052365
0.035225 -0.052525 0.029934
-0.064867 -0.011688 -0.061604
-0.064858 -0.017527 -0.051415
0.039223 -0.061828 -0.014670
-0.066544 0.003467 -0.058859
-0.063452 -0.003981 0.009454
0.074190 -0.016499 -0.031008
-0.057245 -0.026907 -0.017254
-0.063761 -0.010907 0.006082
-0.039059 0.048434 -0.161222
-0.062873 -0.026943 -0.087204
-0.062337 -0.016611 -0.087933
-0.066797 0.015724 -0.014861
-0.066543 -0.003397 -0.062423
-0.062404 0.016462 -0.085707
-0.063568 -0.015316 -0.020759
-0.060828 -0.032615 -0.065332
-0.062484 0.006733 -0.063346
-0.063886 -0.020971 -0.044293
-0.066126 0.011724 -0.023913
-0.064879 0.017806 -0.018174
-0.060535 0.012834 0.034245
-0.073006 0.005083 -0.020161
-0.001513 -0.047720 0.060728
-0.062369 0.005925 -0.092963
0.073090 0.000017 -0.013675
-0.067079 0.014328 -0.058974
-0.065421 -0.011862 -0.059292
-0.066208 0.011213 -0.056085
-0.063233 -0.006610 -0.086137
-0.056616 0.032580 0.010920
-0.066830 0.000662 -0.054846
-0.076863 0.009692 -0.050564
0.024643 -0.051560 0.037530
0.001146 -0.066320 -0.161397
-0.065421 -0.005020 0.008120
-0.005795 0.015322 0.073839
-0.066027 -0.010086 0.005288
0.007631 0.054932 0.049191
-0.062424 -0.023812 -0.082804
0.041905 0.010254 0.071209
-0.063328 -0.015845 -0.055763
-0.063715 0.008388 0.034660
0.024944 -0.027088 0.040003
0.005631 0.066578 0.042215
-0.016857 -0.052250 0.048655
-0.070799 -0.016883 -0.030930
0.003881 -0.073059 -0.080103
0.047237 -0.026698 0.156823
-0.018980 0.065362 -0.163373
-0.032489 0.009160 0.108334
-0.064715 -0.005023 -0.058844
-0.063723 0.012156 -0.079042
-0.025435 -0.055459 -0.163590
-0.039733 -0.028237 0.048269
-0.059583 0.007015 -0.161132
-0.077375 0.005138 -0.051150
-0.066570 0.014357 -0.000476
0.044985 -0.061080 -0.014410
-0.063523 -0.008979 -0.081522
-0.046757 -0.034230 -0.170688
0.021784 0.045810 0.055079
-0.066570 -0.015499 -0.003840
-0.035396 0.010719 0.049702
-0.066543 0.003635 -0.015314
-0.062383 0.019454 -0.048259
-0.066481 0.002870 -0.014490
0.055603 0.049413 0.002335
-0.065040 0.016519 -0.114512
-0.034984 0.056397 -0.163608
-0.078662 -0.001385 -0.033344
-0.062369 0.021706 0.005353
0.007631 0.072798 -0.123860
-0.062126 -0.025589 -0.074980
-0.077375 -0.004600 -0.051285
-0.064456 -0.006971 -0.015742
-0.066543 0.003635 -0.015314
0.014622 -0.065485 -0.170886
0.003881 -0.071987 -0.014618
-0.062126 -0.005945 0.019044
0.003881 0.055208 0.048030
-0.066027 0.011476 0.004077
-0.060378 0.014501 -0.057524
0.069110 0.009636 0.118095
-0.063887 0.020088 -0.068134
0.007631 0.069997 -0.163685
0.046030 -0.057629 0.014173
-0.064505 0.003370 -0.014776
-0.065451 0.016126 -0.058224
-0.059896 0.026873 -0.015685
0.009523 0.012387 0.071459
0.033404 -0.065811 -0.061504
0.005631 0.055240 0.049293
-0.066355 0.008380 -0.013051
-0.077119 -0.010064 -0.049506
0.064258 0.009186 0.103369
0.034412 0.057941 -0.161300
0.023499 0.067807 -0.163776
-0.033059 -0.024398 0.134036
-0.056869 -0.027884 -0.077293
0.044565 -0.062656 -0.064562
0.005631 -0.068563 0.040559
-0.064716 0.018297 -0.050628
-0.030253 0.062195 0.034296
0.017451 0.010003 0.167411
-0.065013 -0.016575 -0.016561
-0.076863 -0.005297 -0.021361
0.055988 -0.047479 0.006499
-0.075231 -0.007504 -0.021291
0.019131 -0.006908 0.168387
-0.057358 -0.016594 -0.058321
-0.062369 -0.026530 -0.067081
0.033580 0.064931 -0.113363
-0.079049 0.002392 -0.042637
-0.064859 -0.010960 -0.075996
-0.064859 -0.017056 -0.058929
-0.048715 0.043770 0.033951
-0.065623 0.014048 -0.057103
-0.048516 0.036214 -0.170681
-0.062369 -0.019074 0.009071
-0.064319 0.002065 -0.094986
-0.079049 -0.000794 -0.031094
-0.061514 0.028786 -0.018632
0.048530 0.060035 -0.063848
-0.076863 0.008029 -0.022549
-0.027944 -0.023955 0.140764
-0.058370 0.015347 -0.056830
-0.065450 -0.016108 -0.015914
-0.062541 -0.027346 -0.084268
0.062804 -0.025152 0.128312
-0.075231 -0.016442 -0.043072
-0.031997 0.009169 0.126939
0.037011 -0.023444 0.069589
-0.050365 0.044635 -0.063266
-0.066227 0.010690 -0.017624
-0.062369 -0.024983 -0.037082
-0.062560 0.019206 -0.048627
-0.062623 0.017921 -0.095081
-0.002014 -0.068866 -0.137792
0.005631 0.068586 0.040555
-0.075231 -0.016442 -0.043072
-0.064162 0.016718 -0.070531
0.023187 0.014373 0.039249
-0.032786 -0.018629 0.125813
-0.065764 -0.014011 -0.056875
0.003881 -0.071336 -0.091317
0.073765 -0.005978 -0.020823
-0.064783 0.017826 -0.023079
-0.066001 -0.015190 -0.057816
-0.062369 -0.016534 -0.087836
-0.064761 -0.017214 -0.064166
-0.064741 0.003629 -0.015047
-0.059204 -0.027371 -0.078460
-0.059641 -0.009304 -0.059739
0.017435 0.011253 0.070591
-0.067369 -0.010106 0.002742
-0.065568 0.013861 -0.057237
-0.066020 -0.009783 -0.057432
0.045037 -0.019017 0.073471
0.067647 -0.025131 0.105951
0.007631 -0.074160 -0.064674
0.054250 -0.048874 -0.014594
-0.063675 0.013295 0.003562
-0.007399 -0.072492 -0.089104
-0.079044 0.005976 -0.037081
0.076068 0.007110 -0.044639
0.074705 0.000936 -0.022593
0.013859 0.072643 -0.014316
0.049739 -0.052230 -0.161233
-0.078432 -0.000686 -0.035207
-0.060981 -0.032580 -0.051116
0.051585 -0.054266 -0.088620
0.040950 -0.003669 0.164768
-0.066247 0.008195 -0.014159
0.024155 -0.051990 0.037888
-0.079044 -0.004941 -0.040353
0.073043 -0.014039 -0.024507
0.047219 -0.048858 -0.170744
-0.065639 -0.014393 -0.020079
0.035843 -0.057040 0.028572
-0.060664 -0.027536 -0.067081
-0.042079 -0.031777 0.048229
-0.015956 -0.027644 0.052784
-0.062369 -0.023513 0.001363
0.016631 -0.025233 0.170917
0.049886 0.015227 0.085269
-0.065853 0.013105 -0.016585
-0.062532 0.023600 0.016005
0.012935 0.056987 0.045267
-0.062248 -0.022094 -0.082156
0.057885 0.043808 -0.014579
-0.064282 0.009801 -0.016766
0.036632 -0.061441 -0.150905
-0.011629 0.013949 0.064657
-0.017052 0.015223 0.154192
-0.062369 -0.024927 -0.068748
-0.066380 -0.008808 -0.052315
-0.027891 0.009240 0.139462
0.035671 0.003890 0.164441
-0.007952 0.009588 0.161246
-0.032744 0.005435 0.053293
0.079010 0.000017 -0.088430
-0.002242 0.069463 -0.163772
-0.060722 -0.011391 -0.059387
-0.063357 0.013623 0.007648
-0.024872 0.057969 -0.170784
-0.036288 -0.020720 0.049641
-0.067369 0.003103 -0.005157
-0.060612 0.015368 -0.016633
0.074925 -0.012715 -0.088467
-0.037665 -0.025095 0.046107
-0.041998 0.041761 -0.163509
-0.063392 -0.015671 -0.079750
-0.023880 0.061253 -0.151706
-0.058151 0.032174 -0.055888
-0.063013 0.012038 -0.079102
-0.031279 0.011681 0.129426
-0.060901 0.032638 -0.037591
0.033182 -0.064785 -0.163608
-0.070799 -0.012325 -0.050163
-0.057156 0.026944 -0.060035
-0.064261 -0.016817 -0.071162
0.061156 -0.019845 0.101975
-0.059917 -0.024280 -0.084132
-0.064868 -0.017488 -0.034732
-0.077375 0.014872 -0.038418
-0.063323 -0.013163 0.008178
-0.075867 0.017289 -0.035024
-0.009422 -0.025555 0.163635
0.007631 0.052454 0.048493
-0.066464 -0.006928 -0.016133
-0.023585 0.003907 0.147844
-0.052535 -0.030505 -0.161163
-0.068074 0.016344 -0.045281
-0.029750 0.011475 0.095128
-0.028850 0.011723 0.095369
-0.061815 -0.029806 -0.081193
-0.075867 0.008415 -0.021849
-0.045763 -0.049725 -0.013808
0.035450 -0.061246 0.026011
-0.066327 0.009794 -0.017288
0.007631 -0.063832 -0.166170
-0.063329 -0.022324 -0.036290
-0.062395 0.008722 -0.090339
-0.065755 0.016913 -0.096387
-0.057950 0.026924 -0.017601
-0.062991 -0.023345 -0.007103
0.030810 -0.026985 0.070493
-0.067297 0.003579 -0.063512
-0.065162 -0.015959 -0.021485
-0.066561 0.001751 -0.015111
-0.064527 0.009688 0.025094
-0.067369 -0.000357 -0.000983
0.072024 0.010165 -0.011862
-0.066027 -0.013704 0.001240
-0.065553 -0.014776 -0.056818
-0.066405 0.001889 -0.061151
-0.062369 -0.024983 -0.038913
-0.066201 0.009870 -0.017108
-0.062843 -0.005126 -0.063700
0.064260 -0.026401 0.105700
0.026138 0.064808 -0.161336
-0.061995 0.008328 -0.060754
0.055603 0.049413 0.002335
-0.033540 0.011442 0.050133
-0.068221 -0.003181 -0.055220
-0.016430 -0.030444 0.081502
-0.064904 -0.017609 -0.051471
-0.062126 -0.016690 -0.088032
-0.066775 -0.005640 -0.020124
-0.028501 -0.025870 0.143794
-0.002242 0.069463 -0.163772
-0.033245 0.009147 0.121956
-0.066193 -0.012259 -0.024088
-0.028525 -0.046105 0.048465
0.065406 -0.025240 -0.007841
0.037397 -0.026701 0.032160
0.037397 0.011986 0.032160
-0.064866 -0.005138 -0.063761
0.009787 -0.067668 0.040792
0.007631 0.069432 -0.138023
-0.032152 0.005371 0.106875
0.005631 -0.073102 -0.053894
-0.066679 -0.003096 -0.054437
0.058437 0.010516 0.095732
-0.076086 0.010463 -0.026156
-0.061016 0.031947 -0.076875
0.057885 0.043808 -0.014579
-0.031997 0.009169 0.126939
-0.063807 -0.012166 0.004927
-0.067369 0.006774 -0.010750
-0.066458 0.010716 -0.051402
-0.062126 -0.009773 -0.092026
-0.056869 0.024135 -0.079989
-0.062369 -0.024716 -0.003443
0.045918 -0.061068 -0.114557
-0.062126 -0.001985 0.019641
-0.060827 0.032628 -0.065952
-0.064501 0.003574 -0.059368
-0.062994 0.004416 -0.012348
-0.063650 0.019173 -0.001196
-0.062126 -0.024126 0.004545
-0.066777 0.005473 -0.020083
0.021784 -0.045775 0.055079
-0.060582 0.000017 0.010287
0.050355 0.009429 0.081175
-0.068074 -0.017151 -0.043330
-0.062397 0.000486 0.017761
0.039301 -0.026072 0.068333
-0.025040 -0.024005 0.144568
0.039951 -0.064592 -0.114578
-0.066562 0.014898 -0.072429
-0.059151 -0.012967 -0.016344
0.022518 0.052265 0.040257
-0.065408 0.001984 -0.082981
-0.079049 0.005842 -0.035474
0.039559 -0.007358 0.071059
0.037928 -0.027849 0.028253
-0.077119 -0.015737 -0.034303
-0.062126 -0.026779 -0.007081
0.022732 -0.051372 0.040115
-0.063568 -0.021263 -0.029597
-0.065318 -0.016155 -0.053245
-0.030433 -0.025535 0.094942
0.011302 -0.005836 0.168041
-0.062697 -0.005842 -0.063556
-0.056869 0.012163 0.017430
-0.065408 0.004021 -0.082595
-0.062413 -0.023286 -0.075672
-0.066413 -0.010434 -0.051349
-0.012190 -0.018870 0.155416
-0.061177 0.027892 -0.005014
-0.063296 -0.022169 -0.034173
0.003881 -0.026109 0.061191
-0.078724 -0.001670 -0.045483
-0.005427 -0.053977 0.049505
0.076193 -0.010031 -0.045349
0.003881 0.073098 -0.064468
-0.054869 0.004749 0.019755
-0.012681 -0.028665 0.064327
-0.064077 0.020169 -0.027453
-0.078662 0.002644 -0.034075
-0.066268 -0.010097 -0.017330
0.007631 -0.053200 0.053841
0.024131 -0.018596 0.167787
-0.061612 -0.008699 -0.090371
-0.066569 0.000018 -0.059133
-0.076430 -0.014686 -0.028398
0.000623 0.065171 0.044981
-0.062413 -0.023283 0.001509
0.022302 0.051710 0.041687
-0.058575 0.013413 -0.163921
0.020972 -0.052942 0.042079
-0.076863 -0.003401 -0.020843
-0.076086 0.005958 -0.050980
-0.063679 0.007540 -0.082441
-0.060727 0.033011 -0.065331
-0.000288 -0.066177 -0.163921
-0.035636 0.011916 0.049097
-0.076430 -0.014686 -0.028398
-0.063656 -0.019221 -0.001372
-0.065461 -0.015594 -0.016396
-0.063863 0.012679 -0.092240
-0.023949 0.009309 0.147343
0.009131 -0.020120 0.167787
-0.067302 -0.014655 -0.059547
-0.077414 -0.002928 -0.051620
0.056267 0.010555 0.143784
-0.062402 0.015170 -0.086773
0.028911 -0.054860 0.034531
0.036573 0.012169 0.063485
-0.077293 -0.002959 -0.051771
-0.065829 -0.006255 -0.012635
-0.061369 0.018458 0.009877
0.066106 -0.030719 -0.006417
-0.063656 -0.005934 0.008952
0.005631 -0.064106 0.044835
-0.066993 0.015379 -0.068651
0.068398 -0.025656 -0.039141
-0.015698 -0.028634 0.052736
0.055988 -0.047479 0.006499
0.054053 0.049154 -0.014595
0.005631 -0.064979 -0.170270
-0.066509 0.000019 -0.014226
-0.059321 -0.019429 0.034159
-0.039693 -0.049449 -0.161219
-0.066802 -0.006392 -0.012102
-0.067361 -0.013368 -0.071863
0.065913 -0.018629 0.126120
0.024464 0.012381 0.041480
-0.077293 -0.014581 -0.033686
-0.062337 0.025502 0.000780
-0.065750 0.014373 -0.019282
-0.059907 0.019875 0.026790
-0.066057 -0.012550 -0.055226
-0.073006 -0.017169 -0.041154
-0.058311 -0.031324 -0.074451
-0.028868 -0.025225 0.144009
0.039811 0.061909 -0.113343
-0.058675 0.029877 -0.085903
-0.061612 0.013178 0.008154
-0.029421 -0.025155 0.107004
-0.077375 -0.007468 -0.050047
0.036573 0.012169 0.063485
-0.013736 -0.070288 -0.013587
-0.066014 0.007548 -0.081134
-0.065568 -0.013826 -0.057237
-0.062403 -0.015705 0.012140
-0.066374 -0.014513 -0.016128
0.002312 0.067507 0.034971
-0.066561 0.001751 -0.015111
-0.014526 0.051045 0.052036
-0.065927 -0.016165 -0.058661
0.017012 0.065764 0.038541
-0.068625 0.014176 -0.048962
-0.064611 0.005842 0.024743
-0.061188 0.000017 -0.161125
-0.059151 -0.012967 -0.057818
-0.062369 -0.021453 -0.079856
-0.042870 0.048920 -0.163840
0.005631 0.055208 0.048061
-0.012103 0.005387 0.159123
-0.064251 -0.019216 -0.025263
-0.075867 -0.009268 -0.022373
-0.060623 0.032705 -0.018885
0.042472 0.009566 0.075726
-0.057468 0.039017 -0.064273
-0.064178 -0.016410 -0.001596
-0.068625 0.017385 -0.043403
-0.022838 -0.063465 -0.163772
-0.061430 0.021943 -0.031670
-0.039059 -0.048399 -0.161222
-0.063986 0.020400 -0.027226
0.026311 -0.067192 -0.163609
0.033080 0.064949 -0.014708
-0.016033 0.067370 0.034654
-0.062369 0.024014 -0.074097
-0.010273 0.047264 0.064289
-0.073006 0.014774 -0.046787
0.062362 -0.018627 0.138300
0.023560 0.068052 -0.163378
-0.066327 0.009790 -0.017286
0.014953 0.054925 0.044071
0.048615 0.051035 -0.170738
-0.063728 0.007580 -0.082525
0.041409 -0.002795 0.030126
-0.005023 0.051415 0.049282
0.045715 -0.005806 0.161919
0.058812 -0.044985 -0.000199
-0.060664 -0.027536 -0.067081
-0.077293 0.014786 -0.034525
-0.063229 -0.022809 -0.037081
-0.032569 -0.012142 0.099410
-0.059194 -0.033500 0.010968
-0.067369 0.010140 0.002742
-0.051369 -0.025558 -0.086681
-0.063489 0.007233 0.008325
-0.064879 -0.017801 -0.038537
-0.064910 -0.016544 -0.016558
-0.052499 -0.020919 0.044063
-0.062369 -0.024983 -0.037112
-0.063210 0.016441 -0.021742
-0.065652 0.014722 -0.019707
-0.068000 -0.009019 -0.021429
-0.057364 0.016634 -0.058326
-0.051619 -0.029483 -0.088081
0.063904 0.003912 0.134399
-0.051615 0.015753 -0.055614
-0.065019 0.016193 -0.052821
0.055792 0.044604 0.010220
-0.058825 0.010964 0.039958
0.075231 -0.006758 -0.036012
-0.064549 0.018867 -0.048912
-0.077375 0.014761 -0.039681
-0.063475 -0.021962 -0.066185
-0.065577 0.013860 -0.057237
-0.077375 -0.007063 -0.023927
-0.063311 0.001655 -0.064161
-0.033820 -0.026640 0.049386
-0.075867 0.013193 -0.025726
-0.063639 -0.021060 -0.045123
0.005631 -0.066768 -0.162904
-0.066310 0.005135 -0.015044
0.063910 0.010417 0.120054
-0.027893 -0.046306 0.045976
-0.058247 -0.032166 -0.048619
0.003881 -0.069609 0.004032
-0.077293 0.012143 -0.045891
0.065027 0.026607 -0.007477
0.017435 0.011253 0.165247
-0.066203 0.008343 -0.016048
-0.066780 -0.015678 -0.066786
-0.035902 -0.024350 0.117252
-0.032012 0.009168 0.106926
-0.007021 -0.070619 -0.139449
0.062909 0.031894 -0.005547
-0.054869 0.013642 -0.090680
0.039491 -0.026834 0.071483
-0.062369 -0.024335 -0.072600
0.038137 0.011476 0.031525
0.064880 0.009175 0.107054
0.044625 -0.018612 0.159638
-0.058354 -0.005854 -0.084851
-0.011052 0.044476 0.064687
-0.062460 -0.024747 -0.067651
0.036661 -0.022895 0.066940
-0.064539 0.003556 -0.059254
-0.066440 -0.001338 -0.014859
0.042913 0.009559 0.160755
-0.013742 -0.027236 0.049434
0.038405 -0.010274 0.163241
-0.054612 0.018080 0.012979
-0.066292 0.007374 -0.060024
-0.062988 -0.023354 -0.067055
0.073374 -0.001740 -0.036119
0.059288 -0.020091 0.144204
0.033419 -0.020112 0.165381
-0.063538 -0.021968 -0.040229
0.074578 -0.008915 -0.031375
-0.068625 -0.015425 -0.047238
-0.058354 -0.002955 -0.085547
-0.066557 0.007414 -0.080878
-0.058358 0.009338 -0.077889
-0.062142 -0.020141 -0.046911
0.073120 -0.021392 -0.163775
-0.062451 0.024781 -0.005964
0.037071 0.066940 -0.062279
0.076731 -0.002108 -0.163383
-0.075867 0.015492 -0.029139
-0.066010 -0.015506 -0.016228
-0.063915 0.013518 0.003752
-0.062248 0.026779 -0.067081
-0.034805 0.009653 0.108015
-0.077369 -0.006182 -0.023506
-0.061619 -0.021854 -0.032267
0.003881 -0.066740 -0.162873
0.064997 -0.023888 0.105033
-0.026621 -0.030355 0.141660
-0.067274 0.004946 0.006705
-0.066212 -0.014258 -0.016108
0.019303 -0.068940 -0.163380
-0.012494 0.047503 0.062931
-0.061634 -0.028724 -0.056010
-0.062401 0.013827 0.013557
0.012395 -0.070087 0.031307
0.037477 0.011979 0.031441
-0.066418 -0.008083 -0.016549
-0.063182 -0.003076 -0.062019
0.030193 -0.026996 0.070397
0.043902 -0.024775 0.072754
0.051650 0.044917 -0.170725
0.049467 0.009444 0.154921
0.073125 -0.005826 -0.036849
-0.059621 -0.027254 -0.090859
-0.063232 -0.022346 -0.036288
0.054666 0.041312 0.013420
0.020605 -0.072319 -0.089640
-0.066001 0.015820 -0.016036
-0.063246 0.000017 0.020915
0.075999 0.001285 -0.034793
-0.065846 0.012536 -0.018618
-0.024304 0.015160 0.094826
-0.063013 0.017017 -0.067081
-0.013503 -0.045607 0.063598
-0.063182 -0.003076 -0.062019
0.016631 -0.027233 0.167419
-0.063464 -0.022172 -0.037081
-0.019596 0.058907 -0.162449
-0.065974 0.000017 -0.132250
-0.068416 0.015469 -0.047244
0.003881 0.069116 0.035163
-0.035636 0.011916 0.049097
-0.063851 -0.013788 -0.019360
-0.060432 0.020042 0.018983
-0.064565 0.009149 0.024639
0.007631 -0.071648 -0.061144
-0.062369 -0.026530 -0.067081
-0.013679 0.013949 0.063382
-0.077414 -0.001669 -0.051801
-0.030518 -0.012059 0.100739
-0.060351 -0.025520 -0.089504
-0.065863 0.016270 -0.058965
-0.024891 0.062667 -0.163375
0.048825 -0.050830 -0.170737
-0.063391 0.022185 -0.034207
-0.065421 -0.014682 -0.000302
-0.003532 -0.010233 0.164015
-0.061421 0.022409 -0.038300
0.038566 0.009634 0.162272
0.065090 0.011671 0.128019
0.017495 -0.030725 0.068426
-0.025435 0.055494 -0.163590
-0.065516 0.015407 -0.046132
-0.070799 0.017881 -0.034993
-0.059943 0.000017 -0.163921
-0.067369 0.004349 -0.004928
0.059782 -0.023979 0.092461
-0.067489 -0.003860 -0.099897
-0.025937 -0.023990 0.143666
-0.066547 -0.012474 -0.097666
-0.062079 -0.008040 -0.062948
-0.032786 0.005370 0.125813
-0.058357 -0.004942 -0.080407
0.016631 -0.048788 0.057690
0.014214 -0.027179 0.070981
0.003586 0.005400 0.166554
0.076625 -0.016952 -0.114390
-0.014912 -0.026723 0.063133
-0.073006 -0.001010 -0.019449
0.054680 -0.050924 -0.163607
-0.063307 -0.011065 0.009604
-0.052535 -0.030505 -0.161163
-0.062396 0.009368 -0.090101
-0.058361 0.013643 -0.071740
0.052627 0.009389 0.152684
-0.063953 -0.020138 -0.047232
0.009131 -0.018596 0.167787
0.034728 0.065479 -0.146307
-0.062369 -0.024983 -0.038288
-0.033885 -0.024384 0.103420
-0.056365 -0.032246 -0.112620
-0.067369 -0.014299 -0.013972
0.027134 -0.027049 0.167734
-0.061614 -0.027398 0.011287
0.047219 -0.048858 -0.170744
0.014955 -0.055246 0.043990
0.013273 -0.063877 -0.161392
0.065952 -0.030302 0.122127
0.031485 0.015388 0.073328
0.028496 -0.055001 0.034831
0.011402 -0.047741 0.058147
-0.020658 -0.061997 -0.161302
-0.075867 -0.010942 -0.050588
0.076639 0.003404 -0.046958
-0.065706 0.014930 -0.057660
-0.063464 -0.005330 -0.083231
0.063283 0.005130 0.125681
-0.031261 0.011532 0.136461
-0.077119 0.015905 -0.038974
-0.065238 -0.016106 -0.057114
-0.054869 -0.023028 -0.085748
-0.068000 -0.013828 -0.025464
-0.035349 0.012251 0.048878
-0.066064 0.006988 -0.060383
-0.067134 -0.012619 -0.014079
-0.013960 0.045692 0.062594
-0.068625 0.018375 -0.034935
-0.048986 -0.043776 -0.112683
0.037499 -0.026849 0.075806
-0.062369 -0.024983 -0.041302
-0.065458 0.015335 -0.016504
-0.013742 0.049489 0.049434
0.040625 -0.005694 0.162098
-0.064081 -0.013576 -0.054829
-0.066840 0.001424 -0.054896
0.000496 -0.069892 0.035126
-0.062495 -0.019338 0.013898
-0.066773 -0.007966 -0.098255
-0.058465 -0.013955 -0.161137
0.042154 0.061344 -0.061908
-0.029740 -0.060924 0.039775
-0.064861 0.016736 -0.057868
-0.077119 -0.011463 -0.048226
-0.048929 -0.042027 -0.163840
0.061301 -0.040803 -0.002260
0.005631 -0.073709 -0.033022
-0.067274 -0.009288 0.004287
-0.041740 -0.053067 0.039589
0.003881 0.012420 0.048030
-0.063996 -0.014731 0.001781
-0.065421 -0.002531 0.008709
-0.051615 -0.012912 -0.057671
-0.067369 0.001620 0.006845
-0.006685 0.064596 -0.170863
-0.002261 0.069638 -0.163606
-0.063788 -0.013458 0.003354
-0.061612 -0.023315 0.001521
-0.065456 -0.015466 -0.056773
0.065367 0.011667 0.104356
-0.060275 0.025727 -0.089824
-0.051369 0.026617 -0.085656
0.019981 -0.004886 0.165419
-0.075867 -0.003565 -0.020060
-0.064950 0.017582 -0.033751
-0.062401 0.013834 -0.087731
-0.065751 0.014008 -0.056991
0.039290 -0.064652 -0.014450
-0.026954 0.004155 0.136277
-0.028865 0.011723 0.055551
-0.062406 0.019868 -0.082025
-0.031646 -0.018611 0.095987
-0.061261 0.031156 -0.076628
-0.063552 -0.003690 -0.083709
-0.035993 -0.007358 0.047473
-0.057643 0.025961 0.034079
-0.064640 0.002492 -0.014849
0.054028 0.046742 -0.163921
-0.025593 -0.054390 0.044462
-0.067270 -0.014907 -0.066786
-0.002303 0.069918 -0.013591
-0.062544 0.024578 -0.067259
0.037363 0.011992 0.032882
0.006631 -0.027058 0.069439
-0.007332 0.071753 -0.013513
-0.058508 -0.030793 -0.076601
-0.067369 0.002309 -0.004068
0.039109 -0.023438 0.063954
-0.062775 0.018952 -0.087520
-0.067099 0.003769 -0.099046
-0.070799 -0.001028 -0.055036
-0.060634 0.032976 -0.072131
0.069763 0.006892 -0.170646
0.014961 -0.054889 0.044065
-0.028360 0.057999 0.044375
-0.066451 0.005330 -0.014843
-0.064315 -0.010908 -0.017552
-0.061612 0.018688 -0.074612
0.020432 0.070471 -0.138593
0.014668 0.066091 -0.163921
-0.062411 -0.022796 -0.076919
-0.067369 -0.006194 0.005517
-0.058960 0.014502 -0.059886
-0.077198 0.012167 -0.045909
0.073868 -0.013335 -0.025471
-0.064899 -0.016951 -0.058278
0.062804 0.010437 0.107526
-0.068625 -0.017351 -0.030760
-0.063859 0.020198 -0.068159
0.063907 -0.041591 -0.039251
-0.067078 -0.014293 -0.015201
-0.066625 0.015889 -0.059201
-0.067348 -0.014565 -0.059917
-0.066673 0.003552 -0.054356
0.042342 0.015293 0.160218
-0.032261 -0.011897 0.097664
-0.065611 0.014116 -0.017094
0.050957 0.054231 -0.163607
-0.040177 -0.026231 0.045761
0.023138 0.052727 0.038753
-0.000904 0.069365 -0.163837
-0.004308 0.046945 0.061753
-0.065007 0.017316 -0.015599
-0.063472 -0.015295 -0.053667
-0.073006 -0.003050 -0.019687
0.020605 -0.072319 -0.089640
-0.078662 -0.000695 -0.033153
-0.062283 -0.005808 -0.096173
0.038712 0.011411 0.067034
0.016631 -0.027189 0.169335
0.063954 0.038200 -0.137973
-0.065895 0.012389 -0.018152
-0.009880 0.047500 0.064099
0.037498 -0.063832 -0.149890
-0.026776 -0.054663 -0.163584
-0.063254 0.022479 -0.034348
0.014171 0.012472 0.164854
-0.070799 -0.012325 -0.023999
-0.060613 -0.014167 -0.057740
0.005631 -0.052828 0.048061
0.025782 0.055698 0.036739
-0.065769 0.013498 -0.048414
-0.062248 -0.005938 0.019009
0.076148 -0.004202 -0.163841
-0.055408 0.024174 -0.161150
-0.051619 -0.026684 -0.087331
-0.022734 0.065157 -0.038509
0.001608 -0.026957 0.162012
-0.067369 -0.000441 -0.001324
-0.030695 -0.054986 -0.163921
-0.065539 0.014530 -0.054413
-0.019960 -0.059698 -0.161609
-0.065938 0.011935 -0.059365
-0.077375 -0.007063 -0.050236
-0.059647 0.018343 0.034172
0.060316 0.009255 0.094723
-0.067369 0.002428 0.001210
-0.061462 0.022302 -0.039504
-0.060779 0.032630 -0.072075
0.058044 -0.018623 0.089694
-0.031334 -0.018628 0.132171
0.065441 0.003914 0.106854
-0.019607 -0.056813 0.044572
0.065878 -0.026373 0.106368
-0.067336 -0.014655 -0.059968
-0.065255 0.016435 -0.052995
0.022764 0.013390 0.041390
-0.061401 -0.027921 -0.067088
0.003881 -0.025760 0.046865
-0.062369 -0.009681 0.017631
-0.062369 0.025385 -0.074906
-0.021096 0.005130 0.146324
0.005631 0.070533 -0.145280
-0.065093 0.015943 -0.057122
-0.067270 -0.014907 -0.066786
-0.067186 -0.015087 -0.014803
-0.063573 -0.005912 0.008891
-0.060443 0.027559 -0.007081
-0.059638 -0.014242 -0.161132
0.059141 -0.023991 0.144444
-0.064766 0.001387 -0.059376
-0.016214 -0.065946 -0.163836
0.036537 -0.064109 -0.153823
-0.064869 -0.017742 -0.036627
-0.037625 0.046909 -0.162365
0.008814 0.055104 0.048121
-0.064208 0.020036 -0.027538
-0.063426 0.021832 -0.032116
-0.077369 0.011012 -0.026990
0.015087 -0.026156 0.068412
0.044135 0.060431 -0.148011
-0.031971 0.004577 0.097877
-0.064583 -0.017314 -0.066644
-0.054869 -0.025589 0.002239
0.030107 0.010115 0.071596
-0.067369 0.014333 -0.013972
-0.018988 0.012889 0.049161
-0.066474 -0.003380 -0.014565
-0.062369 -0.016534 0.013674
0.022385 0.053586 0.039119
-0.066543 -0.003397 -0.062423
-0.068416 0.003229 -0.055294
-0.061369 0.019921 -0.005751
-0.062369 0.025017 -0.065178
-0.075867 0.016925 -0.041167
-0.067034 0.015371 -0.015056
-0.070799 -0.017483 -0.041229
0.076199 0.013816 -0.063517
-0.066849 0.015662 -0.059346
-0.066290 -0.011440 -0.020552
-0.062369 -0.024856 -0.068302
-0.075867 -0.016618 -0.042161
0.020607 0.047215 0.057031
-0.066379 -0.008123 -0.016443
-0.067014 -0.005751 -0.062490
-0.065421 0.015924 -0.003751
0.009417 -0.068577 -0.150257
-0.033334 -0.025786 0.103584
-0.066458 0.010716 -0.051402
-0.068625 0.018002 -0.032819
0.063158 -0.037318 -0.003832
-0.061637 0.013569 -0.163839
-0.055057 0.000017 0.044023
-0.063568 0.018459 -0.074981
0.014171 -0.030711 0.164854
-0.063499 0.015161 -0.017230
-0.048047 -0.035833 -0.161485
-0.005354 -0.054513 0.048945
-0.062405 -0.017593 0.010443
-0.048759 -0.050389 -0.064210
-0.064156 0.016927 -0.005061
-0.060040 -0.023727 -0.085005
-0.058774 -0.029257 -0.090647
-0.075867 0.010158 -0.051214
-0.054869 0.020819 -0.088083
-0.051477 -0.029958 -0.161470
0.038712 -0.026127 0.067034
-0.062991 -0.013502 0.017836
-0.065848 0.012767 -0.055756
-0.064654 -0.007098 -0.058258
-0.039748 -0.028248 0.048269
-0.064523 0.001400 -0.059607
-0.059888 -0.012978 -0.015678
0.053510 0.010656 0.155318
-0.060446 0.031698 0.001236
-0.062126 0.017899 0.012780
-0.031965 -0.061996 -0.114383
-0.068625 -0.017967 -0.032819
-0.044321 -0.027274 0.048189
0.007631 0.059734 0.048123
0.069168 0.009635 0.117639
-0.033290 0.003915 0.119574
0.072543 -0.006192 -0.031528
-0.079049 0.001704 -0.042861
-0.057664 -0.025987 0.034078
-0.058716 0.029431 -0.090536
-0.063392 0.015707 -0.079751
-0.031261 0.011532 0.136461
-0.056366 0.017767 -0.060941
-0.062659 -0.018550 -0.024523
0.021024 0.068053 -0.163841
-0.065484 -0.015496 -0.052845
-0.067267 -0.014925 -0.059795
0.033419 0.003888 0.165381
-0.013154 -0.028665 0.064033
-0.066692 -0.001812 -0.019543
-0.062899 -0.020764 -0.086470
0.041047 -0.028365 0.025584
-0.060698 0.027224 -0.071450
-0.066766 0.005449 -0.054007
-0.064804 -0.017336 -0.039951
-0.057975 0.026923 -0.056555
-0.078662 -0.003498 -0.035189
-0.062399 0.012364 -0.088643
-0.063686 -0.021549 -0.029511
-0.066289 0.011763 -0.051611
-0.062369 -0.024983 -0.054930
0.019505 -0.047627 0.057438
-0.065917 0.012892 -0.016525
-0.064538 0.018990 -0.037081
-0.062410 -0.019093 0.013643
-0.061612 0.024829 -0.005423
-0.035483 0.010397 0.123294
0.044697 -0.059945 -0.149393
-0.024872 0.057969 -0.170784
0.049516 -0.041876 0.018653
-0.058156 -0.030807 -0.088080
0.042464 0.010844 0.163762
0.005631 -0.072922 -0.013380
0.016631 -0.027233 0.167419
0.007631 0.071031 -0.152235
0.076382 0.007264 -0.163381
-0.057797 0.032865 -0.063272
0.063214 -0.035340 0.000232
0.066658 -0.021028 -0.170659
-0.077369 -0.010383 -0.026379
-0.078923 -0.005038 -0.042117
-0.058369 -0.015312 -0.017333
-0.029777 -0.004357 0.058227
-0.063291 -0.010009 -0.084442
-0.020535 -0.050052 0.048605
0.005630 0.073620 -0.038587
0.013571 -0.070300 -0.113425
-0.063200 0.021974 -0.032070
-0.064803 0.018073 -0.049863
-0.016924 0.005383 0.155242
-0.063314 -0.022502 -0.040225
-0.066237 0.016132 -0.059049
-0.068221 -0.009192 -0.053032
-0.076086 0.015071 -0.035726
0.062485 0.011675 0.107602
-0.063656 -0.019221 -0.001372
0.050355 0.009429 0.081175
-0.068074 -0.009117 -0.052903
-0.064426 0.008289 -0.099633
-0.002043 -0.054427 0.049566
-0.078527 -0.005038 -0.045454
0.005631 0.070132 -0.163393
-0.063044 -0.016892 -0.015779
-0.061612 -0.023112 -0.007849
0.019988 -0.070466 -0.139629
-0.059904 0.031032 -0.114489
-0.065421 -0.006155 -0.012668
-0.040656 0.054388 -0.013776
0.043778 -0.010394 0.163158
-0.062369 -0.023623 -0.075177
-0.059957 0.000020 -0.161131
-0.060240 0.025556 -0.086663
-0.075231 0.015670 -0.029220
0.061156 0.004155 0.101975
-0.061612 -0.011934 -0.088888
-0.077369 -0.002946 -0.051707
-0.063681 -0.001714 -0.084294
-0.067366 0.001231 -0.064243
-0.065515 -0.015381 -0.047954
-0.061369 0.021547 0.005729
-0.067357 0.005094 -0.080172
-0.051833 0.023340 0.044068
-0.062248 -0.022094 0.007994
0.056339 0.049341 -0.163606
-0.033540 -0.026157 0.050133
0.005631 -0.069136 -0.162904
-0.013396 0.046387 0.063554
-0.062685 0.026933 -0.084935
0.003678 0.015404 0.165343
-0.051369 0.025592 -0.089481
-0.061612 -0.019607 -0.071574
-0.062455 0.024793 -0.006485
0.005631 0.055171 0.049378
-0.063529 0.009266 -0.081361
-0.077119 0.008009 -0.023238
-0.077414 -0.013954 -0.032096
-0.061991 0.020366 -0.046659
-0.062369 -0.010031 0.015811
-0.054612 0.027011 -0.067081
-0.066565 -0.015898 -0.066786
0.034573 0.062818 -0.146214
-0.062126 0.024453 -0.077963
-0.063261 0.009532 -0.084872
-0.063755 -0.021108 -0.044356
-0.065451 -0.016087 -0.058218
0.028570 0.067471 -0.151485
0.046204 -0.007357 0.161586
0.005631 -0.065523 -0.164045
-0.079044 0.004135 -0.041388
-0.001651 -0.019845 0.161536
-0.048814 0.042881 -0.163609
-0.060981 0.032614 -0.051116
-0.068074 -0.010893 -0.051736
-0.062405 -0.017593 0.010443
0.033592 0.065449 -0.153427
-0.063192 -0.016360 -0.057477
-0.079044 0.004838 -0.033579
0.075921 0.001215 -0.034093
-0.054612 -0.013479 0.016296
-0.066011 -0.012291 -0.024477
-0.067274 0.007957 0.005255
0.066192 -0.025362 -0.014532
-0.062369 -0.005890 0.018800
0.076141 -0.006023 -0.088431
-0.066278 -0.004883 -0.015329
-0.065642 0.014725 -0.017500
-0.009845 -0.026746 0.156245
-0.066469 -0.014788 -0.016107
-0.064670 -0.006249 -0.100121
-0.066316 0.010554 -0.051209
0.071697 0.013454 -0.013738
0.056339 0.049341 -0.163606
-0.051839 0.024899 -0.170666
-0.077293 -0.012591 -0.045184
0.038072 -0.026669 0.067262
-0.066716 -0.014498 -0.058327
-0.030016 0.011510 0.054667
0.007193 -0.025813 0.164302
-0.065414 0.015859 -0.070690
-0.066999 0.015395 -0.005649
-0.078432 -0.000340 -0.035111
-0.018970 -0.051495 0.048613
0.059121 -0.042693 -0.161192
-0.060217 -0.017565 0.016827
-0.066349 -0.014263 -0.016013
-0.064944 -0.017127 -0.015232
-0.044473 -0.048921 -0.112715
-0.079049 -0.005038 -0.040362
-0.067210 -0.014298 -0.059373
-0.063884 -0.013618 -0.054933
0.076206 -0.001455 -0.038893
0.022430 0.066694 0.032806
0.039074 -0.025347 0.066902
-0.032248 -0.016778 0.098570
-0.068416 -0.018351 -0.039228
-0.065842 0.012532 -0.055539
0.074146 -0.006022 -0.161127
-0.009896 0.012030 0.079550
-0.035153 -0.024179 0.047072
-0.062369 -0.026233 -0.071038
-0.077119 0.015016 -0.031510
-0.061612 0.005319 -0.091377
-0.066093 -0.012344 -0.024440
-0.062514 0.024641 -0.006455
0.078375 -0.004232 -0.134893
0.039194 0.060396 -0.148277
0.064732 -0.038166 -0.113278
0.066237 0.011502 0.131154
0.022354 -0.053336 0.039257
0.019155 -0.027516 0.057469
-0.065516 0.015411 -0.028023
0.061361 0.045628 -0.038835
-0.063307 -0.011065 0.009604
-0.068074 0.012555 -0.050370
-0.020535 -0.026584 0.050604
-0.067343 0.014657 -0.014178
-0.065843 0.012565 -0.018635
0.016631 0.012517 0.167419
0.066326 0.003914 0.123788
-0.063194 -0.013858 -0.057291
-0.061205 0.015251 0.022240
-0.064457 -0.010555 0.024811
-0.062369 -0.024983 -0.040507
-0.026524 0.066382 -0.064045
-0.079044 0.001597 -0.042808
-0.068000 -0.015083 -0.047013
-0.066291 -0.010243 -0.017543
-0.002737 -0.069371 -0.163772
-0.063229 -0.022809 -0.037081
-0.075231 -0.017193 -0.033988
-0.062126 0.026515 -0.003087
0.038888 0.012810 0.027800
-0.064131 -0.011918 -0.056107
-0.068000 0.005201 -0.054396
-0.066013 0.000017 -0.082990
-0.070799 -0.017846 -0.034993
-0.068074 0.018163 -0.034960
-0.030627 0.011118 0.096212
-0.066340 -0.003493 -0.059431
0.033522 -0.064195 -0.163841
-0.063210 -0.013906 -0.016904
-0.079049 -0.003750 -0.041805
-0.065384 0.015824 -0.021460
-0.075231 -0.014617 -0.027456
-0.062419 0.024304 -0.001870
-0.063796 -0.020696 -0.067057
-0.056816 0.039835 -0.014061
0.066237 0.011502 0.131154
-0.041740 0.053102 0.039589
0.042329 0.003895 0.161058
-0.063370 -0.014070 0.007147
-0.065442 0.014716 -0.057662
-0.070799 0.016090 -0.029009
-0.062369 -0.024983 -0.037084
-0.066447 0.010655 -0.051321
-0.063560 0.010419 0.006384
0.039668 -0.060007 -0.149665
0.037363 -0.026707 0.063485
-0.063251 0.000025 -0.163777
-0.068625 -0.018340 -0.034935
-0.030503 -0.010379 0.054525
-0.007697 -0.061773 -0.170859
-0.052535 0.030539 -0.161163
-0.068221 -0.016442 -0.045347
-0.065642 0.014728 -0.056662
-0.076863 0.008029 -0.051614
-0.061352 0.028297 -0.004984
0.003881 -0.025760 0.046865
-0.053304 0.000017 0.047511
0.016631 0.012517 0.067099
-0.076863 -0.008841 -0.051113
0.074887 -0.009722 -0.034973
-0.067369 -0.001382 -0.001839
-0.008650 -0.024291 0.075388
0.046043 0.060325 -0.014105
-0.063437 0.022104 -0.007863
0.038873 -0.025621 0.029803
-0.063797 0.010419 -0.080875
-0.060283 0.033015 -0.008692
0.042088 -0.064235 -0.060974
-0.063999 -0.016400 -0.002682
-0.041614 0.050254 -0.163840
-0.065238 -0.016106 -0.057114
-0.039496 -0.035788 0.048274
-0.062337 0.009761 -0.091908
-0.065449 -0.016104 -0.058254
-0.067230 0.014333 -0.059369
-0.035061 0.011041 0.123249
-0.058956 0.014502 -0.066781
0.013508 -0.066136 -0.163921
-0.067567 -0.001807 -0.100074
0.020262 0.047750 0.056307
-0.028407 0.053019 -0.170768
-0.041931 -0.031677 0.045731
-0.063197 0.021983 -0.042055
0.066266 -0.025792 0.133369
-0.029054 0.004357 0.097410
0.074521 -0.012700 -0.137921
-0.063871 -0.013508 0.003396
-0.066022 0.008265 -0.059984
-0.077375 -0.012948 -0.029595
-0.065028 -0.017223 -0.058199
0.015631 -0.026980 0.069597
-0.055951 -0.010894 -0.170648
0.074758 -0.007619 -0.029669
-0.066506 -0.003515 -0.015183
0.003881 0.066977 0.038005
-0.064431 0.007642 -0.015960
-0.022987 0.059623 -0.163921
-0.012255 -0.047456 0.063137
-0.075867 0.002585 -0.054285
0.064176 0.015102 0.105677
0.019075 0.067524 -0.149002
-0.064880 0.017739 -0.035842
0.007631 0.071031 -0.152235
0.070277 0.019275 -0.163921
0.001146 0.066354 -0.161397
-0.051619 0.029517 -0.088081
0.064509 -0.038550 -0.163841
-0.061612 -0.014925 -0.086959
-0.039595 0.044278 -0.163521
-0.063377 0.015295 0.006102
-0.066999 0.012116 0.002267
-0.067268 -0.014798 -0.068585
-0.066991 -0.014268 -0.058887
-0.033448 -0.000755 0.053280
-0.062988 0.023389 -0.007108
-0.066123 0.011609 -0.017401
0.070712 -0.028208 -0.163605
-0.051369 -0.030407 -0.089481
0.060995 0.005130 0.101660
-0.078356 0.000017 -0.037081
0.020211 0.047396 0.057271
0.005631 0.012351 0.060382
-0.066468 0.006753 -0.058076
-0.064716 0.017269 -0.033798
-0.063569 -0.021627 -0.007753
-0.065419 0.001142 -0.062245
-0.059414 -0.026850 -0.060499
-0.066058 0.012586 -0.055228
0.037275 -0.026872 0.067543
0.001517 0.010086 0.163732
-0.065419 0.003381 -0.062044
0.013881 0.011589 0.070840
-0.016475 -0.027637 0.051315
0.037486 -0.027008 0.029817
0.036748 0.009666 0.069415
0.005631 -0.070408 0.016987
-0.062126 -0.024126 0.004545
-0.058361 -0.018053 -0.072652
-0.073006 0.001044 -0.054714
0.070431 -0.019154 -0.039107
0.039653 -0.026522 0.027616
0.041696 -0.025896 0.071441
0.040661 -0.017147 0.065085
-0.061718 -0.021117 -0.029124
-0.063559 -0.014847 -0.017221
0.013960 0.073713 -0.064065
0.067238 0.021275 -0.161157
0.003881 -0.070377 -0.013573
-0.063054 0.022367 -0.039830
-0.066395 -0.004878 -0.015361
-0.041941 -0.000131 0.048231
-0.060612 -0.014651 -0.016638
-0.068625 -0.009224 -0.053088
0.072467 0.006747 -0.012232
-0.064944 -0.017127 -0.015232
-0.065936 -0.003357 -0.062126
-0.065829 0.010277 -0.014023
0.020262 0.047750 0.056307
-0.073006 0.017204 -0.033008
-0.077414 0.014827 -0.036234
-0.063679 0.007540 -0.082441
-0.028990 0.062277 -0.063284
-0.068416 0.007342 -0.054063
-0.065090 -0.015921 -0.057127
0.003881 0.066977 0.038005
-0.066570 -0.009906 0.005062
0.046704 0.005386 0.158072
0.043076 -0.030502 0.076075
-0.066010 0.015540 -0.016228
-0.063886 -0.023886 -0.090912
-0.066024 -0.012603 -0.018011
-0.054628 0.000117 0.046915
-0.062369 -0.017661 0.010464
-0.057303 -0.013705 -0.161444
-0.026524 -0.066348 -0.064045
-0.065965 -0.012492 -0.018168
-0.068625 0.007338 -0.054052
-0.063723 -0.007273 -0.082656
0.033080 0.064949 -0.014708
-0.066567 -0.014272 -0.015862
-0.063555 -0.003987 0.009478
-0.002844 -0.030563 0.072411
0.047654 -0.019845 0.082242
-0.066843 0.000017 -0.019232
-0.066824 -0.001828 -0.019400
0.074646 -0.016777 -0.035617
-0.063575 0.018527 -0.074796
-0.079049 -0.005038 -0.033801
-0.023689 -0.026529 0.089203
-0.040412 0.042717 -0.170716
-0.064565 0.009149 0.024639
-0.016930 -0.051015 0.049582
-0.030422 -0.009483 0.100430
-0.063242 0.003906 -0.086714
-0.062920 -0.017359 -0.022667
-0.061612 0.019642 -0.002589
-0.048986 0.043810 -0.112683
-0.077119 0.009345 -0.050081
-0.077369 0.008441 -0.024762
-0.079044 -0.000783 -0.042986
-0.066559 -0.011895 -0.077340
0.074128 -0.006374 -0.161127
-0.013699 -0.045615 0.063346
-0.064990 0.017263 -0.015231
0.020262 0.047750 0.056307
