0.029499 0.011710 0.168613
-0.070799 -0.017968 -0.037081
0.005631 0.069880 -0.163775
-0.066987 -0.007174 -0.080488
-0.061995 -0.019975 -0.086144
0.050072 -0.026618 0.150762
-0.077375 0.003337 -0.022530
-0.059482 0.028076 -0.085211
-0.062631 0.006161 -0.061432
-0.067261 0.000017 -0.081710
-0.034236 -0.024905 0.050511
-0.065796 0.013818 -0.017146
0.028871 0.014284 0.034474
-0.077119 -0.012700 -0.046790
-0.077375 -0.001989 -0.051877
0.027317 -0.005434 0.168352
0.022684 -0.027127 0.055850
0.074577 -0.000053 -0.022114
0.040414 0.012080 0.158066
-0.077369 0.009790 -0.048359
0.003651 0.010299 0.168718
0.072431 -0.019738 -0.034155
0.036982 -0.061201 -0.152709
0.003881 -0.066489 -0.161409
0.005631 0.070140 0.035229
-0.046757 -0.034230 -0.170688
-0.061612 0.015415 -0.080051
-0.062248 -0.009760 0.017830
0.050645 0.040700 0.017702
-0.061637 0.013569 -0.163839
-0.063042 -0.016085 -0.096254
-0.036288 -0.020720 0.049641
-0.078527 -0.008388 -0.042082
0.005631 0.012450 0.048061
-0.026782 0.009588 0.138923
-0.001680 0.063462 -0.163678
-0.060612 -0.013284 0.002283
-0.063490 0.017858 0.002354
-0.077375 -0.012820 -0.029413
-0.061612 0.019642 -0.002589
0.007631 -0.070174 -0.125566
0.067094 0.032630 -0.063842
0.003881 -0.052407 0.049127
-0.030458 -0.013756 0.053788
-0.011052 0.045806 0.064687
0.075084 -0.002425 -0.028820
-0.063549 -0.021707 -0.042327
0.062804 0.010437 0.107526
0.073934 -0.008044 -0.022051
0.038398 0.066306 -0.068157
-0.061092 -0.010622 -0.014379
-0.061073 -0.027544 -0.069475
0.068109 -0.032167 -0.113266
0.029256 -0.030622 0.165305
-0.064075 -0.015640 0.000313
-0.061235 0.022463 -0.036028
-0.066021 0.016104 -0.068739
0.039464 -0.026893 0.027731
0.021445 -0.029108 0.056210
-0.076430 -0.015609 -0.043965
-0.063567 0.005372 0.009092
-0.050319 0.036699 -0.161173
-0.065456 0.015500 -0.017390
-0.062408 0.021330 0.005691
0.066454 -0.012749 0.001779
-0.066472 -0.003518 -0.059576
-0.065459 0.015324 -0.057653
-0.061537 0.019930 -0.068406
-0.065408 0.000017 -0.083100
0.074994 -0.014374 -0.163776
-0.046264 -0.048697 0.039556
-0.030595 0.005122 0.052056
-0.063901 0.014431 -0.054175
-0.029289 -0.017360 0.058237
-0.063679 -0.013053 -0.091870
-0.064884 -0.017689 -0.038528
-0.029526 0.015115 0.124311
-0.062536 -0.010947 0.018360
-0.048929 -0.042027 -0.163840
-0.060918 0.032630 -0.058903
-0.065516 0.015411 -0.028023
-0.060572 0.033171 -0.070543
0.058049 -0.024010 0.090878
0.044901 0.046452 0.022471
-0.002242 0.069463 -0.163772
-0.031043 0.015101 0.104597
0.040567 0.012078 0.077573
-0.064880 -0.017737 -0.059134
-0.075231 0.015593 -0.045075
-0.060599 0.001375 -0.083168
-0.059075 0.029321 -0.080893
-0.061612 0.011969 0.014726
-0.060645 -0.020584 -0.088544
-0.064619 -0.004007 -0.015076
0.065021 -0.023888 0.129603
0.016631 0.010352 0.166176
0.039668 -0.018425 0.072632
-0.029810 0.009207 0.100907
0.029151 0.012299 0.167248
-0.029278 0.045643 0.048452
-0.064876 0.000017 0.026534
-0.025040 -0.024005 0.144568
0.007631 -0.067750 0.033233
-0.033334 -0.025786 0.103584
0.013781 -0.050517 0.048547
-0.079044 -0.002806 -0.031834
0.013545 -0.072772 -0.114671
0.001578 -0.030601 0.073672
-0.065613 0.014192 -0.019470
-0.067302 -0.014655 -0.059547
-0.063312 0.022513 -0.066131
-0.061672 0.013284 -0.093648
0.044492 0.059816 0.010403
-0.063682 -0.002020 0.010098
-0.077369 0.009790 -0.048359
-0.065421 -0.015382 -0.001993
-0.065417 -0.016298 -0.066785
0.069763 0.006892 -0.170646
-0.062405 -0.017644 0.010396
-0.062337 -0.001976 -0.093677
0.037203 0.063107 -0.163377
-0.068074 -0.016309 -0.028882
-0.064916 0.017599 -0.050703
-0.064329 0.009630 -0.016786
-0.067362 0.004340 -0.070183
0.001132 0.009747 0.164915
-0.063210 0.016441 -0.021742
0.025457 -0.068234 0.023069
-0.065041 0.017112 -0.016039
-0.055951 0.010929 -0.170648
-0.065421 -0.006155 -0.012668
-0.064292 0.019166 -0.025559
-0.062369 -0.024983 -0.044191
0.009372 0.011159 0.170200
0.059829 -0.018870 0.137170
-0.066557 -0.007379 -0.080878
-0.028294 0.060190 0.034206
0.007631 -0.053200 0.053841
-0.075231 0.002601 -0.019778
-0.058929 -0.028499 -0.075273
-0.031507 -0.007358 0.052038
-0.067268 -0.014798 -0.068585
-0.065626 -0.014774 -0.017511
-0.065403 -0.014682 -0.017260
-0.017107 -0.049720 0.050048
0.000623 0.065171 0.044981
-0.062402 -0.014544 -0.087214
-0.073006 0.003084 -0.054475
-0.007033 0.063943 -0.161664
-0.035903 -0.026233 0.049213
0.072973 -0.005508 -0.163921
-0.013227 -0.047073 0.062930
-0.063079 -0.016771 -0.058032
-0.065977 0.012430 -0.018104
-0.062484 0.006733 -0.063346
-0.064258 0.016803 -0.071248
0.007631 0.069923 0.036347
-0.066827 -0.002778 -0.019453
-0.017950 0.050937 0.049104
0.067794 0.000017 -0.000093
-0.057392 0.000017 -0.164398
-0.066325 0.007400 -0.015634
-0.060613 -0.014167 -0.057740
-0.025435 0.055494 -0.163590
0.037598 0.063910 -0.068869
-0.017633 -0.026635 0.053083
-0.062425 0.024725 -0.069699
-0.073006 -0.008814 -0.021785
0.029362 0.012295 0.165670
-0.054869 -0.004715 -0.093917
-0.059578 0.026881 -0.013825
-0.061612 -0.015381 0.005889
-0.012481 0.053480 0.048733
-0.000940 0.069771 -0.163607
0.074853 -0.006946 -0.032515
-0.077119 0.015016 -0.031510
-0.061481 0.012895 0.023321
-0.077293 -0.011585 -0.027594
-0.012972 0.046365 0.064002
0.005631 0.068147 0.039374
0.013127 0.056993 0.045151
-0.064869 -0.017742 -0.036627
-0.065848 0.012767 -0.055756
-0.065420 -0.009834 -0.060263
-0.061397 -0.016945 -0.163609
0.004801 0.051512 0.059097
0.037853 0.061179 -0.147169
0.059782 -0.023979 0.092461
-0.077119 -0.007971 -0.023247
0.003881 0.011420 0.049030
-0.063764 0.009362 -0.081519
-0.064201 0.008369 -0.093931
-0.078724 0.001704 -0.028679
-0.063624 0.000325 -0.084179
0.041047 0.013650 0.025584
-0.067327 -0.012874 -0.013614
0.024131 0.005130 0.164613
0.072955 0.009198 -0.041705
0.003881 -0.024510 0.049030
-0.065144 -0.016475 -0.030750
-0.060583 -0.014084 0.019115
-0.063939 -0.015400 0.000193
-0.042975 -0.042574 -0.161507
0.007631 0.055839 0.048497
0.005631 -0.073160 -0.070667
0.053371 0.046665 -0.170717
-0.066214 -0.010632 -0.016842
-0.060240 0.025556 -0.086663
0.062485 -0.026390 0.128235
0.036692 0.055912 -0.170790
-0.063247 0.005315 -0.086415
-0.063749 -0.019707 -0.003396
0.052195 -0.030422 0.087191
-0.063495 -0.016009 -0.052689
-0.062425 -0.024670 -0.004317
-0.067034 0.014675 -0.015429
-0.065686 0.014105 -0.057021
0.013866 -0.070057 0.030419
-0.005199 -0.049402 0.062031
-0.078135 0.008423 -0.045396
0.026500 -0.065490 -0.150010
-0.030065 -0.030325 0.123258
-0.013901 0.045676 0.062849
-0.062095 -0.008711 -0.095470
0.013881 -0.024983 0.069684
0.043388 0.054827 -0.170761
-0.062337 0.013352 0.016016
0.021168 -0.027153 0.057051
0.075001 0.013322 -0.113207
-0.016259 0.052082 0.048752
-0.063620 0.012140 -0.079022
-0.057664 -0.025987 0.034078
-0.066547 -0.012474 -0.097666
-0.061612 0.017268 -0.077461
-0.058934 -0.014493 -0.016716
-0.033057 -0.051934 -0.161551
-0.031646 0.003896 0.095987
-0.076863 0.002467 -0.020669
0.029789 -0.063652 -0.161320
-0.066355 0.004258 -0.011993
-0.079049 0.005842 -0.038689
-0.030198 0.005130 0.124530
-0.068074 -0.009117 -0.052903
0.021053 -0.053969 0.040054
-0.068416 0.014184 -0.048969
-0.063676 -0.015311 -0.020794
-0.064524 -0.001319 -0.014564
-0.059013 -0.007023 -0.170635
-0.058958 -0.014464 -0.067066
-0.078662 -0.003779 -0.035848
0.064818 0.005515 0.004033
-0.059634 0.027256 -0.090851
-0.062369 -0.024983 -0.037083
-0.078923 0.005073 -0.042117
-0.065904 0.014092 -0.096015
-0.004504 0.054310 0.046384
-0.065743 0.014307 -0.019362
0.033580 0.064931 -0.113363
-0.061224 0.027215 -0.000652
-0.029461 -0.020088 0.137336
0.074924 -0.004244 -0.028673
0.070544 0.006912 -0.161142
-0.065511 0.014643 -0.046881
-0.061612 -0.004719 0.012486
-0.066557 -0.007379 -0.080878
0.057849 0.051425 -0.063777
-0.065862 0.016268 -0.015200
-0.064634 0.018648 -0.023884
-0.061369 0.023719 0.001035
-0.067369 0.001620 0.006845
0.074650 -0.009589 -0.032583
-0.063996 -0.014731 0.001781
-0.063273 -0.022393 -0.040212
-0.077119 -0.014992 -0.031618
-0.057560 -0.013015 -0.057728
-0.077375 0.014989 -0.037081
0.014594 0.069426 -0.163776
-0.067369 -0.003873 0.001320
0.071439 -0.029624 -0.139523
-0.061905 -0.018721 0.013299
-0.068416 0.003229 -0.018868
0.005631 0.065962 -0.170917
-0.078432 0.001194 -0.038701
0.059288 -0.020091 0.144204
0.031485 -0.030603 0.162510
-0.063456 -0.016571 0.004148
0.024790 0.013364 0.037750
-0.066625 0.015889 -0.059201
-0.076430 0.016973 -0.035062
-0.078724 0.001704 -0.045483
-0.016663 0.012198 0.052911
-0.066228 -0.011962 -0.050210
-0.068221 0.009227 -0.053032
-0.035108 0.048532 -0.163542
0.055711 0.005130 0.091285
0.025676 -0.027067 0.071797
-0.063229 -0.022809 -0.037081
-0.066820 0.015619 -0.015334
-0.061281 -0.022306 -0.034506
-0.061805 -0.015219 -0.163381
-0.018027 0.009412 0.153605
-0.066527 -0.015594 -0.015755
-0.075867 0.011758 -0.024247
-0.055681 -0.025482 0.044100
-0.030898 -0.024538 0.095354
-0.065705 -0.014571 -0.026789
-0.067369 -0.003425 0.002845
-0.052601 0.036750 -0.163839
-0.066815 -0.003770 -0.019611
0.032908 -0.063160 -0.149851
0.069889 0.015813 -0.006189
0.049915 0.011906 0.150656
-0.023880 0.061397 -0.149732
-0.008539 -0.026793 0.160444
-0.067369 0.000865 -0.001707
-0.066623 0.008757 -0.021602
0.036743 -0.024382 0.069502
-0.065642 -0.014690 -0.056662
-0.064279 0.016981 -0.068850
-0.062792 0.024030 -0.114501
-0.061729 0.017028 0.014666
-0.057003 0.000017 -0.168840
-0.019459 0.050556 0.048782
-0.032786 0.005370 0.125813
0.038106 -0.026204 0.064650
-0.077119 0.002380 -0.021257
0.003881 -0.048704 0.059289
-0.063277 -0.010667 -0.084179
-0.030544 -0.012102 0.101071
-0.066945 -0.005734 -0.098672
-0.050330 0.029396 -0.163474
0.045715 -0.005806 0.161919
-0.063764 0.006321 -0.094101
-0.050319 0.036699 -0.161173
-0.060877 -0.030066 0.005563
0.049516 -0.041876 0.018653
-0.032163 0.063129 -0.013793
-0.055117 0.019017 -0.058378
-0.013551 0.012556 0.063988
-0.030253 0.062195 0.034296
-0.060477 0.011923 -0.015042
-0.068625 0.001092 -0.018630
-0.063289 -0.011431 0.009533
-0.049394 0.000017 0.048101
-0.030313 -0.008743 0.055283
-0.046199 0.021612 0.045656
0.003881 -0.072102 -0.114320
-0.061369 0.014464 0.006674
0.019981 -0.006122 0.167559
-0.076086 0.008344 -0.024467
-0.065412 0.014464 -0.074367
-0.064075 0.015674 -0.074476
-0.063901 0.014431 -0.054175
0.050553 -0.020098 0.081001
0.051945 -0.038992 0.016565
-0.033088 0.009149 0.048385
-0.070799 -0.017968 -0.037081
0.003881 0.073098 -0.064468
-0.066334 -0.008559 -0.058256
0.014668 0.066091 -0.163921
-0.063656 -0.021127 -0.044374
-0.056869 0.026288 -0.080946
-0.077414 0.005072 -0.051011
-0.063439 0.022096 -0.007862
-0.058774 -0.029257 -0.090647
-0.062248 0.016703 -0.088004
-0.068000 -0.017569 -0.041249
0.076429 0.000017 -0.088405
-0.077198 0.013094 -0.029696
-0.076863 0.004391 -0.053089
-0.020551 -0.024608 0.155227
-0.066362 -0.011114 -0.097215
-0.062711 0.010728 -0.163382
-0.003531 0.055181 0.048889
-0.064821 0.004603 -0.100363
-0.015792 0.066376 -0.163771
-0.030257 -0.026151 0.096382
-0.052945 0.023603 -0.163462
0.039653 0.011807 0.027616
0.024464 -0.027096 0.041480
-0.062369 0.025017 -0.037081
0.020920 -0.047036 0.056841
-0.066713 0.007037 -0.020750
0.003881 0.064439 -0.162543
-0.025036 -0.055662 -0.163592
-0.063464 -0.022172 -0.037081
-0.032106 -0.020086 0.106884
-0.064282 0.019486 -0.048647
-0.014912 0.012008 0.063133
0.029527 -0.010954 0.166620
-0.068221 -0.015371 -0.026960
-0.065420 -0.008320 -0.060828
0.074001 0.010870 -0.029409
-0.066373 -0.011209 -0.023194
0.001132 0.009747 0.164915
-0.065095 0.016670 -0.057569
0.036532 0.064659 -0.146116
0.060725 0.030446 0.007681
0.060468 -0.044068 -0.063882
-0.054512 0.039009 -0.038611
0.014214 -0.027179 0.070981
-0.061861 -0.011392 -0.094485
-0.064395 0.007636 -0.015854
-0.066342 -0.003356 -0.014710
-0.063201 0.021973 -0.042092
-0.077293 -0.014581 -0.033686
-0.004118 -0.004622 0.163748
-0.062991 0.023380 -0.067059
-0.066247 -0.010397 -0.056676
-0.075867 0.000533 -0.019695
-0.062395 0.004903 0.017268
-0.063277 0.010701 -0.084180
-0.027065 0.004155 0.135875
-0.063596 -0.007477 0.008219
0.031281 -0.061807 -0.163921
-0.062542 0.000017 0.020571
-0.009258 0.069640 -0.063307
-0.066556 0.003826 -0.082239
-0.065906 0.010470 -0.059043
-0.051491 -0.015799 -0.055500
-0.061240 0.024313 -0.080143
0.062804 -0.025152 0.128312
0.065204 0.000017 0.003623
-0.029914 -0.051865 -0.170762
-0.077936 -0.005038 -0.048763
0.033529 -0.063246 -0.146114
-0.058370 0.015347 -0.056830
0.022385 0.053586 0.039119
-0.050677 0.029578 -0.162308
-0.066530 0.000846 -0.014917
-0.035044 -0.058387 -0.013747
-0.064930 -0.017622 -0.039992
0.040502 -0.030524 0.077707
-0.023880 0.061397 -0.149732
-0.063109 -0.016665 -0.016273
-0.064741 0.017593 -0.037738
-0.063437 -0.022069 -0.007862
-0.065829 -0.002093 -0.011932
-0.061612 -0.011934 0.014726
-0.066289 0.011737 -0.050553
0.039749 -0.026829 0.163158
-0.062248 -0.001983 0.019605
0.065941 -0.031983 -0.039167
-0.061369 0.010924 -0.083783
0.075014 0.006613 -0.063705
-0.063490 -0.017823 -0.076517
0.066415 0.005370 0.113451
0.041368 -0.024051 0.070500
-0.070799 -0.015009 -0.046964
-0.062369 -0.024983 -0.037085
-0.026754 -0.030354 0.135994
-0.064081 -0.020306 -0.047295
-0.000451 0.003888 0.165273
0.058776 0.009282 0.091347
0.066617 -0.018630 0.116427
-0.064168 -0.009025 -0.093787
-0.077414 0.008390 -0.049326
-0.073006 0.017560 -0.039132
-0.061421 -0.019506 -0.112553
-0.066225 0.008233 -0.059875
-0.077293 -0.004614 -0.022827
-0.077369 0.006981 -0.023883
0.048220 -0.060227 -0.063193
-0.058434 0.031029 -0.075734
-0.063936 -0.013751 -0.019430
0.061773 -0.036334 -0.170681
-0.078527 0.008423 -0.032081
0.036572 -0.010787 0.164113
-0.064962 0.017526 -0.050635
-0.066126 0.011724 -0.023913
-0.035207 0.009647 0.109339
0.005631 -0.053393 0.053911
-0.064884 -0.017689 -0.038528
0.039850 -0.024715 0.027854
-0.063704 -0.005419 -0.083506
0.037928 -0.027849 0.028253
-0.013494 -0.046365 0.063406
0.070581 0.006263 -0.161142
-0.064891 0.017255 -0.061870
-0.064173 0.006398 -0.094331
-0.062871 -0.015279 0.016921
-0.065565 -0.015142 -0.053156
-0.063751 -0.019689 -0.070755
-0.065623 0.014048 -0.057103
-0.068416 0.018386 -0.034934
0.062275 -0.016875 0.006686
0.041725 0.014051 0.025005
-0.067034 -0.015336 -0.015056
-0.024734 -0.055138 -0.170784
0.053029 -0.052198 -0.163775
-0.063490 -0.017823 -0.076517
-0.066447 0.010655 -0.051321
-0.062993 0.022529 -0.036608
-0.062369 0.016569 -0.087836
-0.063318 -0.022447 -0.007904
-0.068221 0.014127 -0.048920
0.065894 0.028989 -0.002273
-0.061612 -0.014925 0.012796
-0.077375 0.013456 -0.030609
-0.062337 0.022053 -0.082105
-0.012964 -0.062996 -0.170836
-0.065421 0.015518 -0.002344
0.048961 0.051359 -0.163921
-0.068074 -0.018252 -0.037081
-0.052976 -0.036107 -0.163839
0.005631 0.069648 -0.163841
-0.058434 0.031029 -0.075734
0.067905 0.032602 -0.113267
0.004025 -0.025756 0.072295
-0.011611 0.053733 0.048748
-0.057175 0.026944 -0.060210
-0.042595 -0.047991 0.039910
-0.078432 -0.000162 -0.039075
0.009380 0.068614 -0.150258
-0.058042 0.029961 0.004898
-0.034984 0.056397 -0.163608
-0.062369 -0.024637 -0.071224
-0.066397 0.010597 -0.051253
0.021168 -0.027153 0.057051
-0.066045 -0.010430 -0.056787
-0.051369 0.030442 -0.086681
-0.030201 -0.018870 0.124251
0.022502 0.014380 0.041375
-0.063313 -0.022505 -0.033960
0.016631 -0.025068 0.069662
-0.051369 -0.030407 -0.089481
-0.034236 0.010190 0.050511
-0.065684 -0.013790 -0.054983
-0.057929 0.013926 -0.170639
-0.064526 -0.018907 -0.048795
-0.079044 0.003300 -0.042054
0.018339 -0.061391 0.040795
0.052918 -0.030416 0.147790
-0.076430 0.006435 -0.052905
-0.065854 -0.013862 -0.019889
-0.065421 0.014540 0.000018
-0.010054 -0.030500 0.156535
0.064880 -0.023890 0.128784
0.042913 0.009559 0.160755
-0.030298 -0.018870 0.112208
0.003881 -0.063997 -0.163694
-0.063795 0.010527 0.006533
-0.062996 0.022522 -0.037081
0.063583 0.011655 0.120038
-0.063236 0.001428 0.012915
0.054559 -0.050797 -0.163775
-0.066778 0.000659 -0.054761
-0.064750 0.017562 -0.035851
-0.050815 0.037162 0.039850
-0.061369 0.019085 -0.001222
-0.007419 -0.064288 0.044812
-0.068074 0.010927 -0.022427
-0.067072 -0.015329 -0.014630
0.062293 0.016921 0.006671
-0.063538 -0.021968 -0.040229
0.068119 0.025277 -0.163921
0.079049 0.000017 -0.089167
-0.007458 -0.072694 -0.063902
-0.065019 0.016162 -0.030151
-0.062369 -0.024983 -0.037180
-0.016074 0.011946 0.061923
-0.063593 -0.021580 -0.031338
-0.061190 0.031363 -0.075772
0.052165 0.045317 -0.161222
-0.078131 0.011745 -0.035430
-0.019441 0.058547 -0.163618
-0.066013 -0.003861 -0.082519
-0.038167 0.051961 0.039968
-0.065456 0.015500 -0.017390
0.037854 0.058132 -0.170785
-0.040765 -0.046690 -0.163921
-0.065421 0.007416 0.007142
-0.062415 -0.023660 0.000451
-0.051369 0.029417 -0.085656
0.006631 0.015430 0.069439
-0.063702 0.021151 -0.066684
0.021039 0.072269 -0.088897
-0.064258 0.016747 -0.003026
-0.062402 0.024906 -0.005955
-0.064910 0.016577 -0.016560
-0.066430 0.002859 -0.014576
-0.066285 -0.000507 -0.061417
-0.039549 0.044735 0.044224
-0.064267 -0.011212 0.023280
0.067598 -0.006578 0.000561
-0.063729 -0.007318 -0.082751
-0.062994 0.004416 -0.012348
-0.078662 0.001749 -0.040678
0.016631 -0.030733 0.070912
-0.063899 0.020660 -0.046376
-0.062337 -0.026653 -0.067081
-0.060613 0.015971 -0.057848
0.005631 0.072051 -0.014616
-0.062232 0.018529 0.034517
-0.062371 0.018376 -0.084051
0.066219 -0.018630 0.111197
-0.064559 -0.009101 -0.057479
-0.067369 -0.002340 0.003521
-0.060612 -0.015619 -0.002301
-0.063225 0.005197 0.012417
-0.066200 -0.009111 -0.014545
0.032646 0.066164 -0.061710
-0.029805 -0.023922 0.052071
-0.065929 0.012810 -0.055803
0.024651 -0.029073 0.037524
-0.023880 0.060864 -0.148982
-0.076086 -0.011365 -0.047026
-0.063560 -0.010384 -0.080546
-0.077293 0.007012 -0.023825
0.074769 -0.008321 -0.030310
0.070305 0.006491 -0.014439
-0.065040 0.017216 -0.058085
0.042342 0.015293 0.160218
0.037397 -0.026701 0.032160
-0.061353 0.000017 0.035542
-0.064670 -0.006249 -0.100121
-0.065721 -0.012879 -0.057669
-0.067274 0.011685 0.001924
-0.009206 -0.068668 -0.013626
-0.062873 0.026978 -0.087204
-0.066159 -0.010430 -0.056751
0.042360 -0.002375 0.025807
-0.077119 0.004235 -0.021647
-0.060613 0.015368 -0.057530
-0.037377 -0.051397 -0.161229
0.027275 0.067958 -0.088733
-0.077198 -0.009153 -0.048974
-0.079049 -0.005038 -0.033801
-0.049665 -0.044204 0.011018
-0.064944 -0.017127 -0.058931
-0.077119 0.015047 -0.042552
-0.065959 -0.012488 -0.057832
-0.066739 -0.006698 -0.053637
0.036891 -0.024379 0.069842
-0.024804 0.061016 -0.148553
-0.066334 -0.008559 -0.058256
0.034752 0.067817 -0.088827
0.045566 -0.009064 0.162017
-0.049508 0.029775 0.044089
-0.061612 0.023147 -0.007849
-0.067033 -0.015336 -0.059111
0.014171 0.012472 0.164854
-0.076430 0.011543 -0.024482
0.074036 0.004868 -0.047385
-0.070799 -0.005141 -0.019851
-0.062369 -0.024983 -0.037161
0.007631 -0.067756 -0.161417
-0.067348 0.014427 -0.059822
-0.058648 -0.013018 -0.163921
-0.036557 0.011818 0.048923
-0.061368 0.023294 0.007882
-0.065755 -0.016878 -0.096387
0.070784 -0.025922 -0.088527
0.007631 0.012674 0.058477
-0.064294 0.016875 -0.070573
0.059459 0.040499 -0.163921
-0.052535 -0.030505 -0.161163
-0.061612 0.005319 -0.091377
-0.051458 -0.018194 -0.053100
0.047504 0.049530 -0.161243
-0.075231 0.017533 -0.037081
-0.066716 -0.015755 -0.015171
-0.073006 -0.005048 -0.054002
-0.036133 -0.025798 0.049219
-0.064628 0.017576 -0.036941
0.074942 -0.007346 -0.033674
-0.067369 -0.004711 0.006131
0.059829 -0.019845 0.137170
0.070496 0.017121 -0.010469
-0.061369 -0.017198 -0.077157
-0.064305 -0.012104 -0.018304
-0.063140 -0.016563 -0.055136
-0.067367 -0.010616 -0.062104
-0.061639 0.028340 -0.028530
-0.061449 -0.028760 -0.018295
-0.061603 0.025975 0.004228
0.007631 0.055118 0.048858
-0.078662 0.002065 -0.033654
-0.013503 -0.045607 0.063598
0.003881 0.050376 0.059289
0.075611 -0.003419 -0.037109
0.055805 0.040294 -0.170707
-0.067297 0.001208 -0.063724
-0.067369 0.014333 -0.007381
0.066665 -0.023859 0.118541
-0.063236 0.000018 -0.087098
-0.063154 -0.017235 -0.022827
0.045974 -0.055628 0.008017
-0.065461 0.015628 -0.016397
-0.067274 -0.010536 0.003172
0.053852 -0.026433 0.082402
-0.062047 0.021809 -0.084161
0.016631 -0.045910 0.057690
-0.077548 0.011745 -0.028854
-0.058354 0.002990 -0.085547
0.041371 -0.007357 0.161680
0.035751 0.067542 -0.065489
0.021881 -0.005239 0.168095
-0.061718 -0.029816 -0.079815
-0.061469 -0.025180 -0.078523
0.020620 -0.072519 -0.064617
-0.041800 0.031942 0.045733
-0.067293 0.014335 -0.059582
-0.035465 0.047601 -0.170738
-0.028850 -0.026439 0.095369
0.044985 -0.061080 -0.014410
0.005631 -0.068563 0.040559
0.075325 0.000475 -0.031367
-0.062126 -0.002776 0.019522
-0.035153 0.009464 0.047072
0.039749 -0.026829 0.163158
-0.066777 0.001102 -0.019423
-0.029914 0.051900 -0.170762
-0.067369 0.012139 0.000235
-0.062659 -0.018550 -0.024523
-0.076430 -0.010742 -0.023821
-0.063836 -0.021053 -0.044327
-0.033001 0.010013 0.051720
-0.024429 0.061011 -0.151258
-0.067591 0.004016 -0.100829
-0.030593 -0.023908 0.132616
-0.064635 0.007611 -0.016071
-0.066986 0.003721 -0.081811
-0.066381 -0.003756 -0.060898
-0.063300 -0.022618 -0.040242
-0.062248 -0.026445 -0.003093
-0.067369 0.000395 0.001209
0.013720 -0.063848 -0.161390
0.044673 0.059947 -0.150053
0.064040 0.011690 0.130967
0.039866 0.009612 0.073287
-0.013738 -0.060702 -0.163642
-0.005163 -0.060224 0.044846
-0.054869 0.020892 0.010435
0.070780 -0.028238 -0.163372
0.022764 -0.028106 0.041390
-0.062371 -0.017710 0.010507
-0.066400 -0.006959 -0.015332
-0.062337 0.026390 -0.071056
0.007631 0.072615 -0.003579
0.003587 0.003885 0.166552
0.073090 0.000017 -0.013675
-0.066570 -0.009906 0.005062
-0.062102 0.006010 0.025603
-0.065938 -0.013840 -0.058213
0.063607 0.033582 -0.170672
0.039992 -0.061775 -0.113343
0.057142 -0.030379 0.094868
0.007631 0.070672 -0.113438
0.022502 -0.050793 0.041375
0.053381 -0.030412 0.084757
0.065484 -0.023892 -0.170664
0.001341 -0.063837 -0.163686
-0.067369 -0.000698 -0.002603
-0.068221 -0.012622 -0.023684
0.021011 0.061886 -0.170858
-0.056791 -0.026919 -0.057696
-0.063341 -0.015784 -0.057095
-0.078662 0.003349 -0.039280
-0.060391 -0.019560 0.021089
-0.078724 -0.001670 -0.028679
-0.066327 0.009790 -0.017286
0.075634 0.006491 -0.027282
-0.065060 -0.016406 -0.030768
-0.030873 0.008359 0.094045
0.045282 -0.057312 -0.137987
-0.062369 -0.024983 -0.037085
0.044542 -0.062793 -0.068814
0.019257 -0.068692 -0.163776
-0.065096 0.016669 -0.016595
0.030179 0.009781 0.166392
0.053594 0.004155 0.147420
-0.065877 -0.013808 -0.025749
-0.064633 0.018656 -0.050285
-0.063999 -0.016400 -0.002682
-0.058138 -0.032130 -0.063272
-0.068000 -0.009019 -0.052733
-0.077414 0.012347 -0.028873
-0.002817 0.005395 0.164319
-0.064111 -0.016129 -0.072759
-0.066071 -0.010506 -0.017061
-0.077369 0.008441 -0.024762
-0.079044 0.005952 -0.037615
0.059307 -0.030360 0.098227
-0.078432 0.001464 -0.038465
0.005631 -0.053393 0.053911
-0.061347 -0.028413 -0.002520
0.003881 0.057201 0.047887
-0.064910 0.016578 -0.057605
-0.062582 -0.009815 -0.163776
-0.040418 0.046343 -0.170716
-0.066027 0.001832 0.008722
-0.066228 -0.011962 -0.050210
-0.077119 -0.015954 -0.036133
0.074173 -0.004242 -0.021436
0.037985 -0.017725 0.067781
-0.066840 -0.001389 -0.054896
-0.055205 0.018934 -0.058597
-0.062248 0.024128 -0.078692
-0.065013 -0.016575 -0.016561
-0.049148 -0.006625 0.048105
-0.065261 -0.015631 -0.029027
0.019504 -0.047292 0.050814
-0.062991 0.023380 -0.067059
0.003470 -0.024503 0.070212
0.003881 0.011420 0.049030
0.003528 -0.025012 0.169140
-0.062126 0.024453 -0.077963
-0.065725 0.015606 -0.016353
-0.062675 -0.017426 0.015349
0.015631 0.012264 0.069597
-0.066588 -0.006778 -0.053350
-0.064450 -0.007127 -0.058369
-0.066291 -0.010243 -0.017543
-0.063455 -0.016588 -0.078325
-0.062126 0.021659 0.008640
-0.064907 -0.017702 -0.034704
-0.070799 0.010757 -0.022655
-0.075867 -0.009268 -0.051790
-0.061928 -0.020516 -0.027909
0.070277 0.019275 -0.163921
-0.060184 0.032813 -0.003434
0.038549 -0.024350 0.072191
-0.021022 -0.061094 0.040286
-0.064364 -0.008995 -0.016513
-0.017219 -0.026611 0.085312
0.016718 0.012517 0.164988
-0.066417 0.003665 -0.015117
-0.065144 -0.016478 -0.021544
0.020454 0.012451 0.057254
-0.068000 0.009054 -0.021429
-0.063349 -0.006391 0.020548
0.005631 0.065308 -0.166920
-0.066792 0.015720 -0.059309
-0.063406 0.022309 -0.037571
-0.066570 -0.006888 0.006958
-0.077369 -0.007689 -0.024302
-0.063439 -0.022062 -0.007861
-0.079044 0.000549 -0.042998
-0.035753 -0.025107 0.117254
0.062461 0.042405 -0.163373
0.075336 -0.011314 -0.163841
0.066665 -0.023859 0.118541
-0.008151 -0.018610 0.161577
-0.062409 -0.021818 -0.078910
-0.053547 -0.031162 -0.161159
-0.036720 0.056923 0.039653
-0.061276 -0.016539 -0.091796
0.049603 -0.020099 0.080190
-0.041154 -0.021493 0.048245
-0.063380 -0.015359 0.005986
-0.062268 -0.014830 0.016298
-0.028850 -0.026439 0.095369
0.075342 -0.014867 -0.040854
-0.077375 -0.012820 -0.044750
-0.060901 0.032638 -0.037591
-0.076863 -0.013173 -0.027012
-0.063013 0.012038 -0.079102
-0.062398 0.011774 0.014807
-0.004504 0.054310 0.046384
-0.058878 -0.029409 -0.085607
-0.051369 -0.026583 -0.085656
-0.020522 0.012869 0.048873
-0.063417 -0.021824 -0.032273
-0.063418 0.015507 -0.056988
-0.061812 0.026757 -0.076286
0.036868 0.051864 0.028721
-0.040650 -0.046831 -0.163921
0.030062 -0.024498 0.166088
-0.006364 -0.005753 0.162638
-0.031492 -0.023893 0.106508
-0.068625 -0.017351 -0.030760
0.029151 0.012299 0.167248
-0.064255 0.016821 -0.002898
-0.065037 0.016912 -0.031925
-0.079049 -0.004533 -0.041057
-0.062337 -0.005917 -0.093083
-0.066141 -0.003562 -0.061156
0.040567 -0.026793 0.158265
-0.079049 0.006035 -0.037623
-0.066425 0.003094 -0.059132
-0.059919 0.027000 -0.085393
-0.063675 -0.001703 -0.084190
-0.068221 0.009227 -0.053032
-0.063755 -0.021108 -0.044356
-0.063774 0.014732 0.001414
-0.064876 0.017493 -0.039639
-0.030497 -0.012278 0.100670
-0.064990 -0.017229 -0.058931
0.038380 -0.004343 0.163272
-0.061502 -0.012863 0.023418
-0.065579 -0.014319 -0.054559
0.038226 -0.024356 0.071864
-0.062991 0.023380 -0.067059
-0.013928 0.071116 -0.063951
-0.062369 -0.024983 -0.037086
-0.050330 0.029396 -0.163474
-0.063460 0.022161 -0.039674
0.020605 -0.072319 -0.089640
-0.050975 -0.036842 0.039850
-0.060582 -0.016759 -0.002586
-0.065928 -0.016165 -0.015506
-0.065041 0.017113 -0.058126
-0.068416 0.007342 -0.054063
0.026859 -0.069848 -0.014531
-0.040376 0.051414 -0.163840
0.027998 0.070536 -0.063979
0.039628 0.010539 0.068162
0.045087 -0.012863 0.022341
-0.065784 -0.012429 -0.018230
-0.068000 -0.016966 -0.030900
-0.062371 -0.018999 0.009147
0.009523 0.012387 0.071459
-0.064858 0.016745 -0.016280
0.044333 0.059961 -0.064636
-0.066570 0.003559 0.008135
-0.068416 0.015469 -0.026919
0.076663 0.008225 -0.035871
-0.065421 -0.015484 -0.002344
-0.066289 0.011737 -0.050553
-0.065648 -0.013763 -0.016897
0.064721 -0.041389 -0.139543
-0.062423 0.024638 -0.003740
-0.029949 0.011458 0.095694
-0.059494 0.000017 -0.169058
-0.002374 -0.018870 0.161116
-0.030231 -0.052300 -0.163566
0.003881 0.069644 0.004032
-0.063314 -0.022502 -0.040225
-0.015853 -0.067471 -0.088096
-0.065421 0.016333 -0.007381
-0.062093 0.006128 0.025571
0.016631 0.012517 0.067099
0.073043 -0.014039 -0.024507
0.027317 -0.009281 0.168352
-0.057179 0.005580 -0.163427
-0.063596 0.007512 -0.082382
0.074545 0.017414 -0.163375
0.076305 0.007256 -0.163610
-0.063192 0.016395 -0.016685
-0.067331 0.014716 -0.059952
0.007631 0.073160 -0.115971
0.075826 -0.012429 -0.043651
-0.066089 -0.016151 -0.066785
-0.066902 0.015215 -0.015606
0.007631 0.056823 0.048497
-0.066408 -0.008267 -0.016632
-0.062408 0.021330 0.005691
-0.064550 -0.017312 -0.007061
-0.079049 -0.000794 -0.043069
-0.002817 -0.018605 0.164319
0.005631 0.072051 -0.014616
0.040578 -0.025591 0.164793
-0.062369 0.021951 -0.082036
-0.077414 0.009732 -0.048292
0.019155 0.012801 0.057469
-0.063162 0.011062 -0.092467
-0.015698 0.048928 0.052736
-0.059855 0.000017 0.039462
0.000496 -0.069892 0.035126
-0.062337 -0.024011 0.004491
0.073904 -0.012649 -0.063741
0.060570 0.011750 0.140713
0.075402 -0.012109 -0.046879
-0.002374 -0.070650 -0.038458
0.040507 -0.054564 -0.161273
-0.064466 0.018917 -0.048959
-0.068074 0.010927 -0.022427
-0.077293 -0.013433 -0.043694
-0.067034 0.015371 -0.015056
-0.027368 -0.030349 0.140597
-0.034557 -0.024373 0.108026
-0.063632 0.009278 -0.081383
-0.066379 -0.005651 -0.015118
-0.056323 -0.011675 -0.163439
0.001253 -0.067546 -0.161398
-0.023029 -0.020094 0.148511
-0.067327 0.002256 -0.010400
0.007631 0.066573 -0.163921
-0.067134 0.008266 -0.099078
-0.033274 -0.023862 0.114259
-0.070799 0.016090 -0.029009
-0.008669 -0.048192 0.063514
-0.062418 0.024149 -0.072997
-0.065525 -0.014078 -0.057090
-0.065777 -0.013933 -0.056915
0.007631 -0.052419 0.048493
-0.064541 0.003437 -0.014889
0.016212 -0.007859 0.168411
-0.063251 -0.005861 -0.086246
-0.030370 -0.008861 0.100566
-0.062408 0.021330 0.005691
0.027397 -0.068068 -0.064068
-0.063939 -0.015400 0.000193
-0.005799 -0.005313 0.162932
0.007631 -0.060660 0.047829
-0.079044 0.005905 -0.036285
-0.031012 0.010473 0.096031
0.003881 -0.065043 0.041595
-0.066753 0.003565 -0.054413
-0.064891 0.017255 -0.061870
-0.062369 -0.026530 -0.067081
0.009363 0.010395 0.170352
0.009511 0.012241 0.169129
-0.066328 0.005674 -0.013400
-0.075867 0.015492 -0.045024
-0.048814 0.042881 -0.163609
-0.079044 -0.002069 -0.031519
-0.015766 0.050082 0.051867
0.056830 -0.018622 0.147867
-0.013960 0.013949 0.062594
-0.067369 -0.010106 0.002742
-0.068625 -0.005283 -0.054787
0.037363 -0.026707 0.063485
-0.013181 0.047080 0.063061
-0.062126 -0.026480 -0.071075
0.076062 -0.004228 -0.039630
-0.064657 0.006130 -0.100060
-0.061387 0.028807 -0.009217
-0.019165 -0.026608 0.153819
-0.075867 -0.017346 -0.038112
-0.027891 0.009240 0.139462
0.017451 -0.024718 0.167411
0.068138 -0.025295 -0.008259
-0.068416 -0.017361 -0.043406
-0.062126 0.013416 0.016126
-0.057303 -0.013705 -0.161444
-0.030065 0.010985 0.093052
-0.050208 -0.041015 -0.163379
-0.066027 0.003623 0.008417
-0.079044 -0.004470 -0.033161
0.003594 -0.004495 0.166531
-0.061266 0.022434 -0.035121
-0.066801 -0.003748 -0.019708
-0.064258 -0.016713 -0.071136
-0.041931 -0.031677 0.045731
-0.051369 -0.026482 -0.088081
-0.077414 -0.014817 -0.037081
-0.041106 0.006804 0.045745
-0.078135 0.008423 -0.045396
0.016212 0.010010 0.168411
0.030062 -0.024498 0.166088
-0.063751 0.020981 -0.066662
-0.062461 0.010690 -0.163775
-0.007979 -0.068972 0.034892
-0.064867 -0.011688 -0.061604
0.069889 -0.015779 -0.006189
-0.000268 -0.065530 -0.170891
0.064509 -0.038550 -0.163841
-0.027291 -0.026466 0.143101
-0.007174 -0.065029 -0.163921
0.072024 0.010165 -0.011862
-0.030552 -0.011895 0.101094
-0.077936 0.011745 -0.042029
-0.067303 -0.014655 -0.014620
-0.065235 0.015420 -0.017242
0.065104 0.009171 0.129578
-0.067369 0.004462 -0.003293
-0.061300 -0.001881 -0.061508
0.016631 0.012517 0.167419
-0.020042 -0.030413 0.147314
-0.065458 -0.015260 -0.057651
-0.033048 0.011781 0.049673
-0.063229 -0.022809 -0.037081
-0.019026 0.010626 0.149042
-0.024734 0.055173 -0.170784
-0.064644 -0.017918 -0.023357
0.024634 -0.051557 0.037536
-0.066017 0.009813 -0.057422
-0.062369 -0.019074 0.009071
-0.065421 -0.015484 -0.002344
-0.065011 0.016223 -0.021373
0.071879 0.012961 -0.163921
-0.060809 -0.026555 -0.074398
-0.013017 -0.063261 -0.163921
-0.066199 -0.007591 -0.058043
-0.029517 -0.016929 0.056153
0.067647 -0.025131 0.105951
-0.024096 -0.018622 0.147137
-0.024555 0.060955 -0.151141
-0.061612 -0.024029 -0.066833
0.030502 0.009775 0.166342
-0.062126 -0.021624 -0.082802
0.076653 -0.002106 -0.163611
-0.062856 -0.017583 -0.051117
-0.070799 0.013795 -0.048642
0.019453 -0.005858 0.168016
0.007631 0.069648 -0.163841
-0.066528 -0.001333 -0.014942
-0.061612 0.001609 -0.087151
-0.079049 0.004193 -0.032714
-0.064990 0.017263 -0.058931
-0.061612 -0.001575 -0.087151
-0.065050 -0.017095 -0.041857
-0.065936 -0.003357 -0.062126
0.063398 -0.026373 0.117898
0.055260 0.049794 0.002594
-0.054612 0.026421 -0.001469
-0.076430 0.009972 -0.023207
0.046648 0.054446 0.017721
-0.060237 -0.025493 -0.086643
-0.040656 0.054388 -0.013776
-0.065145 0.016831 -0.057444
-0.055771 -0.018351 -0.056241
-0.067014 -0.003462 -0.062903
-0.065310 -0.015436 -0.045505
-0.064744 0.003541 -0.059139
-0.063260 0.009411 0.010774
-0.064652 0.000814 -0.059437
-0.073006 -0.005048 -0.020161
-0.065854 -0.013862 -0.019889
-0.029582 0.011668 0.126483
-0.017653 -0.051123 0.046155
-0.055341 -0.032211 0.034013
-0.066374 0.014547 -0.058038
-0.056869 0.012163 0.017430
-0.077414 0.009262 -0.048654
-0.065029 0.017152 -0.015928
0.065941 -0.020086 0.126123
0.050504 0.053390 -0.137982
-0.066247 -0.010397 -0.056676
-0.077375 0.005138 -0.023013
-0.062855 0.017943 -0.050532
-0.062974 -0.002550 -0.163840
-0.062411 -0.022828 -0.076849
-0.062194 0.018750 -0.087397
-0.066999 0.015492 -0.007381
-0.044715 -0.041442 -0.170697
-0.056616 -0.032545 0.010920
0.038428 -0.017900 0.070381
-0.055951 0.010929 -0.170648
-0.064444 -0.018956 -0.048841
-0.063013 0.004417 -0.083502
0.031589 0.054082 0.032614
-0.029046 0.003911 0.138446
0.044542 -0.062793 -0.068814
-0.024096 -0.018622 0.147137
-0.066987 -0.007174 -0.080488
-0.063362 0.000018 -0.011958
0.063214 -0.035340 0.000232
-0.064867 0.017363 -0.062238
-0.061995 -0.008295 -0.060753
0.045660 -0.019845 0.155114
0.049467 0.009444 0.154921
-0.063315 0.015918 -0.057170
-0.062976 -0.023428 -0.066350
-0.056869 -0.008424 0.018939
-0.013971 0.064562 -0.161331
-0.066185 0.009486 -0.014673
0.009131 -0.020120 0.167787
-0.063795 -0.010492 -0.080695
-0.054612 0.027011 -0.067081
0.054658 -0.047684 -0.161212
-0.063013 -0.012003 0.004940
-0.077375 -0.001989 -0.022285
0.059966 -0.026327 0.145551
0.003881 -0.071363 -0.088165
-0.065816 -0.013246 -0.048669
-0.077375 0.010326 -0.047865
-0.068221 -0.017290 -0.030782
-0.061736 -0.024914 0.006294
-0.067185 0.008712 -0.099912
-0.067266 0.013232 -0.073722
-0.008347 0.066043 -0.161356
0.055813 -0.020094 0.149191
-0.066992 0.015042 -0.070489
-0.062530 -0.018672 -0.024413
-0.065421 -0.011949 -0.014929
0.053380 -0.026591 0.084756
-0.067369 -0.001112 -0.002337
-0.054382 -0.038910 -0.063268
-0.077375 0.012085 -0.028313
-0.065594 0.014705 -0.046909
-0.064859 -0.017056 -0.058929
0.053381 -0.030412 0.084757
-0.066807 0.004170 -0.019720
-0.079044 0.004838 -0.033579
-0.065450 -0.014906 -0.016543
-0.064138 0.007077 -0.094165
-0.032615 -0.030303 0.116328
-0.063711 0.006037 -0.083301
-0.076086 -0.011365 -0.047026
-0.059753 -0.027383 -0.085271
-0.062369 -0.021671 0.005353
-0.062369 -0.026530 -0.067081
-0.061240 0.024313 -0.080143
0.030811 -0.003128 0.168856
-0.066563 -0.001844 -0.059067
-0.060182 0.033260 -0.008694
0.073765 -0.005978 -0.020823
-0.018980 -0.065330 -0.163373
0.058089 0.042102 -0.163921
-0.061531 -0.026917 -0.074462
-0.060613 0.014201 -0.057740
-0.075231 -0.017380 -0.039115
-0.016068 -0.026662 0.061930
-0.056323 -0.011675 -0.163439
-0.028114 0.009236 0.058262
-0.063475 -0.021962 -0.066185
-0.063044 0.016927 -0.058383
0.058939 -0.040415 -0.170693
-0.002844 -0.030563 0.072411
-0.079044 -0.001824 -0.031414
-0.063795 -0.010492 -0.080695
0.052918 0.015201 0.088048
0.077119 0.002553 -0.044622
-0.062126 -0.026480 -0.003087
0.007631 -0.070152 0.034563
-0.066322 -0.001189 -0.059322
-0.063729 -0.021423 -0.029201
-0.059445 0.000017 0.039994
0.039264 0.061015 -0.137994
0.017050 -0.024725 0.168411
-0.032957 0.003914 0.111197
-0.062369 -0.024983 -0.037081
-0.059222 -0.010186 -0.014875
0.029077 0.067275 -0.151877
-0.077375 0.009641 -0.025612
-0.060635 -0.013377 0.019425
-0.062369 -0.024983 -0.037082
-0.077119 -0.015954 -0.036133
-0.065565 0.015172 -0.021012
0.053380 -0.026591 0.084756
-0.026154 -0.018624 0.143821
-0.027065 0.004155 0.135875
-0.066681 0.002918 -0.019689
-0.061030 0.029538 0.006962
-0.062396 0.002473 0.017635
-0.022392 0.063987 -0.163374
0.016631 -0.027232 0.164926
0.017435 -0.025968 0.165247
0.037790 0.005130 0.075623
-0.061612 -0.019933 0.007764
-0.064881 -0.017329 -0.012138
0.014622 -0.065485 -0.170886
-0.065410 -0.011021 -0.078777
0.029061 -0.064971 -0.146252
0.060210 -0.043371 -0.137976
-0.062402 0.014579 0.013052
-0.068221 0.018311 -0.039219
-0.033448 -0.000755 0.053280
-0.031996 -0.026384 0.103967
-0.059890 0.026873 -0.016501
-0.017052 0.015223 0.154192
0.007631 0.070221 0.034181
-0.030016 0.011510 0.054667
-0.030593 -0.023908 0.132616
-0.066179 0.010923 -0.057067
-0.065732 0.012580 -0.057881
-0.020815 -0.019845 0.146805
0.027760 0.066673 0.026812
-0.075867 0.008415 -0.052314
0.039121 -0.060398 -0.148303
0.005631 0.072107 -0.136447
0.067574 -0.029068 -0.014166
0.074504 -0.007619 -0.029669
-0.063397 0.004509 0.020914
-0.030427 0.011696 0.051902
-0.063514 0.008509 -0.081789
-0.068625 -0.018340 -0.034935
0.042500 0.011630 0.024399
-0.014426 -0.026690 0.079374
-0.061791 0.027456 -0.075208
-0.056365 -0.032246 -0.112620
-0.068000 0.003156 -0.019282
-0.061612 0.001609 0.012988
-0.056333 -0.025011 -0.161146
0.022450 0.012416 0.056127
0.072131 -0.019305 -0.063782
-0.047117 -0.019091 0.048141
-0.063223 -0.004726 0.012514
-0.020425 0.051007 0.048585
-0.054869 -0.029026 -0.072870
0.063633 0.005130 0.113231
-0.062395 -0.006149 0.016988
-0.054869 -0.004715 0.019755
-0.063936 -0.013751 -0.019430
0.017495 0.015510 0.068426
-0.062369 0.021951 -0.082036
-0.073006 0.017204 -0.041154
0.072365 -0.005919 -0.170634
0.030185 -0.003649 0.166432
-0.062406 -0.019913 0.007749
-0.057879 -0.032880 -0.038638
-0.067369 0.004462 -0.003293
-0.027519 -0.056514 -0.170772
-0.028865 -0.026438 0.055551
-0.077369 0.014916 -0.037933
-0.065365 0.014882 -0.017265
-0.066242 -0.003488 -0.059409
-0.058357 0.013452 -0.080216
-0.064630 0.017083 -0.010005
-0.049665 0.044239 0.011018
0.039818 -0.018571 0.072820
0.066855 0.020700 -0.000310
-0.067369 -0.007599 0.004741
-0.062081 0.013042 0.017284
-0.009379 0.012039 0.157066
-0.065215 0.016489 -0.022153
-0.061921 0.020571 -0.046433
-0.067357 0.006670 -0.079462
-0.060817 -0.032442 -0.070469
-0.061608 0.028764 -0.056573
-0.030198 0.005130 0.124530
-0.063676 0.002043 -0.084156
0.050504 0.053390 -0.137982
-0.076086 -0.012958 -0.029329
0.016631 -0.025233 0.170917
-0.063575 -0.018492 0.000634
-0.066547 0.012508 -0.097666
-0.064741 0.017593 -0.037738
-0.064896 0.016996 -0.058309
0.074472 0.017395 -0.163607
-0.077375 0.013456 -0.043553
-0.066986 0.003721 -0.081811
-0.062051 0.020441 -0.046353
-0.015698 -0.048893 0.052736
-0.065419 0.001715 -0.062193
-0.066557 -0.007379 -0.080878
-0.065408 -0.003887 -0.082626
-0.064504 0.003406 -0.059381
-0.060817 -0.032451 -0.070197
-0.016376 -0.066404 -0.163373
-0.056053 0.030527 -0.163838
-0.064714 0.017151 -0.009999
0.064085 0.009894 0.004808
0.063633 -0.019845 0.113231
-0.064646 -0.001839 -0.014789
-0.048154 -0.013169 0.045622
-0.029777 -0.004357 0.058227
-0.062013 -0.013763 0.016783
-0.033061 0.009683 0.134086
-0.063761 -0.014576 0.001676
-0.065212 -0.016584 -0.043715
0.057806 0.047925 -0.163374
-0.029490 -0.016700 0.057633
-0.064916 0.017599 -0.050703
-0.067369 -0.000465 -0.003214
-0.075231 0.014537 -0.046860
-0.035349 0.012251 0.048878
-0.065580 -0.013824 -0.016925
-0.066858 -0.014284 -0.015549
-0.046486 0.042024 -0.161189
-0.066368 0.011242 -0.023201
-0.001885 -0.067124 -0.161384
-0.077414 -0.002928 -0.022543
-0.019862 0.050734 0.048651
-0.064458 0.005713 -0.058919
0.022551 -0.027129 0.056007
-0.066208 0.011775 -0.023874
-0.076863 -0.001456 -0.053610
-0.062771 0.017908 -0.050743
-0.062724 -0.006807 0.019775
-0.066221 0.012151 -0.050209
-0.035025 -0.020551 0.047491
-0.048986 -0.043776 -0.112683
0.050532 -0.051388 0.004661
-0.065670 0.014377 -0.026777
-0.060535 0.012834 0.034245
-0.065773 -0.012825 -0.057691
-0.051369 -0.025558 -0.086681
-0.024096 0.005377 0.147137
-0.013211 -0.060904 -0.163644
-0.077375 0.014395 -0.033113
-0.065728 -0.014342 -0.019420
-0.065421 0.010255 -0.014071
0.007631 0.012701 0.048493
-0.063243 -0.001036 -0.163777
-0.066221 -0.006993 -0.015913
0.007631 -0.064450 0.045693
0.073015 -0.017894 -0.031707
-0.063277 0.022254 -0.034663
-0.079044 -0.004627 -0.033376
-0.060517 -0.012799 0.034245
-0.066481 0.002870 -0.014490
-0.066515 0.005146 -0.058541
-0.048897 0.007513 0.045609
-0.060940 0.025895 -0.076498
0.015631 -0.026878 0.070907
-0.065857 -0.013709 -0.019626
-0.063538 0.018514 0.000995
0.030451 -0.024491 0.165438
-0.031330 -0.020087 0.132172
-0.053650 -0.013866 0.047043
-0.007399 -0.072492 -0.089104
-0.007568 -0.025547 0.077242
0.024131 0.005404 0.167787
0.017451 0.010003 0.068426
-0.064163 0.016354 -0.001333
0.038092 -0.026706 0.029888
-0.056816 0.039835 -0.014061
-0.062248 -0.016668 0.013842
-0.064550 0.017347 -0.007061
-0.066027 -0.011441 0.004077
-0.061659 0.030284 -0.081410
-0.061880 0.023818 0.008174
-0.029777 -0.004357 0.058227
0.077119 0.002553 -0.044622
0.062812 0.038465 -0.039189
-0.064020 -0.020309 -0.046338
-0.020042 -0.030413 0.147314
-0.063600 -0.008840 -0.093368
-0.026042 0.065303 -0.114360
-0.068625 0.009259 -0.021075
-0.059090 -0.014271 -0.057618
-0.040652 0.051716 -0.163609
-0.066715 0.005421 -0.053926
0.038270 0.009640 0.071815
-0.058882 0.029430 -0.085633
-0.067274 -0.014533 -0.004060
-0.061820 0.029561 -0.080521
-0.063656 0.021591 -0.044275
-0.063013 0.012038 0.004940
-0.063514 -0.008478 -0.081794
0.053371 0.046665 -0.170717
0.046043 0.060325 -0.014105
-0.064910 0.017370 -0.033789
0.058044 0.005377 0.089694
0.069168 0.009635 0.117639
-0.075867 0.014444 -0.046798
-0.054575 0.000017 0.044337
-0.057404 0.000017 -0.164256
-0.063686 -0.021549 -0.029511
-0.063326 0.022367 -0.037573
-0.038242 0.047566 -0.161528
-0.065623 -0.014011 -0.057104
0.067794 0.000017 -0.000093
-0.031909 -0.015901 0.058234
-0.062396 0.002473 0.017635
-0.060613 -0.015937 -0.057848
-0.058358 0.009338 -0.077889
-0.059290 0.013986 -0.060210
0.076323 -0.007439 -0.047218
-0.075231 -0.012002 -0.024341
-0.064044 0.015337 -0.075105
-0.060182 -0.033225 -0.008694
-0.041614 0.050254 -0.163840
0.005631 -0.065523 -0.164045
-0.011004 0.046158 0.064662
-0.031506 -0.050763 0.047352
0.043776 0.011054 0.072987
-0.065642 0.014728 -0.056662
-0.063017 -0.023322 -0.007881
-0.031281 -0.013819 0.052042
-0.077293 0.014398 -0.041304
0.024634 0.051592 0.037536
-0.063835 0.015413 -0.074340
0.076316 -0.006037 -0.113174
0.021053 -0.053969 0.040054
-0.061612 0.004754 -0.086649
-0.030167 -0.014699 0.056276
-0.058766 0.026902 -0.017607
-0.055036 -0.024904 -0.163921
0.072666 0.005208 -0.012399
0.005631 0.073199 -0.063881
0.059029 0.003909 0.091217
0.028707 -0.065207 0.028608
-0.066227 -0.014259 -0.058091
0.034059 0.064535 0.022566
-0.064279 0.016981 -0.068850
-0.067274 0.013463 -0.000906
-0.066542 -0.001124 -0.062626
-0.063056 0.004423 0.020428
0.029613 -0.024506 0.030957
-0.030622 0.010770 0.095456
-0.012292 0.052659 0.049381
-0.052349 -0.038169 0.033969
-0.015698 0.013919 0.052736
-0.064466 0.018917 -0.048959
-0.062337 -0.013318 0.016016
0.003881 0.056927 0.046400
-0.065459 -0.015302 -0.057657
-0.065421 0.011984 -0.014929
0.064176 0.015102 0.105677
-0.066355 0.014090 -0.015884
-0.029950 -0.026420 0.101171
-0.033269 0.011646 0.109663
0.035764 0.059297 -0.170794
0.018572 0.015500 0.070959
-0.060612 0.015654 -0.002301
-0.032106 0.003914 0.106884
-0.063698 -0.014358 -0.054435
0.015631 -0.030488 0.070907
-0.051369 -0.029383 -0.085656
-0.006685 0.064596 -0.170863
-0.065438 0.016280 -0.058563
-0.061612 0.017268 -0.077461
-0.014978 0.050333 0.053069
-0.060446 0.031698 0.001236
-0.063751 -0.019689 -0.070755
-0.064792 0.016957 -0.015885
-0.063010 0.014957 -0.090427
-0.068416 -0.003194 -0.018868
-0.020815 0.005130 0.146805
-0.063824 0.020578 -0.006910
0.033713 0.005396 0.165273
0.020972 -0.052942 0.042079
-0.070799 0.016918 -0.030930
-0.075231 0.014537 -0.046860
0.003641 -0.030619 0.072750
0.073147 -0.005684 -0.036954
0.005631 0.068147 0.039374
0.070083 0.005741 -0.012204
-0.065013 -0.016573 -0.057600
-0.063511 -0.018116 0.001749
-0.067016 -0.012270 -0.060057
-0.026208 0.066038 -0.013727
-0.038287 0.059529 -0.064133
-0.062369 -0.024650 -0.071150
-0.063262 -0.007381 0.011550
-0.064475 -0.005001 -0.059069
-0.076430 0.015209 -0.044879
0.038906 -0.011200 0.030138
-0.068416 0.011061 -0.022247
-0.066570 -0.012426 0.002542
-0.061277 0.022405 -0.039345
-0.028407 -0.052985 -0.170768
0.073897 -0.001503 -0.020026
-0.062369 -0.012555 -0.088690
-0.065916 -0.012872 -0.057627
-0.064990 0.017263 -0.058931
-0.068221 0.018311 -0.034943
0.074896 -0.016341 -0.037691
0.025156 -0.065744 -0.153211
0.068562 -0.025753 0.119774
-0.064220 0.012778 -0.055432
-0.062316 -0.020050 -0.086168
-0.061397 -0.016945 -0.163609
0.070185 0.004043 -0.003745
-0.063791 0.020753 -0.007125
-0.032152 -0.018629 0.106875
-0.005092 -0.046738 0.061989
-0.063935 0.020862 -0.046461
-0.062988 0.023389 -0.007108
-0.063751 0.019724 -0.003407
-0.077414 -0.009242 -0.048654
0.055714 -0.048506 -0.137978
-0.065089 -0.015890 -0.021068
0.007631 0.066599 0.038103
-0.079044 -0.002561 -0.042433
-0.073006 -0.006978 -0.020863
-0.055296 0.032372 0.034012
0.075394 0.005349 -0.025841
-0.067357 -0.006636 -0.079462
-0.068221 0.017325 -0.043381
-0.066521 -0.004837 -0.015555
0.074769 -0.008321 -0.030310
0.056167 0.048927 -0.163841
-0.016358 -0.052383 0.048664
-0.062402 0.013094 0.017337
-0.075867 0.004602 -0.053860
-0.062577 -0.018597 -0.024474
0.029340 -0.026999 0.073040
-0.066779 0.014316 -0.015596
0.030107 -0.024830 0.164241
-0.068221 0.015406 -0.026960
0.014594 0.069426 -0.163776
0.061073 -0.047489 -0.064342
-0.019752 -0.051054 0.048621
-0.066224 -0.009032 -0.059426
-0.070799 0.015044 -0.027198
-0.070799 0.012360 -0.023999
-0.020522 -0.027584 0.048873
0.075018 -0.003341 -0.058566
0.024348 0.060603 0.036758
-0.064879 -0.017801 -0.038537
-0.047198 0.049687 0.034101
-0.066521 -0.004837 -0.015555
-0.066155 0.010519 -0.056722
-0.032163 -0.063094 -0.013793
-0.064267 -0.011212 0.023280
-0.063176 0.020359 0.019553
0.022450 0.012416 0.056127
-0.062369 -0.024983 -0.037082
-0.067369 -0.013940 -0.004196
-0.063926 -0.015281 -0.074601
-0.065449 0.016139 -0.058254
0.045918 -0.061068 -0.114557
-0.068000 -0.013828 -0.048699
0.021494 -0.053381 0.040232
-0.064174 0.016343 -0.072532
-0.065410 0.011056 -0.078777
-0.018988 0.012889 0.049161
-0.064880 0.017771 -0.059134
-0.061498 -0.026756 0.002183
-0.058769 -0.026869 0.005523
0.046002 -0.007358 0.074113
0.019620 0.012805 0.048598
0.069168 0.009635 0.117639
-0.064020 -0.020309 -0.046338
-0.061885 0.029373 -0.080979
-0.064019 -0.008951 -0.093602
-0.062396 -0.010203 -0.089729
-0.064880 0.017771 -0.015028
-0.012686 -0.045596 0.064337
0.013737 0.063881 -0.161390
0.060128 0.011758 0.092003
0.009131 -0.018870 0.164613
-0.035478 -0.055991 -0.163608
-0.066014 -0.005729 -0.081937
0.074410 -0.015846 -0.041857
-0.067675 0.001899 -0.101013
0.064258 0.009186 0.103369
-0.058877 0.026359 0.006746
-0.063067 -0.012846 -0.112516
0.006978 -0.009757 0.167395
0.009380 -0.068579 -0.150258
-0.063229 0.022389 -0.037574
0.066668 0.003915 0.117669
0.027502 -0.009848 0.169693
-0.062518 -0.024595 -0.006450
-0.030626 -0.012146 0.101393
-0.066089 -0.016151 -0.066785
0.035450 0.061280 0.026011
-0.010707 -0.046738 0.064509
-0.062756 -0.024005 -0.066858
-0.062414 0.024888 -0.067968
-0.064370 0.022093 -0.091622
-0.013742 0.049489 0.049434
0.074650 -0.009589 -0.032583
-0.062408 0.021330 0.005691
0.006631 0.015430 0.071995
0.048648 0.009789 0.153993
0.026474 0.065817 -0.146655
-0.042544 -0.054121 0.034115
-0.066190 -0.009662 -0.059157
-0.065288 -0.018938 -0.095160
-0.076863 -0.001456 -0.020552
0.014947 0.055282 0.043996
0.005631 -0.069613 -0.163841
-0.066094 -0.016151 -0.007381
-0.065706 -0.016080 -0.015882
-0.068625 0.003227 -0.055283
0.003881 0.073098 -0.064468
0.016631 -0.025915 0.170797
-0.060879 0.032269 -0.072020
-0.062248 0.002017 -0.093768
0.039646 0.060075 -0.149341
0.055998 -0.026509 0.092244
-0.062369 0.025017 -0.010309
-0.066292 -0.007339 -0.060028
0.026500 -0.065490 -0.150010
-0.063592 0.007242 0.008349
-0.035755 -0.014151 0.047477
-0.064882 0.017792 -0.051414
-0.064785 0.016975 -0.015772
0.005631 -0.055173 0.048061
0.068900 -0.012897 -0.011148
-0.066027 0.016222 -0.007381
-0.065770 -0.012742 -0.057748
-0.060375 -0.031899 0.001298
-0.031424 0.009506 0.113880
-0.060432 -0.027175 -0.002707
-0.066027 -0.005335 0.007914
-0.061612 0.024063 -0.007330
-0.064242 -0.010346 -0.017054
-0.065720 0.015278 -0.057692
-0.018934 0.051185 0.048730
-0.063223 -0.004726 0.012514
0.073900 0.008736 -0.025368
0.041368 -0.024051 0.070500
-0.062359 0.004711 -0.096459
