-0.083750 0.010268 0.127937
-0.083750 0.002774 0.131438
-0.084045 0.001687 0.100980
-0.072052 0.011537 0.156937
-0.048775 0.046917 -0.008427
0.069324 -0.010186 -0.010598
-0.070806 0.016939 0.083941
0.069177 -0.004246 0.113151
-0.068316 0.023497 0.160777
-0.038981 -0.025608 0.204708
0.057426 -0.027389 -0.017889
-0.043659 -0.014243 0.202409
-0.068237 -0.024807 0.085147
-0.063422 -0.026937 0.137085
-0.017683 0.045789 0.217468
0.013284 -0.064601 -0.018082
-0.016685 -0.030517 0.309316
-0.072143 0.014068 0.098060
-0.065306 0.029860 0.066878
-0.030511 0.060745 0.002382
0.049636 0.010537 0.296565
-0.016136 -0.067941 -0.011054
0.044673 0.055813 0.138718
-0.001000 -0.062689 0.199824
0.038799 0.058373 -0.010595
0.007250 -0.026241 0.222465
-0.070206 -0.010869 0.158790
-0.068243 0.008716 0.168990
0.069389 -0.009369 0.106041
-0.067410 -0.032613 0.080706
-0.085680 0.005798 0.117378
-0.073474 -0.000000 0.133549
-0.071626 -0.017001 0.136777
-0.069000 -0.025000 0.115675
-0.069847 -0.002248 0.165734
0.020848 0.069661 0.138551
-0.073456 0.001641 0.097999
-0.070377 0.010453 0.159239
-0.061500 0.020801 0.064699
0.011999 -0.067569 0.003450
0.068986 -0.006042 0.014885
-0.070955 0.006431 0.058270
-0.072504 -0.012305 0.097092
-0.067243 -0.013301 0.155064
-0.045772 -0.053524 0.186799
-0.075047 0.012691 0.129152
-0.073625 -0.015474 0.085995
-0.072899 -0.010114 0.135451
0.053198 -0.018887 0.289951
-0.072604 -0.016028 0.136991
-0.070039 0.015672 0.131803
0.015887 0.052248 0.193038
-0.074852 -0.003198 0.133839
-0.085355 -0.008406 0.114031
0.032951 0.013094 0.179795
-0.054674 -0.044633 0.186732
-0.044918 -0.059511 0.088648
-0.064309 -0.025956 0.186859
0.059458 0.039927 0.089083
-0.071511 -0.017349 0.091341
-0.058089 -0.018211 0.099681
-0.069860 -0.022827 0.115700
-0.074852 -0.012640 0.102303
-0.011654 0.051398 0.202063
0.036018 0.003555 0.224037
-0.060929 0.023724 -0.008677
-0.070008 -0.015277 0.072517
0.040436 0.060344 0.039118
0.043872 -0.024159 0.233856
0.019565 -0.066817 -0.011060
-0.069000 0.023996 0.078684
0.054525 -0.019863 0.254757
-0.083061 0.016007 0.121646
-0.070440 -0.010983 0.158936
-0.074000 -0.004773 0.150805
0.033878 -0.001961 0.225887
-0.067243 -0.015637 0.150481
0.053941 0.015117 0.293492
-0.070775 -0.019201 0.127518
0.012874 0.014375 0.210219
0.066237 -0.007183 0.117375
-0.071145 0.002495 0.138130
0.016600 -0.052556 0.191537
0.020726 -0.070725 0.088205
-0.069856 -0.022837 0.114818
0.001000 0.010157 0.212237
-0.070206 0.010869 0.072610
-0.073871 -0.014992 0.145400
-0.005181 0.048349 0.212652
0.050650 -0.039487 -0.008419
-0.060097 -0.038595 0.163752
0.034740 -0.007375 0.314461
-0.077430 0.016072 0.123772
-0.039371 0.010840 0.204256
-0.072921 -0.011714 0.129172
-0.070404 -0.014729 0.154204
-0.070295 -0.014336 0.095731
-0.074000 -0.004728 0.158912
0.065088 0.013939 -0.011140
-0.070492 0.020235 0.146550
0.001000 0.060658 0.200617
-0.066914 -0.032998 0.144089
-0.069387 -0.024023 0.085923
-0.069000 -0.026547 0.085700
0.002989 0.012378 0.321155
-0.068879 0.024111 0.074089
0.069321 -0.001495 0.113867
-0.073132 0.001795 0.092928
0.041121 -0.019863 0.235089
0.058244 0.031128 -0.017886
-0.025900 0.015187 0.241039
-0.082717 0.000678 0.130800
-0.038192 -0.026409 0.203193
-0.072148 -0.015390 0.106648
0.015948 -0.027146 0.319841
-0.077430 0.015027 0.105817
-0.074000 -0.003164 0.147691
-0.069033 0.014925 0.065845
-0.070805 -0.016326 0.151151
-0.071563 -0.017618 0.102286
-0.072646 -0.010746 0.073866
0.059758 -0.020103 0.266233
-0.068243 -0.018671 0.153230
-0.074000 -0.003442 0.155626
-0.068194 -0.021735 0.162834
-0.068243 0.014942 0.165577
-0.084179 -0.008406 0.127300
-0.070957 -0.019038 0.127405
-0.066849 -0.017583 0.169609
-0.005166 -0.004262 0.318721
-0.072689 0.012569 0.097554
0.017500 -0.018887 0.317395
-0.047007 0.051397 -0.011059
0.053827 0.022424 0.161310
0.052344 -0.030380 0.295494
0.070322 0.007129 0.113286
-0.085680 -0.004550 0.111725
0.035132 0.015281 0.228588
-0.067148 -0.012817 0.187026
-0.069698 0.012863 0.040265
-0.070910 -0.016964 0.147469
0.033763 0.008126 0.180196
-0.072604 -0.016028 0.136991
-0.068757 0.024436 0.074818
0.044014 0.040683 0.170483
-0.085675 0.003283 0.120673
-0.074000 -0.013513 0.150128
-0.069052 0.024475 0.081423
-0.067907 -0.016556 0.060985
-0.073167 -0.014288 0.094478
-0.071517 -0.017691 0.102219
-0.002750 -0.055104 0.199312
0.028266 -0.063881 -0.010995
-0.011830 -0.049419 0.214812
-0.030632 -0.024370 0.296681
-0.064985 -0.005871 0.067930
-0.039632 0.009995 0.204501
-0.074631 -0.010793 0.101203
-0.069105 -0.024730 0.085212
-0.066907 0.032600 0.148400
-0.064382 -0.031018 0.154116
0.034803 -0.053995 -0.008488
0.059458 0.032994 0.138883
0.010804 0.010321 0.318943
-0.001000 -0.065594 0.197628
-0.072657 0.011681 0.128860
-0.071996 0.014865 0.135516
-0.045093 0.013119 0.201117
-0.085680 0.006018 0.115158
-0.061836 0.018917 0.094185
-0.082498 0.008398 0.100467
-0.072337 0.016098 0.136899
-0.081862 -0.016724 0.110593
-0.083494 0.006237 0.131078
-0.064754 0.032100 0.087207
-0.067243 0.005081 0.161037
-0.069000 0.023918 0.074182
-0.074000 -0.004331 0.154737
-0.070928 0.019085 0.127759
-0.073968 -0.014671 0.138583
-0.069000 -0.025000 0.114050
-0.070683 -0.010822 0.053976
0.054364 0.005112 0.254441
0.069432 0.006635 0.064347
-0.071987 -0.015622 0.099792
-0.070517 0.023904 0.061869
-0.070172 0.000306 0.068667
-0.069034 0.015723 0.066479
0.015871 -0.050810 0.194156
-0.063943 0.016683 0.097044
-0.068680 -0.020176 0.105761
-0.021683 -0.051310 0.203661
-0.071655 -0.017251 0.136853
-0.072508 -0.013826 0.127032
-0.068338 -0.021638 0.121558
0.012822 -0.009973 0.316700
-0.072374 0.014289 0.133419
-0.085293 0.002346 0.112470
-0.031683 0.015136 0.244231
-0.072923 -0.007356 0.092753
-0.083750 -0.015009 0.121163
0.068443 -0.007297 0.117880
-0.073920 0.014845 0.138258
-0.073990 -0.010716 0.076502
-0.002750 -0.052424 0.201908
-0.068757 0.024436 0.156582
-0.069227 -0.024425 0.145943
-0.020859 -0.027715 0.215288
-0.038561 0.001528 0.249525
-0.070023 -0.015689 0.158370
-0.071874 0.016371 0.131508
-0.068243 -0.017250 0.156080
0.034167 -0.016215 0.217973
0.058736 0.011649 0.257138
-0.041675 -0.058404 0.139034
-0.067863 -0.006098 0.187114
-0.070243 0.011918 0.157845
-0.022083 0.064704 0.187293
0.056928 -0.040826 -0.010592
0.067779 -0.015863 0.110924
-0.077430 -0.017501 0.119848
-0.026493 -0.050717 0.201432
-0.070354 -0.007290 0.070125
-0.085064 -0.001952 0.115254
-0.069422 -0.023933 0.145395
0.063920 -0.028155 -0.010994
-0.070090 0.017282 0.156099
-0.068243 0.023129 0.086468
0.062355 -0.025125 0.272570
0.069204 0.008413 0.112647
-0.077430 -0.010740 0.130127
-0.068000 -0.021529 0.158510
0.070197 -0.001476 0.104691
0.033118 -0.026846 0.315939
0.067266 -0.001520 0.132755
-0.067908 0.022388 0.113436
-0.072873 -0.010042 0.095266
-0.013327 -0.064645 -0.018082
-0.074000 -0.000459 0.151458
-0.070037 0.021873 0.110996
-0.023732 -0.026924 0.204450
-0.069028 0.001206 0.060882
-0.085675 -0.005115 0.118756
-0.072249 -0.014973 0.125467
-0.068243 -0.020390 0.146033
-0.067460 -0.032632 0.087469
-0.070455 -0.020561 0.085528
0.063152 0.007671 0.149437
-0.072658 -0.015295 0.150752
-0.063143 -0.032649 0.192394
0.060027 -0.021046 -0.017878
-0.083494 0.015556 0.109922
-0.073988 0.006653 0.073319
-0.072052 -0.013929 0.136682
-0.073446 -0.003787 0.133170
-0.068243 -0.014942 0.165577
0.040391 -0.049948 -0.008464
-0.073201 0.006905 0.159739
-0.071178 -0.017223 0.145719
-0.069889 -0.006809 0.066877
0.035197 0.009891 0.229567
-0.073201 0.011254 0.156654
-0.069000 -0.025000 0.115699
-0.068243 -0.020088 0.084358
-0.061500 -0.006861 0.056884
-0.072569 0.011918 0.093416
-0.083750 0.014234 0.108394
-0.068243 -0.022078 0.144862
-0.061500 -0.025607 0.155020
-0.069000 -0.026547 0.085700
0.058473 0.009154 0.282359
-0.073630 0.014606 0.150511
-0.082498 -0.017363 0.114670
0.028604 0.067767 0.088847
-0.058000 -0.029400 0.067125
-0.067772 -0.017426 0.061685
-0.055122 0.042612 -0.011058
0.049720 -0.049100 0.039483
-0.084000 -0.001277 0.100832
0.013976 0.047197 0.209812
-0.001000 0.066561 0.194996
-0.069627 0.001852 -0.011059
0.033763 -0.022876 0.180196
-0.028072 -0.063321 0.015088
0.008239 -0.068816 0.187907
-0.072658 -0.001814 0.161503
-0.069164 -0.001904 0.173286
-0.001000 0.072644 0.122828
-0.031811 0.060734 0.003260
-0.062732 0.018032 0.096950
-0.068243 -0.011952 0.167507
-0.072896 -0.001183 0.093129
-0.069000 -0.026547 0.145700
-0.069845 0.000000 0.165872
-0.075047 0.017378 0.122025
0.046036 -0.024121 0.304590
-0.085064 -0.001027 0.117418
-0.083924 -0.004632 0.129954
-0.073928 -0.003561 0.089269
0.066459 0.000000 0.139106
-0.039598 0.005353 0.264812
-0.069038 -0.020816 0.159267
-0.068757 -0.026141 0.080145
-0.068879 0.022111 0.070625
-0.071618 0.017357 0.137550
-0.063775 0.000000 0.195447
-0.001000 0.054478 0.200842
0.034319 -0.011064 0.317550
-0.070324 0.019712 0.150028
-0.072957 0.000833 0.137981
-0.067582 -0.025825 0.076300
-0.073056 -0.006980 0.136757
0.059308 0.031312 0.146522
-0.071416 0.016958 0.137010
-0.070888 -0.010131 0.095532
-0.021309 -0.064277 -0.008547
-0.009398 -0.069639 -0.010596
0.031386 -0.026249 0.216266
0.062659 -0.025472 -0.008367
-0.034477 0.015112 0.285891
-0.079637 0.017186 0.119773
0.070489 0.002227 0.107918
0.061297 -0.033847 -0.010824
-0.073100 -0.005503 0.094211
0.055671 -0.018644 0.291241
-0.070566 0.020845 0.106320
-0.073007 0.007413 0.137229
-0.073161 0.000896 0.093538
-0.069000 -0.025000 0.115700
-0.069913 0.022685 0.112921
0.034246 -0.025105 0.222830
0.068383 0.006596 0.089076
0.010000 -0.025250 0.323698
-0.073320 -0.007564 0.131786
0.012518 -0.067330 0.001423
0.035729 -0.002393 0.178588
0.057059 0.005355 0.253847
-0.083750 0.007725 0.101688
-0.046226 0.044260 -0.010739
-0.070243 -0.011918 0.073555
-0.063247 0.032563 0.163701
-0.051858 -0.049347 0.163840
-0.025611 0.065345 -0.010592
0.044102 -0.026655 0.308232
0.016676 -0.064912 0.187198
0.032257 -0.027542 0.180581
-0.071088 0.008957 0.176861
0.059982 -0.026228 0.258977
-0.007555 0.069579 -0.010992
-0.072870 0.003685 0.093401
0.038351 -0.019863 0.308553
-0.074705 0.018146 0.117821
-0.069028 -0.001206 0.170518
-0.069036 0.018325 0.162479
-0.084000 -0.014826 0.117401
-0.067833 0.006096 0.187114
-0.083924 0.002133 0.130535
-0.058508 -0.030646 -0.017885
-0.058000 -0.027249 0.066000
-0.071171 0.018958 0.104226
-0.073459 0.001090 0.133443
-0.073347 0.014516 0.094454
-0.058000 -0.028000 0.066201
-0.069000 -0.015870 0.165029
0.022240 0.014266 0.187255
-0.070630 0.016417 0.081301
0.054094 -0.030428 0.160462
0.047681 -0.018637 0.237605
-0.032258 0.055818 -0.009641
-0.059956 -0.036337 -0.010827
-0.002750 -0.024862 0.200561
-0.003044 -0.020132 0.319333
-0.073114 -0.004879 0.137339
-0.069000 0.010048 0.062808
-0.075047 -0.017378 0.122025
-0.038596 -0.062013 0.038399
0.007540 -0.027205 0.317636
0.068826 -0.016867 0.088646
0.065406 -0.010071 0.140908
-0.069623 -0.006871 0.172701
0.056652 0.005112 0.278462
-0.022892 -0.050329 0.203657
-0.019336 0.046982 0.216479
-0.085680 0.003321 0.110653
-0.034786 0.061329 0.039961
-0.046324 -0.049467 -0.008438
-0.068811 -0.020319 0.106299
-0.068812 -0.020313 0.125097
-0.070428 0.010402 0.071906
0.001000 0.064450 0.198488
-0.037064 0.010802 0.247724
0.066447 0.027326 0.039250
-0.019125 0.047485 0.215712
0.021865 -0.055018 0.187612
0.061463 -0.022436 0.148377
-0.018944 0.047422 0.216013
-0.034575 -0.023972 0.293545
-0.068000 -0.018440 0.162658
-0.072382 0.013988 0.135611
-0.070913 0.019469 0.104134
-0.023061 -0.030461 0.234283
-0.070622 0.023369 0.062392
-0.070180 -0.021724 0.110454
0.055685 -0.041146 0.138533
0.058252 0.034545 -0.008386
-0.060178 0.031179 -0.008377
0.059387 0.015069 0.267353
-0.002750 -0.026286 0.201311
-0.069000 -0.026547 0.085700
-0.074000 0.005535 0.151295
-0.074852 -0.012640 0.102303
-0.066801 -0.014863 0.135861
0.069586 0.000000 0.074208
-0.068243 -0.021101 0.145255
-0.069996 0.000148 0.088567
0.058927 -0.020104 0.281231
-0.072951 -0.001879 0.093483
0.068506 -0.002236 0.121160
-0.016632 -0.047476 0.216934
-0.073080 0.005310 0.093481
-0.070617 0.020383 0.125555
0.059310 0.003897 0.278904
-0.069034 0.015723 0.066479
-0.085675 -0.005863 0.114636
-0.072460 0.006273 0.140146
-0.006008 0.065153 0.197762
0.023553 -0.059160 0.185457
-0.073664 0.015354 0.093670
-0.067505 -0.011102 0.091018
-0.047287 -0.054371 0.139005
-0.070324 -0.019712 0.081372
-0.028571 0.010556 0.243272
-0.060626 0.035219 -0.010598
-0.066501 0.000000 -0.011980
-0.072052 -0.011537 0.156937
-0.073201 -0.015915 0.145400
-0.069574 -0.023532 0.086267
-0.084006 -0.011258 0.105866
-0.065987 0.000000 -0.017852
0.069268 0.007196 -0.011059
-0.068879 0.022111 0.070625
-0.075047 0.018494 0.115700
-0.071498 0.011706 0.091177
-0.068932 0.005559 0.056539
-0.067460 -0.032632 0.087469
-0.067229 0.011653 0.091289
-0.073966 -0.014677 0.092816
-0.073032 0.006980 0.137458
-0.083750 -0.015754 0.118478
-0.071498 0.017345 0.090543
-0.073898 0.014490 0.082424
0.022892 -0.067360 0.086068
0.035444 0.064261 0.091813
-0.066508 -0.019983 0.179574
-0.064866 -0.032189 0.111394
-0.047287 -0.054371 0.139005
0.055630 0.042236 -0.010994
-0.064382 -0.031018 0.154116
-0.084000 0.014705 0.113155
-0.083829 -0.004641 0.129983
0.010000 -0.024750 0.320207
-0.071621 -0.017246 0.093850
-0.066546 0.024289 0.068663
-0.073190 -0.011913 0.075442
-0.061500 -0.024585 0.069264
-0.069056 0.024687 0.082936
-0.030216 -0.020110 0.300625
-0.037792 0.011463 0.205159
-0.045322 0.012759 0.201143
-0.026816 -0.024107 0.304767
-0.069038 0.020512 0.159712
-0.069645 -0.017000 0.145700
-0.069486 0.017925 0.102249
-0.073114 0.010340 0.130157
-0.070622 -0.023369 0.062392
-0.072870 -0.016117 0.093734
-0.083829 0.012150 0.106873
-0.072460 -0.013959 0.136726
-0.081862 -0.005601 0.132269
0.052676 -0.030377 0.251008
-0.056468 0.028952 -0.017894
0.059464 0.011488 0.256936
-0.073461 0.000645 0.097935
-0.072965 -0.008576 0.094526
-0.084006 -0.014971 0.115700
-0.060626 0.035219 -0.010598
-0.072650 -0.015152 0.080249
0.029874 -0.067199 0.085578
-0.073196 -0.015915 0.085995
-0.069045 0.024871 0.084814
-0.040001 -0.055305 0.192827
-0.069035 -0.016445 0.164326
0.016175 0.051464 0.192681
0.014482 -0.053687 0.193008
-0.084000 0.012994 0.108362
-0.070886 0.016803 0.149883
-0.027166 -0.026601 0.203386
-0.066820 0.014813 0.135898
0.065716 -0.016707 0.127348
-0.081862 0.014634 0.106075
-0.073898 0.013954 0.080703
-0.081862 0.016459 0.121691
-0.070313 0.021274 0.123429
-0.068968 0.022036 0.160724
-0.073125 0.002866 0.138390
0.014407 0.047217 0.208939
-0.084006 0.012067 0.124469
-0.074000 -0.012122 0.153017
-0.035827 -0.018095 0.250513
0.068479 -0.015809 0.113445
-0.013805 -0.065046 -0.011140
0.069117 0.010224 -0.010995
-0.069882 -0.005878 0.066535
-0.070346 0.021084 0.145334
-0.068000 -0.014565 0.166083
-0.069841 0.013923 0.135877
-0.060844 0.038877 0.138895
-0.070227 0.007495 0.070399
-0.058250 0.026701 0.065450
-0.016337 -0.024290 0.313502
-0.072535 -0.014075 0.056767
-0.084045 0.009714 0.104489
-0.058250 -0.028000 0.063200
-0.001000 0.065566 -0.011098
0.012750 -0.006017 0.321098
0.033268 0.062456 -0.000741
-0.001000 -0.070036 -0.010830
-0.034695 -0.056808 -0.008489
-0.074000 0.003443 0.146965
0.054364 -0.018887 0.254441
-0.083061 0.016007 0.109754
-0.020182 -0.027288 0.216769
-0.069954 -0.013181 0.070441
-0.070191 -0.010401 0.072235
-0.037050 -0.026429 0.256175
-0.073988 -0.005076 0.072609
-0.036130 0.005356 0.290132
-0.069037 -0.019923 0.070876
0.027385 0.067232 0.138592
-0.002750 -0.070395 0.139208
-0.073433 -0.008476 0.140056
-0.071396 -0.001208 0.137983
-0.015170 -0.026811 0.313225
-0.007491 -0.069585 -0.010992
-0.071345 0.017134 0.142782
-0.074000 -0.001673 0.148692
-0.063960 0.013600 -0.008662
0.066185 -0.012606 0.104917
-0.039679 -0.026514 0.202455
0.010000 -0.027250 0.320200
-0.070068 0.022087 0.086480
-0.070601 -0.013598 0.097918
-0.068103 -0.016981 -0.010599
-0.064995 0.019000 0.086000
-0.081862 -0.008758 0.100531
-0.067857 -0.016920 -0.010993
-0.069000 -0.024780 0.082633
-0.002750 0.069125 -0.010092
0.045007 -0.057526 0.088362
-0.024151 -0.051343 0.201752
-0.063887 -0.026924 0.138056
-0.068757 -0.002002 0.172422
0.027913 -0.018887 0.314469
-0.001000 -0.060599 0.200714
0.055685 -0.041146 0.138533
-0.070305 -0.021541 0.121420
0.018014 -0.051579 0.190310
-0.068276 -0.026132 0.157419
0.066310 -0.017492 0.122730
-0.039571 -0.023885 0.272329
-0.079637 -0.006996 0.099482
-0.071621 -0.017246 0.137550
-0.069943 -0.001638 0.088619
-0.002750 0.055190 0.200812
-0.068243 0.022078 0.086538
-0.068243 0.023332 0.154302
-0.071471 -0.017603 0.114261
-0.056626 -0.000000 0.200859
-0.071511 0.017754 0.137753
-0.036832 0.005112 0.277032
-0.064555 -0.013932 -0.017858
0.067295 -0.014776 0.125657
0.068506 -0.002236 0.121160
-0.073929 -0.005904 0.089692
-0.084000 0.005414 0.101793
-0.036734 -0.007375 0.208600
-0.038908 -0.050918 -0.010775
-0.071471 -0.017603 0.114261
0.058164 -0.005491 0.156839
-0.070515 -0.013635 0.097848
-0.018966 -0.052837 0.201832
-0.070033 0.001862 -0.010831
-0.083061 0.008244 0.100746
0.020436 0.067333 0.039398
-0.069208 -0.018615 0.128308
-0.071773 0.016732 0.095268
0.016150 -0.027408 0.207599
0.001000 0.069925 0.152499
0.041280 0.011954 0.232336
0.031255 -0.027159 0.181985
0.010419 -0.006185 0.321192
0.033783 -0.026813 0.230553
-0.065034 0.006872 -0.008656
-0.067182 -0.014259 0.136304
-0.068721 0.008047 0.089823
-0.002750 0.065374 0.196396
-0.035175 0.011711 0.211045
0.066719 -0.010586 0.130671
-0.068972 -0.023527 0.070166
-0.083924 -0.014988 0.115700
-0.072658 -0.015798 0.149006
-0.070087 0.004397 0.069287
-0.055769 -0.043186 0.186732
-0.069000 -0.025000 0.122777
-0.070809 -0.016427 0.151185
-0.020604 -0.063292 -0.008550
-0.030509 -0.048746 0.201328
0.069517 -0.004219 -0.011059
-0.072041 -0.010819 0.073784
-0.015324 -0.024825 0.316882
-0.069354 0.024113 0.086023
-0.025476 -0.026631 0.305044
0.013153 0.067177 0.001146
-0.058000 -0.025200 0.064700
-0.072878 0.008177 0.138622
-0.067380 0.017513 0.175244
-0.037058 -0.026429 0.204684
-0.070641 -0.015356 0.078147
-0.073803 0.001765 0.053564
-0.071530 0.016626 0.100442
-0.066300 -0.026861 0.092593
-0.037064 -0.025552 0.247724
-0.064188 -0.031996 0.148233
-0.069845 0.001570 0.065587
-0.054844 -0.050970 0.138813
0.014946 0.067050 0.004900
-0.065587 -0.014484 0.086000
-0.071441 0.016919 0.110983
-0.056061 0.000000 0.198381
-0.069037 -0.019081 0.069804
-0.049588 -0.053822 0.038356
0.069117 0.010224 -0.010995
0.022280 -0.054877 0.187312
-0.064396 -0.030954 0.154458
-0.058122 -0.015816 0.097281
-0.023623 0.050460 0.202753
0.035674 -0.018628 0.313803
0.066318 0.000000 0.140156
-0.070962 -0.011893 0.096779
-0.070427 -0.010412 0.071889
-0.063804 -0.005562 -0.010645
0.056583 -0.035357 0.153013
-0.064109 0.000000 -0.010633
-0.069645 0.016421 0.150100
-0.069868 0.022351 0.116788
-0.069659 0.004175 0.088899
-0.069000 0.021934 0.160654
-0.073958 -0.012892 0.139167
0.058562 -0.035217 0.138572
-0.084567 -0.005055 0.127381
-0.085680 -0.000811 0.121688
-0.073201 -0.008467 0.158876
-0.072651 0.015734 0.082118
0.001000 0.012683 0.201274
-0.084179 0.008406 0.104100
0.059263 -0.028972 0.150508
-0.067931 -0.001830 0.140126
-0.085680 -0.005780 0.114022
-0.072089 -0.015292 0.136265
-0.070204 0.005929 0.069728
0.013813 0.069723 0.113331
0.068310 -0.003842 0.121813
0.065318 0.013115 0.113715
-0.068879 -0.026761 0.145700
-0.045170 0.013000 0.201136
-0.068912 0.007438 0.091723
0.063267 -0.008510 0.139517
-0.084045 0.012001 0.124419
-0.072042 -0.012212 0.075177
-0.070188 0.015730 0.062175
-0.067237 -0.016217 0.083293
-0.063447 0.039817 0.138720
0.016507 -0.052709 0.191534
-0.068000 -0.006785 0.164458
-0.083494 -0.005315 0.099980
0.055017 0.015107 0.282607
-0.008691 -0.054645 0.202015
-0.068243 -0.004736 0.066132
0.007539 -0.063029 -0.018107
0.007331 -0.008302 0.321103
-0.073894 -0.008478 0.073713
-0.014782 -0.018627 0.314358
-0.072571 -0.012665 0.136400
-0.084567 0.011727 0.110752
0.053853 -0.020108 0.294800
-0.072542 0.012894 0.136285
-0.081862 -0.001553 0.098277
-0.068066 -0.027709 0.153057
-0.072568 0.007770 0.091653
-0.081862 -0.017210 0.118793
0.013704 -0.069007 0.137987
-0.070502 0.020345 0.085393
-0.030511 0.061379 0.003049
-0.065710 0.008479 0.192756
-0.068492 -0.011409 0.058296
-0.001000 -0.068721 0.190381
0.005497 -0.069650 -0.010995
-0.002750 0.012277 0.199312
-0.072149 -0.014435 0.098706
0.005764 -0.070104 0.184088
-0.034695 -0.056808 -0.008489
-0.041426 0.048159 -0.017959
0.010381 -0.065747 0.191322
-0.072426 0.012350 0.134615
-0.072254 -0.014031 0.135722
-0.061398 -0.007073 0.196842
-0.042705 -0.055608 -0.010597
-0.067243 0.000000 0.161841
-0.071927 0.016235 0.095825
-0.070231 -0.015208 0.099262
-0.066815 0.032795 0.149347
-0.071420 0.016950 0.094473
-0.069841 0.019702 0.171534
-0.083494 0.004374 0.131708
0.038456 -0.012880 0.175122
-0.069866 0.022732 0.116176
0.034161 -0.007375 0.226051
-0.033204 -0.057092 -0.017995
-0.068559 -0.020533 0.124872
0.001000 -0.026637 0.198398
0.049174 0.040277 -0.017926
0.007030 -0.072662 0.138168
-0.047283 0.051698 -0.010827
-0.063734 -0.006857 -0.010648
-0.072055 0.016314 0.137498
-0.012364 -0.065404 -0.008586
-0.033979 0.005112 0.253308
0.069323 -0.009589 0.105014
-0.069000 0.026547 0.085700
-0.068968 -0.005935 0.171701
-0.070023 0.015689 0.073030
-0.072052 -0.015501 0.150437
-0.085064 -0.001841 0.114913
-0.070306 -0.007251 0.070211
-0.075256 -0.007321 0.132671
0.020884 0.003866 0.319909
-0.073031 -0.006976 0.137450
-0.054324 0.041820 0.196886
-0.069235 -0.006254 0.091378
-0.070175 0.002007 0.068783
-0.071490 0.017073 0.093852
-0.067948 -0.026403 0.154844
0.055639 0.045861 0.089044
-0.015151 -0.026811 0.314822
-0.072220 0.014631 0.098885
0.040811 0.060845 0.085210
-0.069102 0.024721 0.084785
0.063124 0.029894 -0.010994
-0.065294 0.029667 0.083481
-0.069866 0.022732 0.116176
-0.074852 0.007295 0.098788
0.057513 -0.038303 0.088919
-0.071543 -0.017608 0.118062
0.049669 -0.039730 -0.017923
-0.042610 0.051131 -0.011140
0.014652 0.012419 0.209749
-0.073347 -0.015773 0.137611
-0.072048 0.016315 0.085996
0.063385 -0.013967 0.130727
-0.084045 0.003771 0.101353
-0.073048 0.003648 0.137664
-0.024589 -0.051282 0.201641
-0.066280 -0.013020 0.094993
0.031149 -0.028860 0.180815
0.020250 -0.007196 0.321695
-0.071331 0.005643 0.094086
-0.073196 0.015911 0.093604
-0.071057 0.019243 0.127834
-0.070294 0.010415 0.159186
-0.072092 -0.015612 0.095013
0.047393 -0.019863 0.299495
0.018013 -0.051579 0.190310
-0.071987 -0.015622 0.099792
-0.072051 0.009851 0.092518
-0.074000 0.007616 0.157522
-0.019959 0.061297 -0.009694
-0.066995 0.018056 0.178823
-0.073115 -0.003578 0.093112
-0.083494 -0.010456 0.128586
-0.038596 -0.062013 0.038399
0.031633 0.009480 0.224669
-0.073919 -0.014845 0.093137
-0.072052 0.011460 0.093288
0.003715 -0.005645 0.320747
0.044738 0.054474 0.064160
-0.073630 -0.006714 0.159342
-0.070896 -0.018813 0.103268
0.038406 -0.019034 0.226252
-0.068879 -0.016685 0.064777
-0.084006 0.012067 0.124469
-0.070287 -0.005951 0.161733
0.043284 0.011889 0.303437
0.001000 0.069980 -0.010904
-0.070889 0.016730 0.149755
0.050245 -0.039003 -0.017921
-0.037082 -0.008723 0.253678
0.066141 -0.019320 0.014837
-0.069619 -0.023371 0.085726
-0.037082 0.010190 0.211045
-0.072920 -0.011746 0.130230
-0.070070 -0.022080 0.144920
-0.071426 -0.017386 0.118362
-0.068150 0.027718 0.164273
0.010000 0.012500 0.317707
-0.057178 0.000000 0.198300
-0.085680 0.005055 0.112428
-0.061500 -0.029043 0.079911
-0.069000 -0.005907 0.059818
-0.068247 0.027960 0.081234
-0.069000 -0.019091 0.161852
-0.002750 -0.071594 0.089469
-0.073075 -0.001188 0.093047
-0.070434 0.021167 0.122661
0.044954 -0.054283 0.064161
-0.063143 -0.032649 0.192394
-0.072605 -0.014877 0.136384
0.029942 0.012152 0.185664
-0.068165 -0.019912 0.084370
0.060181 -0.024407 0.286326
-0.085675 -0.003715 0.111041
0.018020 0.014340 0.190305
0.027913 -0.019863 0.314469
-0.071608 -0.016305 0.109159
-0.070651 -0.020326 0.106443
-0.034578 -0.026322 0.296256
-0.072782 -0.009723 0.093521
-0.001000 0.074091 0.071616
-0.037156 0.015088 0.256186
-0.081862 0.016413 0.109604
0.010000 -0.024750 0.221193
0.060224 0.020682 0.152471
-0.072698 0.012313 0.097230
-0.039996 -0.020103 0.268656
0.052597 -0.024335 0.293315
0.048923 -0.018887 0.243889
0.012822 -0.008875 0.320798
-0.073929 -0.008200 0.090322
-0.067063 0.020025 0.171765
-0.072116 -0.014736 0.125333
-0.069032 0.013810 0.166339
-0.036983 -0.025703 0.208692
-0.072073 -0.014699 0.095119
-0.074852 0.015388 0.125821
-0.019312 -0.028682 0.217108
-0.085293 -0.001062 0.111852
-0.046379 -0.028266 0.201050
-0.061500 0.029027 0.079501
-0.058246 0.015736 0.097167
-0.046363 -0.028256 0.201051
-0.073176 -0.003452 0.093911
0.012350 -0.007375 0.319700
-0.070630 -0.016417 0.150099
-0.005485 -0.066337 -0.008616
-0.072488 -0.013726 0.133155
0.069692 -0.007457 0.105563
-0.073667 0.014309 0.093878
0.010000 -0.027206 0.322116
-0.073647 -0.012287 0.092724
-0.068254 0.026291 0.157275
-0.071621 0.017246 0.137550
-0.062996 0.032263 0.040162
-0.071956 0.018458 0.058320
-0.070307 -0.002025 0.162775
0.038449 0.057466 0.014794
0.029994 0.009651 0.221973
0.044014 0.040683 0.170483
-0.070174 -0.001705 0.068749
-0.069856 0.005179 0.165199
-0.073892 0.001799 0.071180
-0.069000 -0.013273 0.062710
0.068458 -0.006004 0.089079
-0.067244 0.014184 0.095041
-0.069774 -0.011274 0.171772
-0.067410 0.032613 0.080706
0.013209 0.064614 -0.018082
-0.071169 -0.007122 0.094491
0.065500 -0.019322 0.088999
0.046287 -0.030433 0.300571
-0.081862 -0.016459 0.109709
-0.072929 -0.005652 0.137606
-0.085293 0.000000 0.119692
-0.072044 -0.015255 0.080211
-0.051346 -0.041460 -0.017916
-0.048884 -0.049942 -0.010994
0.052941 -0.043725 0.151953
0.053939 0.011733 0.293494
-0.072110 0.014636 0.098850
-0.069861 -0.021877 0.110348
-0.069002 -0.018385 0.068793
-0.005114 0.010069 0.316513
-0.067892 0.031139 0.076154
-0.072089 0.015268 0.136259
-0.082498 -0.015918 0.108688
-0.071575 0.017145 0.137549
0.070485 0.004656 0.109816
-0.040644 0.011467 0.262321
0.038456 -0.001870 0.175122
-0.072866 -0.012102 0.055887
0.044709 0.011894 0.305683
-0.068879 -0.002000 0.172386
0.017818 -0.051625 0.190453
-0.073413 0.004813 0.132812
-0.063500 0.027344 0.074240
-0.001000 0.055837 0.201828
-0.083924 -0.002976 0.101011
-0.068243 0.024046 0.085948
-0.077430 -0.017985 0.115700
-0.071104 -0.005087 0.093712
-0.069906 -0.021753 0.109857
0.052820 0.005358 0.296717
0.068479 -0.015809 0.113445
-0.075256 0.017984 0.119962
-0.083750 0.010800 0.127505
-0.084006 -0.012966 0.123186
0.012751 0.062146 -0.018084
-0.070763 -0.006092 0.040305
-0.069039 0.021750 0.157683
-0.067892 -0.031139 0.076154
-0.069179 0.024543 0.085252
-0.072168 -0.014029 0.135743
-0.073997 -0.001213 0.088538
-0.072052 -0.013929 0.136682
-0.074631 -0.016984 0.109518
-0.073080 0.005310 0.093481
-0.065333 0.029486 0.082305
0.001000 -0.057797 0.201235
0.066861 -0.009069 0.131282
0.034734 -0.025555 0.311054
-0.071633 0.016658 0.100438
-0.083750 -0.001421 0.099763
-0.031671 -0.024023 0.297349
0.055450 0.009737 0.297170
-0.082498 0.002568 0.098497
-0.073459 0.001090 0.133443
0.068444 -0.002682 0.121415
0.038406 -0.019034 0.226252
-0.073278 0.007339 0.099605
0.061160 -0.024391 0.258696
-0.052734 0.050722 0.186885
-0.073905 -0.001671 0.160230
0.035462 -0.064295 0.083859
0.006304 0.056970 0.198048
-0.002921 -0.026873 0.320712
-0.072655 -0.012621 0.134771
-0.002750 0.067569 0.187784
-0.058470 -0.024882 -0.017885
0.053352 0.043673 0.014805
-0.037082 -0.024940 0.211045
-0.015442 0.066107 0.187471
-0.072986 -0.010343 0.138947
-0.072069 -0.014589 0.095099
0.008239 0.068816 0.187907
-0.085675 -0.005579 0.113606
-0.058000 -0.028000 0.067500
-0.069175 0.024561 0.085522
-0.083494 0.000492 0.099113
-0.064188 0.032005 0.148120
0.068583 -0.001549 0.123390
-0.073433 -0.010483 0.139261
-0.041588 0.054168 0.197040
-0.059046 0.043468 0.038320
0.035272 0.055857 -0.017986
-0.073901 -0.014316 0.093190
-0.019601 -0.067975 0.187526
-0.019313 0.045615 0.217108
-0.063144 0.032646 0.192394
0.030612 -0.056370 -0.008506
0.012822 -0.007375 0.315201
-0.071052 -0.018717 0.127908
0.001000 -0.048734 0.211379
-0.067448 0.032459 0.082312
-0.071489 -0.016727 0.094899
-0.072559 -0.016182 0.137275
-0.074000 0.001139 0.145879
-0.068422 0.027439 0.077574
-0.070172 0.000306 0.068667
-0.063747 0.006734 -0.010648
-0.069036 -0.017661 0.163177
-0.085680 0.006018 0.115158
0.033892 0.054572 -0.008492
-0.070359 -0.007202 0.161414
-0.072052 0.015906 0.149031
-0.070357 0.006974 0.058847
-0.071420 0.016950 0.094473
-0.084762 -0.001687 0.103978
-0.036102 -0.016756 0.211018
-0.042262 0.009622 0.276091
-0.082717 -0.012975 0.107948
-0.069866 0.022732 0.116176
-0.002750 -0.062921 0.196570
-0.074000 0.005393 0.150048
-0.012296 -0.024361 0.314872
-0.020235 -0.062156 -0.008855
-0.073930 -0.012577 0.092183
0.010000 0.010335 0.222443
-0.069000 -0.025000 0.115652
-0.069000 -0.012572 0.167309
-0.071541 0.016559 0.136221
-0.068000 -0.024997 0.147370
-0.073021 -0.007027 0.094042
-0.084000 0.003794 0.130133
-0.075047 -0.015451 0.105537
-0.057028 -0.029231 -0.010692
0.031149 0.014110 0.180815
-0.074852 0.010999 0.100926
-0.019686 0.011982 0.217174
-0.070200 0.018842 0.078463
-0.070336 0.005983 0.069579
0.001000 -0.073865 0.058919
-0.005137 0.012222 0.315138
0.030998 -0.025622 0.228281
-0.071490 -0.017073 0.093852
-0.072632 -0.015803 0.136745
-0.070550 0.002024 0.058023
-0.067886 -0.021092 0.163395
-0.069027 -0.002455 0.170415
-0.020859 0.012965 0.215288
0.033936 0.012060 0.230354
0.066249 0.006505 -0.011140
-0.074000 0.002054 0.151143
-0.071214 0.017331 0.145262
0.010000 -0.027072 0.322453
-0.002750 -0.072004 0.138164
0.009000 0.011597 0.223549
-0.067647 -0.031929 0.075906
0.022237 -0.011079 0.322153
-0.070223 0.007225 0.161130
-0.070913 0.019469 0.104134
-0.068420 0.015232 -0.010600
-0.036832 0.004137 0.277032
-0.072754 -0.011591 0.135381
-0.069000 -0.025000 0.115698
-0.072254 -0.014028 0.095677
-0.084000 0.013746 0.121509
0.069221 0.000000 0.014907
0.015152 0.045798 0.207868
-0.071511 0.017754 0.137753
0.014482 -0.053687 0.193008
-0.068968 -0.019551 0.163840
-0.069943 -0.011414 0.162183
0.014432 -0.054326 0.192755
-0.073665 0.015354 0.137725
0.013719 0.069154 0.039377
-0.036963 -0.019863 0.265124
-0.072183 -0.014795 0.135437
-0.084045 -0.005055 0.129625
-0.074705 -0.017777 0.111487
0.055048 -0.025190 0.256188
-0.072081 -0.014923 0.095158
-0.024658 0.009395 0.306386
-0.072272 0.014772 0.105824
0.035709 0.012051 0.313000
-0.008516 0.067142 -0.008603
-0.070091 0.022201 0.115700
-0.066755 -0.020671 0.173903
-0.028917 0.063741 -0.010991
-0.036161 -0.026402 0.277101
-0.039246 -0.026390 0.269109
0.059458 0.039927 0.089083
0.058785 -0.032576 0.146988
0.013051 -0.068867 -0.010598
-0.063943 -0.016683 0.097044
-0.020134 -0.045624 0.216379
-0.070098 -0.022101 0.121050
-0.073630 0.015474 0.145400
-0.079637 -0.006996 0.099482
-0.069687 0.004406 0.173209
-0.068879 0.002000 0.059013
0.035898 0.010065 0.316679
0.058033 -0.023912 0.284785
-0.070799 -0.009043 0.058994
-0.069046 0.023650 0.153271
-0.071391 0.017070 0.090917
-0.071394 -0.001855 0.137960
-0.071638 0.017298 0.137182
-0.002750 0.065374 0.196396
-0.069645 0.004400 0.162121
0.015723 0.053354 0.192038
-0.072569 -0.013857 0.094568
0.022896 -0.011428 0.321989
-0.071249 0.017617 0.101651
0.049454 0.049655 -0.010593
-0.002750 0.070398 0.032737
-0.068237 -0.021519 0.072896
-0.071319 -0.005969 0.094200
-0.067800 -0.031544 0.076030
-0.071896 -0.016280 0.100565
-0.072588 0.012540 0.134114
-0.039679 -0.026514 0.202455
0.059831 0.036376 -0.010824
-0.068243 0.017627 0.068159
-0.068243 0.022078 0.086538
-0.035827 -0.018095 0.250513
-0.041981 -0.048449 0.197073
0.010000 -0.027250 0.320200
0.042230 -0.051445 -0.011140
0.032823 -0.060208 0.004071
0.001000 0.058926 0.197998
-0.069698 0.012863 0.040265
-0.073320 -0.007564 0.131786
-0.069000 -0.025000 0.111898
0.010419 -0.008565 0.321192
-0.052895 0.048715 0.192337
-0.074852 0.007295 0.132612
0.033612 0.064122 0.138634
-0.070269 0.014480 0.135615
-0.071661 0.017135 0.136853
0.041768 -0.018633 0.309577
-0.083494 0.011201 0.103456
-0.069672 -0.016891 0.063553
-0.073005 0.014530 0.136653
-0.009414 0.003873 0.317023
0.045044 -0.026061 0.309267
-0.069000 -0.025000 0.115628
-0.035522 0.055678 -0.017985
-0.071319 -0.005969 0.094200
0.049960 -0.030401 0.299914
-0.068968 0.005935 0.059699
0.058562 -0.035217 0.138572
-0.067934 0.015739 0.192569
-0.065567 0.014513 0.136068
0.059458 0.039927 0.089083
-0.038138 -0.007375 0.204819
-0.071130 -0.010043 0.095740
-0.008721 0.054956 0.201784
-0.069000 -0.001984 0.172173
-0.068104 -0.027936 0.107158
-0.072882 0.002829 0.138124
0.067535 0.011487 0.120682
0.042885 -0.041894 0.171435
0.046580 0.009886 0.232794
-0.085064 0.001984 0.115969
0.010000 0.011250 0.318042
-0.001000 -0.073803 0.114196
-0.036583 -0.007237 0.251753
-0.069876 -0.008032 0.067193
-0.070354 0.012138 0.073739
0.033043 0.003825 0.225366
-0.083750 0.002774 0.131438
-0.066868 -0.025510 0.066138
-0.071713 0.016994 0.120882
0.055830 0.042388 -0.010592
-0.022238 0.051455 0.202833
-0.072156 0.014095 0.135709
0.051418 0.009277 0.297741
0.059986 0.005353 0.269209
0.015188 0.066683 0.000351
-0.085293 -0.002047 0.119127
-0.069899 0.010050 0.163195
0.068758 -0.005828 0.115969
-0.069005 -0.024948 0.084300
-0.064718 0.032025 0.083045
-0.077430 0.013778 0.104139
0.033936 -0.026810 0.311046
-0.074705 0.003172 0.133692
-0.037529 0.009806 0.248136
0.035306 -0.026808 0.228338
0.046198 0.056471 0.088965
-0.067296 0.033358 0.093878
-0.002750 0.070398 0.032737
-0.067503 -0.011101 0.093233
-0.068243 -0.015398 0.158670
-0.072559 -0.014556 0.136417
0.031222 0.061162 0.005612
-0.072082 0.014962 0.095164
0.016600 -0.052556 0.191537
-0.071918 0.016178 0.135661
-0.014049 0.064306 0.197593
-0.036018 -0.026258 0.211045
-0.070908 -0.009774 0.135995
-0.083750 -0.001421 0.131637
0.038752 0.058745 0.113496
-0.070453 -0.020096 0.147518
-0.037134 -0.010396 0.207306
-0.071541 0.016561 0.095177
0.033871 0.015292 0.310912
-0.061500 -0.004732 0.172536
-0.040079 -0.013978 0.206061
-0.037540 -0.025438 0.248861
-0.067234 -0.014460 0.078174
-0.067856 -0.024365 0.158810
0.001000 0.070032 -0.010826
-0.073176 -0.003452 0.093911
-0.083061 0.004501 0.099228
-0.068072 0.022340 0.117647
0.056366 -0.024708 0.158173
-0.069606 -0.012848 0.061188
-0.069957 0.015853 0.097028
-0.011346 0.049514 0.214675
-0.070692 -0.012260 0.096781
-0.072658 -0.014600 0.152431
-0.065603 -0.026555 0.164443
-0.069381 0.024044 0.086100
-0.073254 0.008739 0.131179
-0.063725 -0.026929 0.138700
0.016531 -0.051620 0.191998
-0.017635 0.046141 0.217443
-0.001000 -0.070545 -0.005457
0.071744 -0.004249 0.017888
-0.067945 -0.022443 0.115317
-0.072052 0.009576 0.158579
-0.073158 -0.015086 0.094647
0.066146 -0.004249 0.140290
-0.049834 0.040558 0.196951
-0.073887 -0.014317 0.138026
0.035065 -0.025913 0.224222
-0.067571 0.025877 0.076283
0.068293 -0.004261 0.124108
-0.073158 -0.015086 0.094647
-0.014328 0.061791 -0.018077
-0.069622 -0.023362 0.145678
-0.070423 0.014418 0.098571
-0.006501 -0.050772 0.213013
-0.072771 0.010706 0.135231
-0.070296 0.021285 0.145201
-0.068968 -0.024029 0.157272
-0.066691 -0.013076 0.095029
0.037994 0.005370 0.312419
0.001000 -0.055053 0.201703
0.062355 -0.025125 0.272570
0.041011 -0.051809 -0.017961
-0.084045 0.009245 0.104127
0.034167 -0.016215 0.217973
0.018786 -0.060593 -0.018058
0.001000 -0.050589 0.206321
-0.073630 -0.003443 0.160487
-0.070829 -0.019978 0.105863
-0.085680 -0.001687 0.121488
-0.072051 -0.009851 0.092518
-0.072658 0.010103 0.158069
-0.073432 -0.003766 0.133073
-0.005475 -0.055527 0.201751
-0.036832 -0.018887 0.277032
-0.064987 0.011168 0.070629
-0.072042 -0.012212 0.075177
0.000395 -0.024916 0.317979
0.026788 0.003870 0.318162
-0.040587 0.010868 0.203207
-0.068243 -0.005302 0.061404
-0.068000 0.024863 0.148777
0.059776 -0.023881 0.269239
0.044927 0.049792 0.166590
-0.025147 0.051708 0.201407
0.001000 0.051477 0.211379
0.030732 -0.026724 0.185664
0.010000 -0.027250 0.219881
-0.019313 0.045615 0.217108
-0.072895 0.008178 0.093013
-0.069000 -0.025000 0.115176
-0.068314 0.000000 0.194098
-0.049767 -0.040644 0.196951
-0.002750 0.064384 -0.009804
-0.057028 0.029231 -0.010692
-0.037642 0.011668 0.284135
0.003636 -0.069949 -0.010830
-0.075256 0.017984 0.111438
-0.074631 0.007159 0.099104
-0.084000 0.012073 0.124472
0.050465 -0.030397 0.293734
-0.068243 -0.024321 0.080517
-0.067229 0.011653 0.091289
-0.030511 0.060847 0.003799
0.018012 0.051577 0.190311
-0.068551 0.024140 0.161168
-0.069763 0.022475 0.113896
-0.027446 0.005112 0.299587
-0.018821 0.004137 0.308197
-0.070530 -0.013142 0.156919
-0.073875 -0.014995 0.093019
-0.072155 -0.014078 0.098046
-0.062957 0.011693 -0.010658
-0.072947 0.010537 0.101572
0.031633 -0.024230 0.224669
-0.070478 0.020146 0.084354
-0.030755 0.011789 0.300783
-0.067719 -0.025097 0.074272
-0.070258 0.019331 0.079891
-0.070418 -0.020289 0.105929
0.070467 0.001315 0.107424
0.066027 -0.005188 0.140390
0.009000 0.011465 0.221655
-0.068746 -0.029007 0.069979
-0.035685 0.004339 0.250191
-0.069083 0.023908 0.169101
-0.071511 -0.017754 0.137753
-0.045028 0.010681 0.198725
-0.084762 -0.001687 0.127422
0.027082 0.005379 0.318054
-0.069869 0.002310 0.165580
-0.001000 0.054942 0.202484
0.044709 0.015197 0.305682
0.038150 -0.058154 0.138142
-0.073533 -0.015198 0.137176
-0.082498 0.013176 0.104345
-0.072108 0.014786 0.095910
-0.072110 -0.014324 0.095762
0.021670 -0.067786 0.087780
-0.036497 -0.006671 0.252037
-0.070267 -0.003721 0.069008
-0.042267 0.011898 0.201878
0.001000 -0.055266 0.201475
-0.017086 -0.030514 0.309110
-0.064994 -0.014280 0.083482
-0.083750 -0.007988 0.129534
-0.019648 -0.063279 -0.011140
0.019513 0.065910 0.006086
0.033219 -0.024733 0.180635
0.068486 0.003830 0.128458
-0.071469 -0.004599 0.052365
-0.084179 -0.011727 0.107472
-0.073664 -0.014658 0.094043
-0.056928 -0.044555 0.138936
-0.085680 0.005444 0.118322
0.007150 -0.050534 0.201328
-0.084045 0.014720 0.114070
0.039472 -0.061730 0.091193
-0.075047 -0.017995 0.111435
0.026224 -0.065920 0.002716
-0.071727 -0.016651 0.095214
-0.069687 0.004406 0.173209
-0.069913 0.022223 0.113091
-0.023242 0.015210 0.234136
-0.023242 0.011920 0.234136
-0.079637 -0.017186 0.119773
-0.066871 0.025539 0.066118
-0.069801 0.003439 -0.010995
0.061326 0.011455 0.270426
-0.069161 -0.018689 0.128368
-0.014073 -0.072447 0.114081
-0.058000 -0.028000 0.066201
-0.028554 -0.062771 0.187130
0.022619 -0.062049 -0.018041
-0.074000 0.002292 0.148713
0.068211 -0.005187 0.124183
-0.069054 -0.024620 0.082359
-0.073438 -0.004151 0.098340
-0.072965 -0.004437 0.091859
0.052308 -0.040432 -0.017912
-0.071330 0.017745 0.129671
-0.072382 -0.013990 0.135609
0.043873 0.053373 0.014800
-0.002750 -0.065589 0.193610
0.064277 -0.026557 -0.011060
-0.069607 0.020212 0.065822
0.020726 -0.070725 0.088205
-0.069841 0.002841 0.088720
-0.002750 -0.026152 0.212700
0.042885 -0.041894 0.171435
-0.073625 -0.015474 0.085995
-0.068164 -0.012621 0.176317
-0.020662 -0.026715 0.216633
-0.070693 -0.015536 0.078056
-0.070635 0.014942 0.175763
-0.081862 0.017390 0.113629
-0.072290 -0.013770 0.133258
0.035787 -0.001649 0.227558
0.068461 -0.007275 0.117724
-0.073920 0.014845 0.138258
-0.068237 -0.024162 0.086076
-0.046092 0.053598 0.040033
-0.073098 0.008994 0.100539
-0.039688 0.051951 -0.008770
0.031799 0.010803 0.216266
-0.069938 0.011083 0.069015
-0.070263 0.024673 0.062802
-0.073934 0.014672 0.138161
-0.084000 -0.011553 0.125147
-0.070289 -0.021646 0.120643
0.065066 0.013436 0.139043
-0.001001 0.072868 0.139396
0.001000 0.010157 0.198372
-0.072052 0.016315 0.093850
-0.038879 -0.016795 0.251351
-0.072436 0.014131 0.132693
-0.073621 0.013702 0.078804
-0.072272 -0.013790 0.095520
-0.070011 0.015376 0.072633
0.001000 -0.069859 -0.010989
-0.024910 0.050498 0.201883
0.001000 0.074006 0.065930
-0.064950 -0.029750 0.145700
-0.073080 0.005310 0.093481
0.022562 0.064889 0.006454
-0.046360 -0.028260 0.201051
0.007030 -0.072662 0.138168
-0.068891 -0.024507 0.167026
0.036084 0.063902 0.091898
0.031308 0.064001 0.006815
-0.005055 0.012224 0.226572
0.063308 -0.018722 -0.017864
0.014874 0.046430 0.208759
-0.072980 -0.014281 0.136769
-0.049007 -0.050068 -0.010827
0.002989 0.012378 0.321155
0.031386 -0.026249 0.185664
0.031799 0.010803 0.185664
0.068363 -0.014391 -0.010995
0.052333 -0.018641 0.244037
-0.073896 -0.012282 0.077517
-0.074705 -0.018146 0.117821
-0.073189 0.009041 0.072897
0.022561 0.064403 -0.000829
-0.070201 0.021663 0.110209
-0.069825 -0.013875 0.135910
-0.072919 0.011744 0.129165
-0.068968 0.005935 0.171701
0.047619 -0.048891 0.138187
-0.074000 0.000000 0.145761
-0.070047 0.011084 0.060280
-0.065000 -0.015330 0.135448
0.026485 -0.064640 -0.010995
-0.073177 0.015359 0.094528
0.038762 0.062217 0.091535
-0.005290 0.063854 -0.010905
-0.069645 0.004400 0.162121
0.033235 0.009594 0.226068
-0.020367 0.070305 0.139194
-0.069303 0.017584 0.168130
-0.073005 0.005793 0.137199
-0.068000 0.021529 0.158510
-0.073901 -0.014924 0.085995
-0.070775 -0.019201 0.127518
-0.038783 0.005354 0.259656
-0.036963 0.005112 0.265124
0.066411 -0.014056 0.128275
-0.025418 0.011849 0.301596
0.033344 0.012173 0.179802
-0.040633 0.057737 0.039998
-0.040310 -0.025798 0.283762
-0.070188 0.015730 0.062175
0.020250 -0.007714 0.322606
0.069288 0.000391 0.115632
0.031158 0.004137 0.228404
0.059263 -0.028972 0.150508
-0.061243 0.026994 0.145700
-0.073574 0.015549 0.093375
-0.069874 -0.007775 0.164305
0.018004 0.051584 0.190317
-0.085680 -0.003278 0.110653
-0.036018 0.011509 0.211045
-0.066902 -0.026493 0.187158
-0.072052 -0.016213 0.147227
0.068920 -0.006727 0.113720
-0.032856 0.003891 0.296647
-0.061837 0.018917 0.095219
0.059128 0.011642 0.271106
-0.073433 0.014263 0.137185
0.017717 -0.060585 0.189539
-0.072541 -0.012900 0.136281
0.046242 -0.052040 -0.011060
-0.071956 -0.018458 0.058320
-0.071494 -0.014112 0.083508
0.020848 0.069661 0.138551
-0.075256 -0.011037 0.100875
0.013350 -0.006623 0.316897
0.001000 -0.067980 0.183199
-0.085675 0.002342 0.110221
-0.047335 0.051755 -0.010598
-0.071541 0.016559 0.136221
-0.085675 -0.004487 0.119621
-0.059014 0.023381 -0.017883
-0.072842 0.010489 0.135908
-0.070887 -0.021515 0.061701
-0.072397 -0.014308 0.132547
-0.013816 -0.007375 0.314981
-0.071382 0.017045 0.093854
-0.071657 -0.017146 0.136887
0.043179 -0.053813 0.138167
0.035444 0.064261 0.091813
-0.072658 0.015798 0.149006
-0.073004 0.016003 0.093963
-0.083750 -0.011480 0.126845
0.021386 0.060576 -0.008547
-0.027182 -0.024625 0.308008
-0.068757 -0.026797 0.085700
-0.071892 -0.015648 0.123755
-0.070893 0.010547 0.135527
-0.068018 0.028790 0.143564
-0.083494 0.002450 0.132113
-0.073622 -0.014469 0.080508
-0.027057 0.050986 0.201366
-0.002750 -0.066758 -0.010092
-0.069000 -0.025000 0.105977
-0.005318 0.064253 -0.009746
-0.072498 0.012357 0.097127
-0.069939 -0.011076 0.069025
-0.053400 0.045099 -0.010994
-0.073357 -0.004997 0.098730
-0.069872 0.003710 0.165399
0.034528 0.064776 0.091691
0.032776 0.011500 0.181048
0.054974 0.011140 0.296850
0.007228 0.072626 0.138465
-0.071524 -0.017410 0.129651
-0.072814 -0.014516 0.056028
-0.073082 -0.004770 0.093435
-0.070321 0.003678 0.068815
0.017932 0.064096 -0.011140
-0.066982 -0.025537 0.063278
-0.071423 0.016940 0.136896
-0.084045 0.008373 0.127945
-0.083750 -0.012236 0.105433
-0.069044 -0.023303 0.077109
-0.064558 0.012928 0.136512
-0.070886 0.016803 0.149883
-0.064510 -0.032898 0.114143
0.038785 -0.057722 -0.011060
0.007106 0.063864 -0.008609
0.052249 -0.046799 0.138494
0.015187 -0.066031 -0.008574
-0.069854 -0.004743 0.165296
-0.069885 0.016531 0.100582
-0.083750 0.013833 0.123686
0.049588 -0.049479 0.088877
0.052771 0.011753 0.246648
-0.073720 -0.015015 0.093874
0.040611 0.060948 0.090623
-0.032687 -0.026466 0.251918
-0.018260 0.045647 0.217438
0.001000 0.063774 0.198982
-0.022347 0.066138 -0.011055
0.068443 -0.007297 0.117880
0.012557 0.067391 0.002557
0.019483 0.009834 0.319275
-0.001000 -0.070074 0.188521
0.031475 -0.026221 0.217432
-0.073178 -0.003341 0.093889
-0.058000 -0.030425 0.066100
-0.067426 0.011200 0.187048
0.069575 -0.001473 0.113888
-0.036885 -0.062177 0.187077
-0.072697 -0.010154 0.135557
0.058927 0.003896 0.281231
-0.068968 0.016629 0.166552
-0.002750 -0.066507 -0.008628
0.055666 0.003894 0.291054
-0.051394 0.037355 -0.017916
-0.001000 0.072571 0.048144
-0.068879 -0.026462 0.149689
-0.082717 -0.007162 0.129010
-0.002750 -0.059246 0.198607
-0.068757 0.024436 0.156582
0.010000 -0.027250 0.321698
-0.072044 -0.015255 0.080211
-0.064309 -0.025956 0.186859
-0.043097 -0.039494 0.201108
0.001000 0.070116 -0.010602
-0.073138 -0.005476 0.094323
-0.083750 -0.005466 0.100681
0.046915 -0.024630 0.307913
-0.071495 0.014330 0.085996
0.008322 0.054908 0.196852
-0.073007 0.007413 0.137229
0.058458 0.011654 0.280800
-0.069000 -0.025000 0.115675
0.017094 0.052471 0.190979
-0.069000 0.022868 0.075598
0.005517 -0.069902 -0.010601
-0.002750 -0.024527 0.201811
-0.084045 0.014720 0.117330
-0.069000 0.025000 0.133548
-0.072999 0.011224 0.129580
-0.072337 0.014913 0.136275
-0.070675 0.015320 0.153724
0.031354 -0.017742 0.220562
-0.070805 0.016326 0.080249
-0.072395 0.014029 0.095906
-0.068879 -0.025572 0.077812
-0.064834 0.030643 0.063609
0.039555 0.058654 0.162019
0.055830 0.042388 -0.010592
-0.054305 -0.042042 0.192644
0.054049 0.044369 0.064197
0.001000 0.052436 0.201274
0.053939 0.011733 0.293494
0.017500 0.003863 0.320568
-0.074631 0.005184 0.133014
-0.071271 0.002474 0.137932
-0.070423 0.020278 0.125535
-0.085675 0.005792 0.114377
-0.070532 -0.020879 0.123474
0.066574 0.000000 -0.011140
-0.009005 0.005112 0.313897
0.023528 -0.020132 0.319126
-0.073012 -0.003773 0.091883
0.046064 -0.018636 0.305548
0.033626 -0.049891 0.178916
-0.072362 0.012889 0.095109
-0.071026 -0.017201 0.083628
0.031797 -0.017917 0.223162
0.031905 -0.025478 0.184358
-0.069163 0.023583 0.168786
-0.064508 -0.000000 -0.009479
-0.073031 0.006975 0.093950
-0.068968 0.019551 0.163840
-0.084006 0.014377 0.111732
-0.070310 0.000311 0.068403
-0.073113 0.003732 0.093136
-0.068216 0.028322 0.085691
-0.072478 0.013876 0.132883
-0.068757 0.002794 0.172303
-0.019683 -0.047018 0.216094
-0.071621 0.017246 0.137550
0.067873 0.007458 0.126393
-0.069000 -0.025000 0.115495
-0.032234 0.015131 0.296518
0.033320 -0.064609 0.038203
-0.073269 -0.007525 0.131709
-0.002750 -0.068405 0.191331
-0.083061 -0.009116 0.130139
0.022817 -0.027015 0.315872
-0.073201 0.014339 0.152305
-0.074000 0.000372 0.153939
-0.083924 0.009815 0.127027
0.001000 -0.024907 0.212237
-0.021930 0.011792 0.311097
0.068442 0.009799 0.118856
-0.073983 -0.014496 0.138483
-0.070251 0.012123 0.073759
0.051409 0.005360 0.242469
-0.066883 0.012341 0.091629
-0.029410 0.059136 -0.018012
-0.072052 0.016315 0.145400
-0.073958 0.002239 0.142381
0.033638 -0.065294 0.091640
-0.072148 -0.015390 0.106648
0.007983 0.069583 -0.010829
-0.070996 -0.009013 0.136268
-0.079637 -0.012121 0.128547
-0.067863 -0.006098 0.187114
-0.070427 0.020714 0.145676
-0.072015 0.015807 0.131321
0.007991 0.065503 -0.018105
-0.020591 0.013932 0.215375
0.067215 -0.010856 0.129440
-0.072052 0.012126 0.137773
-0.069622 -0.013519 0.170617
-0.084762 0.001687 0.103978
-0.022976 0.052339 0.201446
-0.071285 -0.018579 0.127771
0.010000 -0.026000 0.318042
-0.068757 -0.009790 0.170645
-0.070428 -0.010402 0.159494
0.059826 -0.031537 -0.008379
-0.072395 -0.014028 0.095906
-0.041656 0.005819 0.200272
-0.073323 -0.001829 0.133238
-0.072001 0.015617 0.107434
0.015250 -0.005257 0.320876
-0.070968 0.000000 0.057721
0.020250 -0.007554 0.321695
-0.073630 0.009648 0.157498
-0.068243 0.021101 0.145255
0.021129 0.066655 0.179594
0.061163 0.000000 0.152688
0.063125 0.026319 0.088964
0.016941 -0.051734 0.191318
-0.070254 0.021241 0.122706
-0.068968 0.022036 0.160724
-0.070622 -0.023369 0.062392
-0.062473 -0.025393 0.192656
-0.038627 -0.026401 0.256748
0.048643 -0.033932 0.166330
-0.073623 -0.015025 0.082292
-0.016178 0.010779 0.310133
-0.070100 0.021984 0.144929
0.067911 0.001340 0.102002
-0.070702 -0.004343 0.058199
-0.068757 -0.021642 0.161421
-0.022981 -0.066350 -0.010822
-0.068879 0.022111 0.160775
-0.040644 0.011467 0.262321
0.012500 -0.007825 0.321243
-0.072337 -0.016098 0.094497
0.010000 -0.026000 0.223358
-0.072919 -0.011724 0.102229
-0.072958 0.000312 0.093406
0.069036 0.001197 0.118688
-0.071777 0.016812 0.136060
-0.062996 -0.032263 0.040162
-0.073100 -0.015830 0.094178
0.036534 0.010114 0.224965
