-0.046240 0.031501 -0.029197
-0.056565 0.001000 -0.028724
0.067563 0.018710 0.062900
-0.043441 -0.039991 0.070593
0.065747 -0.055310 0.015101
0.036267 0.046596 0.070592
0.152555 0.053650 0.031759
0.041713 0.042073 0.051484
0.000000 0.058502 0.073590
0.036193 -0.041074 0.047050
-0.025931 -0.042332 0.064260
-0.053886 -0.020466 0.016838
-0.017787 -0.051793 0.078148
-0.044557 0.036127 0.017098
0.031350 0.040021 0.014199
0.007942 0.054203 -0.081158
0.151961 -0.056358 -0.011160
0.000353 -0.049495 -0.067135
0.152049 -0.028627 -0.050311
-0.012898 0.039231 -0.084383
0.052874 -0.026072 -0.055409
0.026050 -0.026009 0.082035
0.007964 0.053855 -0.067058
0.168250 -0.049487 0.020719
0.015961 0.054757 0.017406
-0.008590 -0.050271 0.014377
-0.018245 -0.051394 -0.067102
-0.020964 -0.044923 -0.073716
-0.055153 0.014356 -0.079302
0.049601 -0.031012 -0.076593
0.040333 -0.043143 0.070590
0.135257 0.040094 0.055193
-0.033583 0.044464 0.014671
0.037731 -0.045370 0.040230
0.133525 -0.055467 0.022859
0.004558 -0.015736 0.078752
0.019943 0.024810 -0.085308
0.013374 0.052861 0.064076
0.041188 0.051222 0.017455
0.118332 0.031604 -0.061563
-0.047001 -0.017383 0.071196
0.030845 -0.045322 -0.035396
0.000000 -0.054811 0.078142
0.168250 -0.010897 0.053516
0.051981 0.001000 -0.069481
0.039407 0.032172 0.014062
0.037505 0.045310 0.029576
-0.057617 0.012963 -0.073734
0.062685 -0.007579 0.060059
0.060461 0.019410 -0.059316
-0.026017 -0.021895 -0.085464
0.118429 0.042028 0.055143
0.117953 -0.053849 -0.023110
0.021541 -0.050071 -0.067125
0.066325 -0.016324 -0.061993
-0.057507 0.006604 -0.031359
0.006326 0.051594 0.079283
-0.039714 0.039218 0.014580
0.043941 0.048890 0.030554
-0.050368 0.002750 -0.067951
-0.021792 -0.045878 0.014301
0.152555 0.053650 0.031759
0.048515 -0.035316 -0.049566
0.062585 -0.053091 0.019403
0.027867 0.044081 0.067499
-0.009730 -0.058307 -0.070499
0.101238 0.039123 0.061047
-0.035286 0.041837 0.064268
0.118885 0.049393 -0.049525
0.013724 0.028833 0.082339
-0.045426 -0.035064 0.017080
0.058427 0.002750 -0.061313
0.015567 -0.049659 0.067498
0.093516 0.039372 -0.058589
0.035620 0.046747 -0.031091
-0.018666 0.025807 0.082314
0.068019 0.058562 -0.023701
0.161352 0.002500 -0.057190
0.036121 0.047171 0.015217
0.007274 0.003818 0.077813
0.164609 -0.001000 -0.057909
0.064062 0.056654 -0.029506
0.076239 0.060127 0.033816
0.080056 -0.001000 0.064812
0.074687 0.002500 0.061948
-0.032132 0.037958 -0.067336
0.035884 0.046426 -0.036590
-0.052164 -0.024364 0.067074
0.058815 -0.007135 -0.063443
-0.021252 -0.044808 -0.073718
-0.012263 0.010864 -0.081753
0.056393 -0.008272 -0.079345
0.016904 -0.046555 0.064186
0.054593 -0.040310 -0.028554
0.058769 -0.019617 -0.060275
-0.035385 0.041678 -0.031971
0.052310 -0.031568 -0.055272
-0.049195 0.012099 0.013711
0.047870 0.035939 -0.057019
0.051420 0.021363 -0.062267
-0.010797 -0.053416 0.064066
0.056675 0.002500 0.066205
0.152135 -0.049478 -0.026458
0.043491 -0.040036 -0.070499
0.052855 -0.038806 0.014177
-0.011131 0.049454 -0.031613
0.057533 -0.015796 -0.058828
-0.047137 0.032112 -0.030293
0.039431 -0.032118 -0.028811
0.053423 0.054814 0.014692
-0.039237 0.025745 -0.083255
0.030845 -0.045322 -0.035396
0.060069 -0.002608 -0.060562
0.007274 -0.003818 -0.080814
0.101342 0.044312 0.058967
0.152835 0.058118 0.007246
0.000835 -0.056597 0.015958
0.051802 0.024293 0.059573
-0.006215 -0.033635 -0.085543
0.089258 -0.028551 0.057587
0.049000 0.017047 -0.082343
0.033649 0.006211 -0.085542
0.067071 -0.055663 0.014172
0.059972 0.053826 0.037899
0.031520 -0.012853 0.082492
0.036559 -0.045671 -0.076557
0.036308 -0.046649 -0.070499
-0.053903 0.018494 0.076275
0.063881 0.055405 0.014070
-0.015933 0.027598 -0.085328
0.006820 -0.049034 0.070643
0.098090 -0.052700 0.029459
0.069417 -0.053811 -0.030857
0.127154 0.044814 -0.051390
-0.034712 -0.039050 -0.070499
0.035765 0.047695 0.016213
0.135001 0.015932 -0.061814
0.047008 0.053953 0.016343
-0.029294 -0.012482 0.082318
0.100699 0.001000 0.065461
-0.052561 -0.016775 0.016790
-0.011978 0.048055 0.070660
-0.006405 -0.031371 -0.085369
-0.046955 -0.022040 -0.082310
0.062182 0.006011 -0.062744
0.014467 0.047313 0.070673
0.055970 0.026596 0.060395
0.055344 0.008135 0.063843
0.011586 -0.048129 -0.067159
0.030252 0.048314 0.076169
0.052707 -0.018050 0.061556
0.054607 0.003613 -0.081350
-0.003683 -0.031824 0.082371
0.044043 -0.037071 -0.047802
0.033830 0.046111 -0.043161
-0.050542 0.002500 -0.074543
-0.007558 -0.003220 -0.080814
0.061675 0.054845 -0.029207
0.060088 -0.016532 0.058518
-0.036559 0.045672 -0.076557
-0.005809 0.015318 -0.081753
-0.042078 -0.038341 -0.030399
0.019190 0.051045 -0.067108
0.059972 0.053826 0.037899
0.085022 0.053626 0.048079
-0.058912 0.004882 -0.070499
0.124194 -0.001000 0.062779
0.048321 0.027399 0.060770
0.000000 -0.000000 0.077500
0.039237 0.025754 -0.083254
0.076330 0.061329 0.018979
0.106084 0.002500 -0.062889
0.057305 -0.014512 0.067499
0.156554 0.002500 -0.056840
0.019175 -0.055856 -0.073631
0.069018 0.059222 -0.030167
0.013000 0.057610 0.070645
0.135266 0.016692 -0.059143
-0.049511 -0.023229 -0.081212
-0.039280 -0.033825 -0.082255
0.067691 0.060196 0.018801
0.066566 0.057726 -0.029563
0.041829 -0.039179 -0.052044
-0.045549 0.022738 -0.028647
0.044518 -0.043813 0.044402
0.033280 -0.043392 0.064241
0.039144 0.012707 0.081388
0.037024 0.043645 -0.051325
-0.021828 -0.026088 0.082474
0.056619 -0.014712 0.073686
0.053357 0.014146 -0.065990
0.020526 -0.047738 -0.082259
0.053654 0.023308 -0.076632
0.055451 -0.038742 0.012677
-0.025491 -0.047786 -0.029084
0.100972 -0.007742 -0.062570
0.084825 0.060801 0.033925
-0.010080 0.056131 0.076188
0.049859 -0.030628 0.056439
0.044043 -0.037071 0.047802
0.093296 0.019796 -0.062096
0.053325 0.022696 0.063227
-0.048569 0.032606 -0.076586
0.150145 0.002500 0.059098
0.034174 0.002969 0.082572
-0.012898 0.039230 0.081383
0.035412 -0.044879 -0.035075
0.069694 -0.054309 -0.029300
-0.003597 0.054324 -0.067050
0.151353 -0.049541 0.032347
0.045420 0.030460 -0.081176
0.098095 -0.055847 0.012335
-0.030700 -0.047741 0.015808
0.008926 0.056293 -0.032181
0.053373 0.014151 -0.067752
0.056949 -0.011741 0.064175
-0.039407 0.032172 -0.028812
0.053135 0.025375 -0.061391
-0.034561 0.037501 0.014155
0.011808 0.032081 -0.085525
0.039144 0.012707 -0.084389
0.002286 -0.007891 0.077813
0.168250 0.017112 -0.054730
0.031986 -0.002801 -0.085394
0.013444 -0.031406 -0.085517
0.066299 0.058914 0.015200
0.038671 0.042507 -0.044557
-0.056864 0.003960 0.076378
-0.050722 0.005247 0.016092
0.064985 -0.052737 -0.029240
0.059251 0.049918 0.051557
0.031499 0.005755 0.082367
0.030473 -0.048500 -0.032391
-0.051981 0.001000 0.072982
-0.009687 0.053916 -0.081157
0.168250 0.041194 0.040363
0.039082 -0.041855 0.048707
0.005939 -0.058759 -0.073656
0.046060 0.029853 -0.067477
-0.016655 0.053016 0.014819
0.097870 -0.050824 0.040459
0.051730 -0.017766 -0.081245
0.040002 0.038087 0.054408
0.093748 0.051145 -0.051442
-0.045140 -0.025547 0.079289
-0.054636 0.005432 0.013595
0.118021 -0.021544 -0.058979
0.084347 0.039644 0.060995
-0.039491 0.030477 -0.067467
0.043441 0.039991 -0.073594
0.085195 0.059592 -0.040001
0.085549 -0.000000 0.062721
-0.021875 -0.049936 0.064127
-0.018666 0.025807 0.082314
0.035647 0.047856 0.017376
0.020943 0.049906 -0.029121
-0.048569 0.032606 0.073586
0.168250 0.052593 -0.021864
0.091108 0.059782 0.000000
0.032668 0.044375 -0.032036
0.024139 -0.003923 -0.083311
-0.057050 -0.006987 0.015118
0.027192 -0.048384 0.017384
-0.056222 -0.011552 -0.029945
0.067657 0.057811 0.039418
0.133706 -0.026060 0.055232
0.049619 0.029038 -0.063264
0.056950 -0.054499 0.015440
0.057739 -0.000430 0.061964
-0.008817 -0.033061 -0.085537
0.045355 0.035635 -0.058780
0.151509 -0.006082 0.057308
-0.027291 0.016343 -0.085302
0.085571 0.061979 0.000000
0.047685 -0.032469 -0.056405
0.000798 -0.054043 0.014443
0.054070 -0.023717 0.070658
-0.055543 0.002500 0.065042
0.059869 0.038057 -0.058742
0.083491 -0.023728 -0.061792
-0.043494 0.033424 -0.067415
0.156750 0.002500 -0.057986
0.051693 0.041188 -0.055630
0.000000 0.059041 0.071070
0.042529 -0.026230 -0.067541
-0.003893 0.058381 0.073595
0.134901 -0.053632 -0.028217
0.043441 0.039990 0.070593
-0.053743 0.023102 0.073633
-0.054280 0.007962 0.013639
0.037988 0.041296 0.047732
0.032248 0.000000 -0.085438
0.110937 0.056984 -0.037783
0.018083 0.026199 0.082317
0.053027 0.021689 0.060105
-0.058377 -0.003805 -0.076771
0.008813 0.050232 0.014377
0.064071 0.057746 0.014742
0.153745 0.001000 0.058778
0.054133 -0.001000 0.012018
-0.050233 0.021628 0.078221
0.058389 0.002500 0.061540
0.056507 0.041056 -0.025992
0.168250 0.040380 -0.037260
0.057797 -0.007124 -0.064794
-0.054176 -0.023513 0.070660
0.026153 -0.044843 0.079248
0.057766 -0.000000 0.061996
-0.033548 0.043211 -0.067244
0.168250 0.011841 0.053389
-0.038545 0.041808 0.015708
0.058912 0.004881 0.067499
0.013097 -0.009842 -0.081753
-0.034861 -0.042184 0.064262
0.034810 0.044936 -0.029280
0.100823 -0.052706 -0.029344
0.083496 0.001000 -0.064091
0.041256 0.040135 0.055104
-0.050354 -0.021187 -0.028620
0.168250 0.047872 -0.026087
0.048437 -0.025968 0.064545
0.045432 0.030881 -0.062041
0.034169 0.044239 -0.032046
0.100733 -0.016605 -0.063825
0.060442 0.002750 -0.060483
0.036559 -0.045672 0.073556
0.066072 -0.053006 -0.030942
0.038654 -0.033265 -0.028831
0.000000 0.053234 0.078920
0.097912 -0.040221 0.053383
0.135102 0.002750 -0.060086
-0.026129 0.039012 -0.083257
0.042529 -0.026230 -0.067541
0.046317 0.030525 -0.059621
0.028667 -0.050449 0.021396
0.098085 -0.050839 0.034629
-0.021659 -0.050284 -0.081144
0.016383 0.000000 -0.081753
0.023131 0.053740 -0.076570
0.127671 0.056851 0.030026
0.042937 -0.050384 0.014379
0.047688 -0.037105 0.051210
0.055098 0.014566 0.076300
-0.031075 -0.013943 0.082485
0.031742 -0.044520 -0.039914
0.061934 0.055044 -0.029220
0.051535 -0.001000 -0.028267
0.054070 -0.023717 0.070658
-0.022498 0.009586 -0.083311
0.060870 -0.001000 -0.063070
0.056040 0.039945 0.011211
0.065733 0.057878 -0.030117
0.055268 0.019171 -0.076657
0.016171 -0.002628 -0.081753
0.060150 0.002750 -0.060557
0.060069 0.008862 -0.062706
0.051802 0.024294 -0.059573
-0.047735 -0.015496 -0.067728
0.000000 0.000000 -0.080500
0.034759 0.046279 -0.036753
0.029077 0.013011 0.082315
0.079989 -0.054595 0.030616
0.062233 0.002500 0.060441
-0.039857 0.040590 -0.030437
-0.032438 0.040516 0.079244
0.046395 0.018780 0.071171
0.056879 0.003738 0.076380
-0.046018 -0.025298 0.067499
-0.005199 0.056763 -0.032189
-0.037354 0.039960 -0.081145
0.041967 -0.038554 0.076182
0.054134 0.023746 -0.070499
0.031803 0.047304 0.076169
0.168250 -0.017595 -0.051653
0.022548 0.052367 0.076174
0.009743 -0.030473 0.082358
0.058933 0.003808 0.070813
0.008691 -0.050254 -0.031628
0.069381 -0.056476 0.016288
0.049130 0.036800 0.056731
0.039237 0.025754 0.080254
0.045140 -0.035782 -0.053901
0.048512 0.013048 0.071271
-0.034712 -0.039050 -0.070499
-0.043083 0.039574 -0.076565
0.039280 0.033825 -0.082255
0.025577 -0.045202 -0.082250
0.045432 0.030881 0.062041
0.032444 0.044028 -0.043447
0.013374 0.052861 0.064076
-0.021622 0.050300 0.078144
-0.039144 -0.012707 0.081388
0.076411 0.039351 0.057950
0.005752 0.054198 0.064053
-0.055672 0.013799 0.015233
0.030202 -0.048862 0.030344
0.168250 -0.030101 -0.045258
0.052346 -0.022521 -0.079252
0.050210 -0.013102 -0.082374
0.094381 0.059758 -0.018639
-0.033771 0.046153 -0.032013
0.066756 -0.055263 -0.017708
0.042720 0.034431 -0.067398
0.066324 -0.039216 -0.052744
-0.021551 0.052845 -0.032124
0.127078 0.040764 -0.054009
-0.041754 0.034853 -0.028858
0.051981 0.001000 -0.075982
0.056682 -0.011205 -0.065890
0.135002 0.009406 0.059824
-0.052880 -0.014000 -0.081270
0.136854 0.057451 0.000000
0.038728 0.038755 -0.056218
0.117860 -0.001000 0.064602
0.033083 -0.046705 -0.029396
0.035829 0.044670 0.014280
0.018124 -0.051454 -0.067101
0.050368 0.002750 0.071451
-0.039144 -0.012707 -0.084389
0.133720 -0.052996 0.022327
-0.038522 -0.031624 0.070947
-0.054070 0.023717 -0.073659
0.053758 0.012820 -0.066151
0.111318 0.001000 0.064074
0.117959 -0.032779 -0.053987
0.000001 0.056932 0.017442
-0.047735 -0.015496 0.064728
0.033288 -0.047469 -0.034962
-0.031230 0.047872 0.066663
0.059904 0.026542 0.058519
0.006568 -0.004935 0.077813
-0.026129 0.039012 -0.083257
0.013663 0.052787 -0.032163
0.032233 -0.047642 0.034748
0.005691 -0.005925 0.077813
0.168250 -0.034302 -0.042036
0.013892 -0.020126 0.080311
-0.049864 -0.006686 0.071382
-0.009730 -0.058307 0.067498
0.050083 -0.031299 -0.073620
0.022028 -0.044425 0.064223
0.067585 0.033146 0.061149
-0.051663 -0.017960 0.078243
0.033281 -0.043395 0.042556
0.039237 0.025754 0.080254
0.034055 0.043214 0.042816
-0.001643 0.008050 -0.080814
-0.008475 -0.057893 -0.076592
0.011994 -0.048051 -0.073661
-0.005063 0.055299 -0.029608
0.000000 -0.039373 0.081699
-0.034861 -0.042184 0.064262
0.039271 -0.030723 -0.067462
-0.055381 0.002750 -0.067951
0.039144 -0.012702 -0.084389
0.049042 -0.010983 0.071307
0.007942 0.054203 -0.081158
-0.002807 0.034123 0.082546
0.060505 0.045684 -0.052360
0.043305 0.038006 0.057124
0.071696 0.060939 0.013086
-0.026846 0.041771 0.070770
0.032202 0.044200 0.042439
0.041967 -0.038554 -0.079183
0.021273 -0.026583 0.082477
0.069314 0.059356 -0.031479
0.060175 -0.052640 0.014419
0.055970 0.026596 -0.060395
0.062676 -0.015102 0.059149
0.124608 0.001000 0.062955
0.007731 -0.056479 -0.069513
-0.030464 -0.039222 -0.073815
-0.039144 0.012702 0.081389
0.028095 -0.051913 0.070606
-0.023135 0.043840 -0.067233
0.083491 -0.023728 -0.061792
0.019086 -0.053767 -0.032140
0.168250 -0.053553 0.016631
-0.054588 -0.018453 -0.031555
0.151328 -0.053906 0.022098
0.005216 -0.053801 -0.029189
-0.051595 -0.024191 0.076242
-0.018094 0.046109 -0.067194
-0.005588 -0.055250 -0.029608
0.091334 0.002750 -0.062889
0.050368 0.002750 0.071451
-0.021828 -0.026088 -0.085475
-0.032087 0.011544 -0.085500
0.110627 0.057003 0.037814
0.037690 0.043191 0.041768
0.000000 -0.053685 -0.081736
-0.024309 -0.020490 0.082296
0.004038 0.058372 -0.076595
0.032142 -0.046608 -0.029372
-0.000237 -0.054496 -0.067047
0.070456 0.060566 0.016000
-0.012828 0.047796 -0.067164
0.168250 0.050253 0.020671
0.063794 0.056598 -0.029502
-0.045755 0.020365 0.071144
0.051951 0.002750 0.066451
-0.053110 -0.014952 -0.067738
0.133739 -0.055090 0.011327
-0.026851 -0.016979 -0.085301
0.029077 0.013011 0.082315
0.168250 0.032208 0.047809
0.044024 0.041052 -0.049671
0.036267 0.046596 0.070592
-0.025883 -0.042357 -0.073760
-0.021252 -0.044808 0.064216
0.050272 -0.022513 -0.062589
0.024203 -0.051620 -0.079173
0.056109 0.018375 -0.062610
0.151378 -0.043288 0.041505
-0.056879 -0.003738 -0.079380
-0.056454 0.001000 0.013956
0.101895 0.052412 -0.053141
0.032438 -0.040516 -0.082244
-0.050823 0.021310 0.016869
-0.005738 -0.056712 -0.032188
0.057760 0.000000 -0.061989
0.058378 0.013449 0.059949
0.112718 0.001000 -0.063987
0.059408 -0.011957 0.062024
-0.012661 -0.053024 -0.067073
-0.028135 -0.051989 -0.070499
0.168250 0.035242 0.042193
0.059604 0.007242 -0.060390
0.006215 0.033635 -0.085543
0.018666 -0.025807 -0.085314
0.003937 0.056896 0.076191
0.113466 0.001000 0.064939
-0.005161 0.056372 -0.030704
0.019180 0.051013 -0.032133
-0.054945 -0.017591 -0.070192
-0.026129 0.039011 0.080257
-0.055092 -0.005441 0.016594
0.030246 -0.010098 -0.085334
-0.003646 0.054662 0.078160
0.152215 0.031542 -0.054299
-0.004038 -0.058371 -0.076595
0.026734 -0.049054 0.014603
0.050246 -0.004138 -0.074427
0.135440 0.046884 0.046819
0.000000 -0.058545 -0.076499
-0.030535 -0.045409 -0.081139
0.089328 -0.007827 0.062470
0.043953 0.023736 0.064584
-0.028072 0.046797 0.017310
0.076714 0.056620 0.038944
0.050918 0.002750 -0.030798
0.024139 -0.003923 0.080311
-0.019933 -0.046943 0.016820
0.041278 -0.032245 -0.070499
0.168250 -0.040212 -0.039945
-0.050381 -0.022169 0.064612
0.100702 -0.029853 -0.059670
0.056992 0.018072 0.059445
0.151314 -0.055387 0.016692
0.056713 0.002500 -0.066616
0.038130 0.044829 -0.045317
0.024633 0.043019 -0.067248
0.040824 0.036599 0.058445
0.083785 -0.028511 -0.057425
0.051042 -0.030944 -0.055642
0.152339 0.043300 -0.043041
-0.023743 0.024362 0.082468
0.064888 0.057900 0.014763
-0.050199 0.004444 0.064921
-0.059055 -0.000000 0.070850
-0.002630 0.031928 -0.085372
0.003616 0.049316 -0.067138
0.055659 0.000000 -0.065459
0.051171 -0.026930 -0.059559
-0.050564 -0.006600 -0.030866
0.032239 0.045242 -0.029271
0.000000 -0.000000 0.077500
0.110242 0.038223 -0.057973
0.019176 0.055858 0.070630
0.089233 -0.033836 0.054899
0.016383 -0.000000 0.078752
-0.010283 -0.055678 0.015942
-0.055833 0.014725 -0.031493
0.018096 -0.026217 0.082316
0.168250 0.028644 -0.050008
0.054535 0.001000 -0.025269
0.070614 0.059570 -0.032643
0.043451 0.000000 -0.084162
-0.049068 -0.032869 0.070613
0.000000 -0.032916 0.082558
0.000901 -0.056987 0.017443
-0.042380 -0.038598 -0.031888
0.050614 -0.011470 0.079386
-0.043965 0.027519 -0.082279
-0.044434 -0.036256 -0.069866
0.048311 -0.030220 0.076212
0.052713 -0.021904 -0.058232
0.053743 -0.023102 0.073632
0.115747 -0.050293 0.039619
-0.038301 -0.039166 0.017178
-0.015493 -0.049682 0.067498
0.056507 -0.041056 -0.025992
0.151464 -0.006997 0.059772
0.024633 0.043019 -0.067248
0.152037 -0.033210 -0.047309
-0.055381 0.002750 -0.031298
0.168250 -0.001000 -0.056042
0.151988 -0.053837 -0.022072
0.022028 -0.044424 -0.067223
-0.044515 0.036091 -0.069869
0.135873 0.058241 0.029557
0.044222 -0.040421 -0.047822
0.101855 0.059728 0.039506
0.015961 0.054757 0.017406
-0.050984 -0.000898 0.016016
-0.012886 -0.057073 0.073586
0.102100 0.057869 -0.044767
-0.036389 0.033979 0.064406
0.168250 -0.055629 -0.005485
0.024633 0.043019 0.070748
0.031190 -0.047898 -0.036205
0.133650 -0.039956 0.045751
-0.012228 -0.021179 0.080311
0.039950 -0.042735 -0.076559
0.035515 0.043179 -0.040918
-0.055500 -0.000000 0.064999
0.034720 0.045914 -0.029994
0.021267 0.044801 -0.067217
0.062576 -0.048947 0.035343
0.003929 -0.058927 -0.073657
0.080017 -0.040035 0.053337
0.054472 -0.028275 0.057021
0.039237 0.025754 -0.083254
0.069018 -0.053093 -0.033099
-0.044515 0.036091 -0.069869
0.168250 -0.022235 0.052565
-0.035224 -0.035187 0.070885
0.076030 0.048721 0.056142
0.025759 0.047645 -0.029082
0.136827 0.002500 -0.059974
0.039112 -0.044456 -0.042095
0.027992 -0.019312 -0.085466
0.056682 -0.011205 -0.065890
0.033640 -0.045833 -0.032222
0.115881 -0.045052 0.043072
0.033586 -0.043183 0.064245
-0.019061 0.028248 0.082487
0.046317 0.030525 -0.059621
0.080307 -0.055200 0.012822
-0.010080 0.056132 -0.079188
0.068183 0.057896 -0.039451
0.059418 0.019337 0.059150
0.058732 0.006173 -0.073791
-0.056952 0.002750 -0.031250
0.055605 -0.002531 0.064954
0.000000 -0.032124 -0.085398
0.031561 0.045704 0.014524
-0.012828 0.047796 -0.067164
0.069755 0.060216 -0.016593
0.129106 0.002500 0.060991
0.028095 -0.051913 0.070606
-0.017799 0.026429 0.082318
-0.019116 0.051101 0.064107
0.168250 0.029567 0.046377
0.098158 -0.028450 0.057627
0.028336 -0.047969 0.014337
0.011018 0.030017 -0.085353
0.056538 0.013485 -0.064494
0.019176 0.055858 0.070630
0.076908 0.058992 0.000000
0.007742 0.056081 0.015949
0.115667 -0.057532 0.017896
-0.047735 -0.015496 0.071229
0.033195 -0.045768 -0.032209
0.068611 0.000000 -0.061228
-0.016655 0.053016 0.014819
0.050368 0.002750 -0.074452
0.059408 -0.011957 0.062024
0.084417 0.001000 -0.065135
0.057305 -0.014511 -0.070499
0.102127 0.050856 -0.051111
-0.056637 -0.001000 0.015835
0.056562 0.014928 -0.076685
-0.051423 -0.029046 0.070629
-0.022548 -0.052367 -0.079175
0.056562 0.014928 0.073685
0.110088 0.026269 -0.060844
0.048757 0.052902 -0.030179
0.049602 0.028050 -0.079223
0.053807 0.030413 0.059400
0.104665 0.001000 0.064380
0.135257 0.040094 0.055193
0.052843 -0.022918 -0.070099
0.015545 0.053346 0.014825
0.033487 0.047201 0.017322
0.000272 0.054496 0.064047
-0.012546 0.029386 0.082345
0.030775 -0.014573 0.082482
0.053903 -0.018494 0.076275
0.043041 0.042594 0.051375
-0.051705 0.002500 0.066205
0.117948 -0.056137 -0.005914
-0.005206 0.054252 -0.067052
0.051800 -0.003648 -0.082457
-0.026153 -0.044825 0.079249
0.032165 0.044149 0.064228
0.021654 -0.011365 0.080311
0.050368 0.002750 0.071451
-0.053484 -0.011901 0.013708
0.060442 0.002750 -0.060483
0.023771 0.024334 0.082468
-0.039237 -0.025754 0.080254
0.168250 0.038982 0.038666
0.053834 0.018696 -0.079274
-0.003597 0.054324 -0.067050
-0.054974 0.001000 -0.028267
-0.037171 0.041580 -0.029371
0.126959 0.030632 -0.057932
-0.029056 0.049195 -0.032064
0.110937 0.056984 -0.037783
0.084636 0.026774 -0.063627
0.168250 0.054193 -0.016647
0.028906 -0.049281 0.030978
0.066322 -0.051725 -0.036099
0.042529 -0.026230 -0.067541
0.168250 0.055965 0.005307
0.015540 0.005188 -0.081753
0.076724 0.060178 -0.033828
0.045224 -0.021381 0.064625
-0.008189 0.000661 0.077813
0.102535 0.059711 0.018383
0.115885 -0.047986 0.038581
0.018124 -0.051454 -0.067101
-0.007996 -0.053917 -0.032183
0.011468 0.050722 -0.082277
0.039144 0.012707 -0.084389
0.101648 0.055463 0.049322
0.100626 -0.050802 -0.040357
0.034867 -0.045895 -0.039364
-0.000660 -0.016370 -0.081753
0.006254 -0.039311 -0.084670
-0.026178 0.018049 -0.085298
0.110937 0.056984 -0.037783
0.119173 0.054510 -0.041717
0.046436 -0.050414 -0.033096
0.118359 0.037293 0.057245
0.039399 0.043985 0.041441
-0.047190 -0.028216 0.064506
0.136075 0.059892 0.016124
0.057961 -0.011757 -0.062841
0.054593 0.040310 0.013804
-0.045019 0.030651 -0.028785
0.079357 -0.001000 -0.063538
-0.007977 0.001966 -0.080814
0.068462 0.002500 -0.062425
-0.052346 0.022521 -0.079251
-0.015794 -0.046934 0.064179
0.070419 -0.052793 -0.024909
0.034837 -0.037245 0.014150
-0.050781 0.023808 0.014314
0.168250 -0.047028 0.026158
0.061870 0.001000 -0.061877
0.013071 -0.050327 0.079273
0.014863 0.057157 0.070641
0.076836 0.058874 0.018719
-0.045568 -0.022667 0.013896
-0.058842 -0.004876 -0.073803
0.024309 0.020490 -0.085296
0.042720 0.034431 0.064398
-0.054124 -0.011176 0.016694
0.018470 -0.053947 0.076178
-0.005738 -0.056712 -0.032188
-0.050499 0.000000 -0.067999
-0.021776 -0.045782 -0.029049
0.052042 0.018297 -0.067679
-0.047976 0.031596 0.017023
0.168250 0.054035 0.017246
0.161443 0.001000 -0.057454
-0.050400 0.027696 -0.031708
0.135143 -0.006836 -0.059788
0.055309 -0.016479 -0.064841
0.038589 -0.040267 -0.044608
0.090365 0.001000 -0.064401
0.000000 -0.059058 0.070655
-0.015467 0.018943 0.080311
0.018470 -0.053946 -0.079179
-0.015794 -0.046934 -0.067179
0.031996 0.002714 0.082395
0.135090 -0.007812 -0.062235
0.083785 -0.028511 -0.057425
0.048913 -0.030173 0.066972
0.033609 0.036603 0.070860
-0.048311 0.030219 0.076212
0.019551 0.014691 -0.083311
-0.052734 -0.004377 -0.070499
-0.001909 0.049403 -0.067136
-0.057974 0.001006 -0.031266
-0.048325 -0.026299 -0.031705
0.006804 -0.023489 -0.083311
0.039271 -0.030723 -0.067462
-0.043440 0.035159 0.014510
-0.002167 0.051952 0.067499
0.012833 -0.052993 0.064074
0.019194 -0.055911 0.067498
-0.012546 0.029386 -0.085346
-0.030252 -0.048314 -0.079169
0.038818 0.031303 -0.073953
-0.054413 -0.005800 -0.081332
0.039385 -0.038104 -0.067334
0.056554 -0.018530 0.058139
0.084277 0.033670 0.062500
0.054736 0.008218 -0.067855
0.057650 0.000000 -0.062061
0.031246 0.044867 -0.037310
0.059572 -0.051793 -0.030392
0.045432 0.030881 0.062041
0.049040 -0.032909 0.070613
0.085056 0.055564 -0.049701
-0.034712 -0.039050 0.067498
0.043454 0.040556 0.053423
0.083831 -0.015590 -0.061183
-0.044691 -0.022425 -0.067607
0.116044 -0.007466 0.061855
0.058362 -0.004033 -0.076769
0.049166 -0.010558 0.064814
0.006254 -0.039311 0.081670
-0.007543 -0.051462 0.079282
-0.030464 -0.039223 0.064314
0.083716 -0.052334 -0.029972
0.135359 0.044563 0.052329
0.069911 0.060405 0.000000
0.028847 -0.048236 -0.030026
0.008109 0.001318 -0.080814
0.152187 0.039694 0.046386
-0.017502 -0.029268 -0.085496
0.062585 -0.053091 0.019403
-0.011163 0.049487 0.014364
-0.024121 -0.046005 0.079251
-0.058933 -0.003808 0.070813
-0.046359 0.029009 -0.081182
0.045097 0.025615 0.079289
0.065023 0.002750 -0.062224
0.062940 -0.000000 0.060461
-0.048712 -0.012110 -0.074288
-0.004892 -0.023961 -0.083311
0.035387 0.044922 0.019973
-0.029177 0.017493 -0.085471
-0.027992 0.019312 -0.085466
-0.022498 0.009586 -0.083311
0.049068 0.032869 -0.073613
0.058440 -0.008513 -0.073771
0.027751 0.019655 0.082465
0.050368 0.002750 -0.074452
-0.006254 0.039311 -0.084670
-0.010442 0.032567 0.082530
0.168250 -0.054861 0.011116
-0.057535 -0.001000 -0.029787
-0.007146 -0.051512 -0.070499
0.101690 0.044291 -0.058952
-0.050278 -0.027792 -0.031710
0.060083 0.002500 0.060727
-0.004108 -0.007115 0.077813
0.053559 0.013572 -0.067762
0.069112 0.059900 0.015108
0.040333 -0.043143 0.070590
0.028135 0.051989 0.067499
-0.011738 -0.055796 -0.069525
0.050346 -0.051893 0.017457
0.038580 0.041948 -0.079175
0.118290 0.031795 0.058930
0.050246 -0.004139 0.071427
0.016414 0.046755 0.070683
-0.016848 0.049175 -0.082266
0.056507 -0.041056 -0.025992
-0.007404 0.054000 0.064056
0.119099 0.061021 0.025210
0.022028 -0.044425 0.064223
0.062940 0.000000 -0.060461
0.146208 -0.001000 0.061023
0.035931 0.045433 -0.042438
0.038671 0.042507 -0.044557
0.136246 0.055787 -0.028619
0.000000 -0.032024 0.082367
0.030724 -0.045906 -0.032134
-0.002913 -0.007681 -0.080814
0.153407 0.055566 0.000000
-0.000237 -0.054496 0.064047
0.058519 -0.000000 0.073757
-0.054322 0.010402 0.064817
0.101133 0.033116 0.062653
0.066422 0.056404 0.011716
-0.050393 -0.001459 -0.074474
0.020943 0.049906 -0.029121
0.042510 -0.053167 0.016496
0.019194 -0.055910 -0.070499
0.029047 0.046381 0.078139
-0.037783 -0.039020 0.014181
0.060069 0.008862 -0.062706
0.151906 0.013938 0.059121
0.101959 0.061038 0.033421
-0.015493 -0.049682 0.067498
0.059952 0.001000 0.063419
0.044834 -0.038608 -0.046197
-0.043491 0.040036 0.067499
0.054265 -0.023305 -0.073661
0.098083 -0.045685 0.043933
-0.005809 -0.015318 0.078752
0.048909 0.032420 0.059245
-0.039491 0.030477 0.064467
-0.015467 0.018943 -0.083311
0.039237 0.025754 -0.083254
0.045432 0.030881 0.062041
0.115667 -0.057532 0.017896
0.006254 0.039325 0.081667
0.053900 0.042490 -0.028992
0.038287 0.043638 0.048553
0.069112 0.059900 0.015108
0.071035 -0.056594 0.017797
-0.013765 0.053014 -0.081153
-0.032708 -0.000000 0.082552
-0.005543 0.049191 -0.067140
-0.044283 0.035841 0.015607
0.071580 0.060819 0.017589
0.050149 0.021820 -0.081220
0.037690 0.043191 0.041768
-0.006943 -0.004391 0.077813
0.058362 -0.004034 0.073768
-0.014705 -0.030816 0.082510
0.152356 0.040912 -0.048714
-0.039301 -0.031986 -0.031309
0.049710 -0.045117 -0.039521
-0.005515 0.054505 0.078160
-0.000985 0.024435 -0.083311
0.110093 0.046978 0.053472
0.016904 -0.046555 -0.067186
-0.016848 0.049175 0.079266
0.000353 -0.049495 -0.067135
0.039144 0.012707 -0.084389
0.000899 -0.056938 -0.069505
0.168250 -0.036237 -0.043739
0.043491 0.040037 -0.070499
0.051108 0.041047 0.055528
0.031707 -0.044469 -0.067222
0.153204 0.055552 0.007032
0.046326 0.033901 -0.069907
0.055853 0.038754 0.011178
0.168250 0.018982 0.051463
-0.055151 -0.011332 -0.028848
0.070745 -0.001000 -0.062759
0.024292 -0.020510 -0.085296
0.134819 -0.058009 -0.005760
0.063922 -0.052871 -0.011653
0.161352 0.002500 -0.057190
0.044528 -0.050755 0.031238
0.152260 0.014459 -0.056403
0.006254 0.039325 0.081667
0.056619 -0.014712 -0.076687
0.058092 -0.044550 -0.027543
-0.004038 -0.058372 0.073594
0.071577 0.060819 0.017593
0.057213 0.002500 -0.064704
-0.023131 -0.053740 -0.076570
0.133504 -0.056743 0.017261
0.028922 -0.043117 -0.082246
0.043451 -0.000000 0.081161
-0.030535 -0.045409 -0.081139
0.054394 0.019145 -0.070165
0.050102 0.022883 0.064599
-0.049000 -0.017047 0.079343
0.028794 -0.013602 0.082312
0.010988 -0.055884 0.017424
-0.010519 0.054539 -0.029595
0.053654 0.023308 -0.076632
0.013892 0.020126 0.080311
0.101495 -0.001000 -0.064188
-0.044506 -0.035589 0.076191
0.055262 -0.006083 0.064892
0.058737 0.002500 -0.061320
0.055804 0.019332 0.070687
0.168250 0.027468 -0.050581
-0.025883 -0.042358 0.070760
0.051167 0.034244 0.057982
0.006568 0.004935 0.077813
-0.053824 0.012560 -0.067779
-0.025984 0.021936 -0.085464
-0.050982 -0.001000 -0.029483
-0.040188 -0.036602 -0.028889
0.000000 -0.000000 0.077500
0.077143 0.055134 -0.043825
-0.049311 0.009905 -0.067826
0.118303 0.042721 0.057657
0.023771 0.024335 -0.085468
-0.039491 0.030477 -0.073968
0.152168 0.020444 0.055276
0.033881 0.042957 -0.081140
-0.049488 0.032332 -0.070499
0.053387 -0.027240 0.057561
0.062766 0.002500 0.061655
0.143121 -0.001000 -0.061505
0.033281 0.046797 -0.032136
-0.026050 -0.026018 0.082034
0.000000 -0.000000 0.077500
-0.036258 0.046583 0.070592
0.051705 0.002500 -0.069205
-0.055751 0.002750 -0.029449
-0.054070 0.023717 0.070659
-0.043221 0.025124 0.064560
-0.028065 0.049620 0.076170
0.080009 0.002500 0.063578
-0.056469 0.012265 -0.070285
-0.020123 -0.024647 -0.085308
0.055970 0.026596 -0.060395
0.027293 -0.047451 0.026507
-0.013724 -0.028833 -0.085340
-0.012228 0.021179 -0.083311
-0.026017 0.021892 0.082464
0.002192 0.056561 0.015958
-0.015907 -0.003921 -0.081753
0.055814 0.002500 0.065042
0.019468 -0.052067 0.014803
0.037008 0.040848 0.050238
-0.053799 -0.009945 -0.081299
-0.048311 0.030220 -0.079213
0.027945 -0.050150 0.015372
-0.018319 -0.050909 -0.029139
-0.046293 -0.033944 -0.069907
0.032576 0.046148 -0.029946
0.068628 -0.053143 -0.032830
0.058924 -0.001000 0.064279
0.047688 -0.037105 0.051210
0.032892 0.044069 -0.036957
0.026668 -0.047869 0.014335
-0.052725 -0.022204 -0.030126
0.080299 -0.052162 0.030070
0.071514 -0.022183 0.058699
0.023771 0.024335 -0.085468
-0.036267 -0.046596 -0.073592
0.011586 -0.048129 0.064158
-0.022498 0.009586 -0.083311
0.034860 0.045574 0.014525
-0.018403 -0.054000 0.017393
0.031747 -0.047342 -0.079169
0.030202 -0.048862 0.030344
0.026969 0.049900 -0.030594
0.000272 0.054496 -0.067047
0.053167 -0.000000 0.079139
0.062581 -0.052089 0.025125
0.059615 0.007160 0.060394
0.042510 -0.053167 0.016496
0.014705 0.030816 0.082510
0.084686 0.057838 0.045237
-0.050115 -0.005279 -0.074407
0.051766 -0.001000 0.066266
-0.032132 0.037958 0.070837
-0.039857 0.040590 -0.030437
-0.058498 0.000000 -0.076803
-0.036906 0.046108 -0.073591
0.151429 -0.025192 0.055055
0.060548 -0.001000 -0.061897
0.061678 -0.000000 0.060401
-0.019871 0.024868 0.082308
0.057420 -0.007234 -0.066440
-0.017424 0.046396 -0.067189
0.152168 -0.051383 -0.021419
-0.045712 0.020472 0.064641
-0.055339 0.018964 0.073658
0.092958 0.049065 0.056600
0.152754 0.053143 0.025244
0.049619 0.029038 -0.063264
-0.047481 0.027741 -0.067514
0.029878 0.048710 -0.069649
0.117983 -0.001000 -0.064551
-0.050982 0.001000 -0.028267
0.069698 0.059456 -0.032184
0.027384 -0.050389 0.021710
-0.018989 -0.055341 -0.076577
-0.022548 -0.052367 -0.079175
-0.039974 -0.037331 0.078151
0.047193 -0.029044 -0.056750
-0.029047 -0.046381 0.078138
0.046735 0.038926 -0.052211
0.003938 0.034012 0.082546
0.057885 -0.008462 -0.076733
0.151594 -0.000001 0.057635
-0.033628 0.006310 0.082541
0.085546 0.002500 0.062765
0.168250 -0.053553 0.016631
0.093661 0.047957 -0.054296
0.056155 0.013535 0.066142
0.052172 0.024347 -0.070074
0.168250 0.020101 0.051057
0.057974 0.001000 0.067482
0.030028 -0.010759 0.082328
0.050499 0.000000 -0.074500
-0.048712 -0.012110 0.064787
-0.049155 0.010601 -0.074315
0.037823 -0.042970 0.047050
-0.004892 0.023961 -0.083311
0.033586 -0.043183 0.064245
0.119668 0.058502 -0.024672
0.062820 -0.002779 0.060365
0.054134 0.023745 0.067499
0.039144 -0.012702 -0.084389
-0.050149 -0.021820 0.078219
0.060088 -0.016532 -0.058518
0.031520 -0.012853 -0.085493
0.045717 -0.020462 0.071142
0.084809 0.044165 0.056548
-0.037382 0.039928 0.064302
0.066295 0.056616 -0.028160
-0.045550 -0.030592 -0.067465
0.038426 0.039592 0.052443
0.168250 -0.049625 -0.026502
0.053903 -0.018494 0.076275
0.038818 0.031302 0.070953
-0.008550 -0.058436 -0.073654
-0.051981 0.001000 0.072982
-0.050115 -0.005279 -0.067906
0.168250 -0.047028 0.026158
0.043770 0.048082 -0.029089
-0.026003 -0.021913 0.082464
-0.055268 -0.019171 0.073656
0.057645 -0.002515 0.061885
-0.017424 0.046396 0.064189
0.168250 0.052328 0.022582
-0.023478 -0.051602 0.015873
0.057577 0.008573 -0.064879
0.044041 0.045390 0.044176
0.009100 0.048626 -0.067150
0.033535 0.046321 0.041970
-0.014366 -0.055187 0.076183
0.035236 0.035175 -0.067385
0.048913 -0.030173 -0.069972
0.055925 0.002750 0.064212
0.011994 -0.048051 -0.067160
0.100641 -0.047846 -0.045079
0.035647 0.047856 0.017376
-0.054607 -0.003613 0.078349
0.034313 0.042582 -0.067255
0.092906 0.019806 0.062090
0.010484 0.022094 0.080311
0.062211 -0.055734 0.017778
0.053632 0.020961 -0.065141
0.050233 -0.021628 -0.081221
0.057271 0.002500 -0.062495
0.032087 -0.011544 0.082500
0.124194 -0.001000 0.062779
-0.041453 0.035804 0.064374
0.115912 -0.053920 0.023208
0.055853 0.038754 0.011178
-0.028922 0.043117 0.079245
-0.032006 -0.002584 -0.085396
0.032233 -0.047642 0.034748
0.014467 0.047313 -0.073674
-0.014821 0.057168 0.070641
0.011018 0.030017 -0.085353
0.069881 0.060370 -0.008656
0.048329 0.013601 0.064761
-0.016217 0.051604 0.014401
0.039630 0.030303 -0.067470
0.055052 -0.005799 -0.066524
0.065407 0.058278 0.014877
-0.052444 -0.017177 0.016797
-0.017451 -0.051207 0.014394
0.032898 -0.048105 -0.033046
0.017419 -0.046398 -0.067189
0.027945 -0.050150 0.015372
-0.007404 0.054000 0.064056
0.039026 -0.000000 0.081865
0.023771 0.024334 0.082468
0.168250 -0.043775 0.035770
0.069804 0.060235 0.015052
0.036264 0.044264 0.049867
0.018989 0.055341 -0.076577
0.000000 -0.032916 0.082558
0.057501 -0.001000 0.064228
0.030683 -0.047291 0.025810
-0.041843 -0.027183 0.064524
-0.037354 0.039960 -0.081145
0.068211 0.058863 -0.030445
0.096049 0.001000 -0.065499
-0.057558 -0.001000 0.015023
0.152243 0.043323 0.043065
0.168250 -0.053109 -0.005589
-0.020964 -0.044924 0.070715
0.016319 -0.029964 -0.085502
-0.058912 0.004882 -0.070499
0.045957 -0.036195 -0.076574
0.009717 -0.058230 -0.073652
0.036218 0.041512 -0.048743
-0.039988 0.029783 -0.073980
-0.000116 -0.054049 -0.029193
-0.031520 -0.012857 0.082492
0.057645 -0.002514 -0.061885
-0.006412 0.051607 -0.070499
0.133462 -0.058076 0.005776
0.006254 -0.039311 -0.084670
0.090372 -0.001000 -0.064186
-0.047332 -0.031731 -0.079206
-0.022940 0.049478 0.064135
0.056155 0.013535 0.066142
0.025468 -0.050893 0.016243
0.037988 0.041296 0.047732
0.103002 0.002750 0.062889
0.049277 -0.025569 -0.058653
0.135667 0.054442 0.040445
0.034209 0.045884 -0.029982
0.168250 0.021899 0.053159
-0.026178 0.018049 0.082297
-0.012886 -0.057073 0.073586
0.025931 0.042332 0.064260
-0.045942 0.024077 -0.082297
-0.045140 -0.025547 -0.082289
-0.049203 0.012113 0.016212
-0.017787 -0.051792 -0.081148
0.054219 0.011644 0.064795
0.050483 -0.026432 0.076230
0.037524 0.032702 -0.073929
0.061381 -0.012095 0.059397
0.053834 0.018696 -0.079274
0.057204 -0.023349 -0.056471
0.118022 0.010421 0.061749
-0.031350 0.040021 -0.028948
0.054070 -0.023717 0.070658
-0.019839 -0.046982 0.014320
0.049289 -0.037354 -0.051390
0.168250 0.026717 -0.048019
0.000000 -0.039360 -0.084702
0.136821 0.000000 -0.059931
0.005356 -0.055272 -0.029608
-0.005816 0.054191 0.017438
0.036308 0.046649 0.067499
0.039190 0.045356 -0.045060
0.079989 -0.054595 0.030616
-0.051705 0.002500 0.066205
0.135376 0.029283 -0.056717
0.024889 -0.049404 0.014591
0.062934 0.002500 0.060504
0.000000 0.053234 0.078920
-0.050399 0.024575 -0.029077
-0.009730 0.058307 0.067499
-0.016848 0.049175 -0.082266
0.100514 -0.058819 -0.000000
0.045437 0.034074 0.056007
0.097898 -0.044361 0.049492
0.018096 -0.026217 0.082316
0.100671 -0.040163 -0.053315
-0.032638 -0.048553 0.073557
0.052971 0.001000 -0.070482
-0.026463 -0.050495 0.076171
-0.047735 -0.015496 0.064728
0.054942 0.006899 -0.066617
0.049899 0.035838 0.054540
0.052855 -0.038806 0.014177
0.055268 0.022447 0.058776
0.118429 0.042028 0.055143
-0.007558 0.003220 0.077813
0.046350 0.035767 -0.057604
0.045717 -0.037905 0.047056
0.156797 0.001000 0.058259
0.055460 -0.023294 0.059171
0.066848 0.059241 0.015446
-0.053834 -0.018696 0.076274
0.050839 -0.025546 -0.056726
0.043083 -0.039574 0.073564
-0.019116 0.051101 -0.067107
0.168250 -0.055886 -0.000000
0.059512 -0.052302 -0.031697
-0.050355 -0.012436 0.079379
0.152160 0.035590 0.049263
0.012953 0.050355 0.079274
0.054070 -0.011531 -0.065757
-0.003396 0.056897 0.017441
-0.028762 -0.046459 -0.067188
0.037044 0.040327 0.053999
-0.053166 0.013159 0.013730
-0.010267 -0.053539 0.017426
0.058888 -0.001000 0.062685
0.068159 0.054139 -0.048900
0.071020 -0.056594 0.017786
-0.023681 -0.049191 -0.067140
0.098082 -0.048513 0.039464
-0.028677 -0.049354 0.066637
0.060199 0.000000 -0.060712
0.028040 -0.047897 0.021135
0.032156 -0.047645 -0.030251
0.065211 -0.055536 0.015661
-0.012953 0.050353 -0.082274
-0.029283 0.012476 -0.085319
0.067168 0.058671 0.014620
0.049232 -0.031390 -0.052475
0.152412 0.048305 0.041213
0.124059 0.002500 0.061500
-0.006254 0.039311 -0.084670
-0.055000 -0.001000 -0.029483
0.058377 0.003805 0.073770
0.005238 -0.051750 0.079284
0.053387 -0.027240 0.057561
0.005752 0.054198 -0.067053
0.039298 -0.042473 -0.045547
-0.020121 0.024644 -0.085308
0.056706 0.002500 -0.069205
0.076680 0.058979 -0.039857
0.022085 0.052628 -0.032121
0.024633 0.043019 -0.073749
0.046134 0.036873 0.070600
0.080307 -0.055200 0.012822
0.060213 0.002500 -0.060750
0.037823 -0.042970 0.047050
0.062282 -0.007570 0.059999
0.041496 -0.041526 0.046442
0.008901 -0.030731 -0.085361
0.135021 -0.031084 -0.052400
-0.046955 -0.022041 0.079309
0.064820 -0.053982 0.012282
-0.045712 0.020472 0.064641
0.047563 0.036302 0.056811
0.049488 0.032332 -0.070499
0.008221 0.053431 -0.029183
0.053923 0.012738 0.064776
0.168250 -0.005519 0.054388
0.034740 0.046292 0.036630
0.041290 0.051058 0.016286
0.039237 -0.025745 0.080255
-0.002517 0.056942 -0.032192
0.049744 -0.035693 -0.049550
0.085546 0.002500 0.062765
0.069381 -0.056476 0.016288
-0.025931 -0.042332 -0.073761
-0.003463 0.051900 -0.082285
0.098083 -0.045685 0.043933
-0.006033 0.056286 0.015953
0.055111 0.018198 -0.063954
0.026870 -0.041756 -0.067270
-0.010442 -0.048402 0.070654
0.039280 -0.033828 -0.082255
-0.047001 -0.017383 -0.067695
-0.052260 -0.022722 0.076250
-0.036562 -0.040666 0.064289
0.044555 0.032047 0.061426
0.034353 0.038856 0.079245
0.013892 -0.020126 -0.083311
0.036256 0.047367 0.030734
-0.055664 -0.001000 -0.029613
-0.028701 -0.049398 0.017317
0.032143 0.040752 -0.082244
0.071696 0.060939 0.013086
0.026003 0.021913 -0.085464
-0.050483 0.026432 -0.079230
0.047698 -0.015601 0.071227
0.076507 0.048752 -0.056172
-0.013000 -0.057610 0.070645
0.067647 0.056198 0.044525
0.136996 -0.001000 -0.061186
0.137025 0.002750 0.061368
0.029543 0.016879 -0.085473
0.077089 0.053157 -0.047863
0.168250 0.055935 -0.005717
-0.036562 -0.040666 0.064289
-0.040776 0.040247 0.017166
0.059972 0.053826 0.037899
0.037008 0.040848 -0.050238
0.136394 0.057351 0.015779
0.036733 0.043882 0.050766
0.028973 0.043083 -0.082245
0.034977 -0.042368 0.042544
-0.016339 -0.027384 0.082325
-0.057106 0.006577 -0.029861
0.044961 -0.046578 0.035243
0.021654 -0.011365 -0.083311
0.034209 0.045884 -0.029982
-0.049691 0.023644 -0.067586
-0.013765 0.053014 0.078152
-0.020669 -0.013070 -0.083311
-0.057233 0.008433 0.016639
-0.003591 -0.051891 0.079285
0.052880 0.056318 0.016386
0.049042 -0.010982 -0.074308
0.024129 -0.051306 -0.030618
0.077322 0.058921 -0.018725
0.080344 -0.033691 0.054664
-0.006215 -0.033635 -0.085543
0.033230 0.046616 -0.030964
-0.053484 -0.011901 0.013708
0.056040 0.039945 -0.025961
0.021541 -0.050071 -0.067125
0.063741 0.059310 0.016427
0.057474 -0.000000 0.062226
0.049296 -0.044555 -0.044647
0.036121 0.047171 0.015217
0.056793 -0.000000 0.063014
0.014617 -0.055125 0.017412
-0.056864 0.003960 0.076378
-0.015477 -0.052295 -0.032155
0.061039 0.014114 -0.059734
0.055985 -0.002514 -0.064094
0.058519 -0.000000 0.061402
0.126854 0.040799 0.054043
-0.042760 -0.039923 0.073563
0.041321 -0.039472 0.045027
0.024121 0.046005 0.079252
0.000000 0.057799 -0.078092
0.042083 0.049667 0.014601
-0.045712 0.020472 0.064641
0.102419 0.059369 0.026026
0.041653 0.038894 -0.079182
0.045549 0.022738 0.013897
-0.023638 -0.049209 -0.067140
0.000000 -0.000000 0.077500
0.152220 -0.054572 -0.000000
0.061038 0.014114 0.059734
-0.018593 -0.051290 -0.067103
0.133720 -0.052996 0.022327
0.168250 0.045335 -0.030593
0.063804 0.053399 -0.027699
-0.030775 0.014573 -0.085482
0.085783 0.059151 -0.026514
0.059728 0.057316 -0.032942
-0.017787 -0.051792 -0.081148
0.021756 0.045807 -0.029049
0.168250 -0.048009 -0.029617
-0.034174 -0.002969 -0.085572
-0.008672 -0.022866 -0.083311
0.031280 0.039893 -0.028946
0.068146 0.051407 -0.052526
0.050993 -0.020749 0.064636
-0.009687 0.053916 0.078157
0.135745 0.049823 -0.043105
0.152843 0.057717 -0.014041
-0.045218 -0.021492 -0.074124
0.003929 -0.058928 0.070657
0.156547 -0.000000 0.056797
0.000000 0.033852 -0.085582
0.124823 0.002500 -0.061478
0.006124 -0.049120 0.064141
0.066326 -0.008652 -0.063004
0.022548 0.052367 -0.079174
0.047913 0.030824 0.057589
0.039144 -0.012702 -0.084389
0.013312 -0.055448 0.066531
0.030803 -0.047705 -0.030121
-0.011219 -0.053351 -0.067067
0.043609 0.036152 0.054606
-0.000008 0.050680 0.016885
0.093528 0.055674 -0.049653
0.000000 0.039373 0.081699
0.061077 -0.051462 -0.029848
-0.024028 0.051786 -0.032107
0.045502 0.038568 -0.055271
0.068071 0.018727 -0.062962
0.067545 0.057929 0.012261
-0.005543 0.049191 0.070641
0.029567 0.045909 -0.032044
0.053036 0.001000 -0.027865
-0.045419 0.022680 -0.031146
0.007274 0.003818 -0.080814
0.049619 0.036186 -0.057032
0.048415 -0.026139 0.060908
0.031185 -0.048303 -0.032589
-0.036389 0.033979 0.070906
0.112625 0.002500 -0.062551
0.049478 0.029269 0.066988
0.062902 0.054004 -0.028795
-0.048609 -0.025650 -0.067551
0.109687 0.019004 0.061753
0.053079 0.031490 -0.059017
0.032233 -0.047642 0.034748
0.008920 0.056261 0.017431
0.056666 -0.011203 0.067303
0.064888 0.057900 0.014763
0.152546 0.049156 -0.035042
0.046134 0.036873 0.070600
-0.024121 -0.046005 0.079251
0.056551 -0.011910 -0.065792
0.024830 -0.052976 -0.076567
0.115747 -0.050293 0.039619
0.006804 -0.023489 -0.083311
0.000000 -0.059041 -0.074070
0.135376 0.029283 -0.056717
0.044636 0.045648 -0.044283
0.023091 -0.053757 0.073569
0.032631 0.046949 -0.037163
0.004558 -0.015736 0.078752
-0.058362 0.004034 -0.076769
0.056879 0.003738 0.076380
0.000000 0.057799 -0.078092
-0.023771 -0.024335 0.082468
0.047419 -0.016287 0.071215
0.119668 0.058502 -0.024672
0.060642 0.002750 0.060441
-0.039026 0.000000 -0.084865
0.043051 -0.028929 0.079272
0.066323 -0.043208 -0.049227
0.041713 0.042073 -0.051484
-0.034700 -0.035646 -0.067376
0.056682 -0.011205 -0.065890
0.066325 -0.016324 -0.061993
0.071560 -0.057437 0.007434
0.050839 -0.025546 0.056726
0.151383 -0.037465 0.043935
0.091340 0.001000 0.064427
0.038763 0.040672 0.049085
0.027751 0.019655 -0.085466
0.060291 -0.007266 -0.062628
-0.017787 -0.051793 0.078148
-0.008138 -0.054937 -0.029602
-0.010126 -0.048471 0.064152
0.168250 0.050253 0.020671
0.039271 0.032035 -0.028809
0.030597 0.045302 0.031448
0.008265 0.056429 -0.079189
0.051663 0.017960 -0.081244
0.049730 -0.039358 -0.046628
0.168250 -0.030914 -0.047856
0.027835 -0.050744 0.016467
0.124746 0.000000 -0.061449
0.031350 0.040021 0.014199
-0.019194 0.055910 0.067499
0.168250 0.002750 0.056229
0.050368 0.002750 -0.074452
0.006412 -0.051607 -0.070499
-0.011324 0.029859 0.082351
0.057067 -0.012867 -0.076700
0.031413 -0.038536 0.064326
-0.045495 0.029962 0.014023
0.054593 -0.040310 0.013804
0.041804 0.042501 0.046774
0.003616 0.049316 0.070638
0.057463 -0.022605 -0.059313
0.135090 -0.055016 -0.011290
0.168250 -0.053270 0.003537
0.080787 0.002500 -0.062469
0.042427 -0.036711 -0.048950
-0.057901 -0.001000 0.015859
0.024292 -0.020510 -0.085296
-0.033730 -0.042494 0.014242
0.060015 -0.050778 -0.029478
-0.056849 0.001000 0.014175
0.005216 -0.053801 -0.029189
0.011174 -0.049474 0.016864
0.058842 0.004876 0.070803
0.013263 0.055055 0.015932
0.029434 -0.047198 0.025746
0.059317 0.037979 0.058662
0.062191 -0.005305 0.062653
0.044005 0.041066 0.049652
-0.050367 -0.022162 0.016884
0.038671 0.042507 -0.044557
0.040149 0.039499 0.051067
0.030202 -0.048862 0.030344
-0.057901 0.001000 0.015859
0.119473 0.061417 -0.017645
-0.039280 0.033828 -0.082255
-0.047598 -0.026929 -0.081192
0.060506 0.005737 0.062869
0.136303 0.059881 0.000000
-0.055339 0.018964 -0.076658
0.079100 0.061751 0.000000
0.033609 0.036603 0.070860
0.050246 -0.004138 -0.067926
0.011219 0.053351 0.064067
-0.049436 0.009344 0.064835
-0.050499 0.000000 -0.074500
0.026153 0.044825 -0.082249
-0.028669 -0.049343 -0.032066
-0.053799 -0.009945 0.078299
0.102891 0.059703 -0.018368
0.137026 0.001000 -0.061399
0.034523 -0.046135 0.038812
-0.051595 -0.024191 -0.079242
0.049706 -0.047308 -0.035294
-0.050499 0.000000 -0.067999
0.071721 -0.054891 -0.008558
-0.025952 -0.018371 0.082297
0.168250 -0.025588 0.048061
0.135143 -0.006836 -0.059788
0.038474 -0.039383 0.047335
0.050368 0.002750 -0.067951
0.100580 -0.056622 -0.024283
-0.007558 -0.003220 0.077813
-0.009200 0.051188 -0.082280
0.023091 -0.053757 0.073569
0.026050 -0.026009 -0.085035
-0.045063 0.025607 -0.082289
-0.023031 -0.050620 0.014778
0.058378 0.013449 0.059949
0.034810 0.047439 0.017352
0.168250 0.022206 -0.050215
0.065358 0.002500 -0.060848
0.036830 0.042194 -0.045188
0.068097 0.033181 -0.061207
0.024892 0.051384 -0.069602
-0.056581 0.002500 0.015858
0.044540 -0.053552 0.017741
-0.053484 -0.011901 0.013708
0.118676 0.047154 -0.054896
0.003616 0.049316 -0.067138
-0.022208 0.052150 0.015883
0.084635 0.027481 0.061010
0.049859 -0.030628 -0.056439
0.062282 -0.007570 0.059999
0.035769 0.044594 0.029018
-0.010126 -0.048471 -0.073654
0.136821 0.000000 -0.059931
0.024220 -0.048934 0.064144
-0.050083 0.031299 0.070619
0.059952 0.054858 0.032290
0.062199 -0.038852 0.052475
0.032899 0.045421 0.014520
-0.051197 -0.012728 -0.070499
0.097884 -0.047882 0.045171
0.004667 -0.006761 0.077813
0.098090 -0.052700 0.029459
0.040333 -0.043143 0.070590
0.026264 -0.049088 0.014599
-0.042760 -0.039923 -0.076564
0.017502 0.029268 -0.085496
-0.022498 0.009585 0.080311
0.036253 -0.044441 0.043194
0.168250 0.041194 0.040363
0.056949 -0.011741 0.064175
0.033483 0.044763 0.017281
0.039407 0.032172 0.014062
0.054133 -0.007963 -0.081314
-0.043491 -0.040037 0.067498
-0.052971 0.001000 -0.076982
0.117937 -0.037413 -0.050741
0.041523 -0.041137 0.042880
0.041605 0.050511 0.015282
0.000000 0.058502 0.073590
-0.026050 0.026009 0.082035
0.110472 0.055261 0.042756
0.163614 0.002750 0.057044
0.134957 -0.045541 -0.042943
0.005593 -0.049186 -0.073641
0.043508 -0.034056 0.053097
-0.006149 0.005448 0.077813
0.009687 -0.053916 -0.081157
0.040333 -0.043142 -0.073591
0.168250 0.022425 -0.052899
-0.056341 -0.003373 -0.028710
0.049195 0.012099 -0.028461
0.000000 -0.058505 -0.076591
0.119886 -0.056215 -0.000000
0.061084 -0.048607 -0.026197
0.168250 0.031119 0.045288
-0.000000 0.056929 -0.032192
-0.013562 -0.053875 -0.029584
-0.050918 0.002750 0.014548
0.058933 0.003808 0.070813
-0.016217 0.051604 0.014401
-0.000461 0.054486 0.017443
-0.053507 -0.020341 0.015344
0.048443 -0.025378 0.078200
-0.028973 -0.043083 -0.082246
0.056150 -0.041233 -0.027484
0.057924 -0.049180 -0.029108
0.127256 0.048252 -0.048290
0.050160 0.013293 0.079372
-0.045712 0.020472 -0.074142
0.085195 0.059592 -0.040001
0.061675 0.054845 -0.029207
-0.026130 -0.039025 -0.083255
0.059911 0.017835 0.059331
0.016076 -0.052050 -0.067090
0.005238 -0.051750 -0.082284
0.012898 -0.039230 -0.084383
0.046037 -0.035714 0.052912
-0.027563 -0.044006 -0.082247
-0.054124 -0.011176 0.016694
-0.054646 0.018357 0.067179
0.009743 -0.030472 -0.085358
0.152253 0.030988 -0.051680
0.120087 0.058877 0.000000
-0.010442 0.032568 -0.085531
-0.020101 0.053345 0.066568
0.027151 0.051824 -0.076563
0.054592 -0.003826 -0.081348
0.085004 0.019971 -0.061826
0.066695 -0.037453 -0.050973
0.168250 -0.021891 0.052732
-0.034700 -0.035646 -0.073877
0.043316 0.052298 0.017478
-0.055098 -0.014566 0.076300
-0.025750 0.048086 -0.032082
0.026969 0.049900 -0.030594
0.098090 -0.052700 0.029459
0.037988 0.041296 0.047732
0.055814 0.002500 0.065042
-0.005939 0.058759 0.070656
0.119401 0.058523 0.024700
0.080047 -0.008841 0.064392
0.043305 0.038006 -0.057124
0.035856 0.042926 0.042240
0.034712 0.039050 -0.070499
0.066228 -0.055277 0.014453
0.076330 0.027439 0.060458
0.098393 0.002500 0.064155
-0.018270 -0.053629 0.015908
