0.005486 0.000896 0.062227
0.013590 0.045261 0.054724
-0.080751 0.043239 0.080749
0.012976 0.024826 0.063686
-0.111902 -0.016115 0.068999
-0.026937 -0.048718 0.032478
-0.031297 -0.055872 0.072119
-0.072099 -0.030872 -0.083995
-0.040232 0.053583 -0.077683
0.027089 -0.000604 0.065476
-0.005174 0.030687 -0.072116
0.006784 -0.013699 0.060897
0.000746 0.006532 0.065343
-0.022191 0.045708 0.021514
-0.060407 0.013715 -0.080252
0.029117 -0.047109 -0.042693
0.000145 0.054192 -0.029829
-0.014205 0.041762 -0.042634
-0.066264 0.054207 0.018924
-0.104990 -0.003063 0.072974
0.030039 0.025170 -0.062127
-0.078806 0.047335 0.065645
0.043497 -0.057451 0.013836
-0.087296 0.041671 0.015756
0.063691 0.008806 -0.060226
-0.005107 -0.013694 -0.029461
0.113652 0.020828 0.054422
0.081548 0.057702 -0.021643
0.097655 0.029385 -0.050180
-0.086795 -0.001604 0.083922
-0.092798 0.033496 0.080751
-0.000275 -0.019672 0.060970
-0.088146 0.041608 -0.065744
0.022317 0.059933 0.001500
-0.015617 0.036903 0.065827
-0.111051 -0.000604 0.015456
-0.064312 -0.059824 0.072151
0.030742 0.060002 -0.025447
0.080669 0.015088 -0.057643
0.046486 0.001146 0.064391
-0.011878 0.032827 0.065898
-0.029578 0.046426 0.015839
-0.011523 0.027290 0.080773
-0.005534 -0.018467 0.080845
-0.087177 0.046988 -0.075057
-0.067550 0.048749 -0.080774
-0.019726 0.042597 -0.030551
0.096914 -0.053054 0.022950
-0.032822 -0.047386 0.015799
-0.078208 -0.050754 -0.030600
0.007636 0.000896 0.061941
0.001256 -0.040358 0.012678
0.080397 -0.041400 -0.044125
0.003888 -0.001604 0.062929
0.043486 -0.047289 0.045433
0.002350 -0.049224 0.015831
-0.043609 -0.057481 -0.068024
0.080731 0.021714 -0.056627
-0.013375 0.030710 -0.068999
-0.005530 0.031265 -0.072113
-0.092490 0.040783 -0.028967
0.080556 0.033406 0.059049
-0.060498 0.032119 0.084044
0.072790 0.049538 -0.043155
-0.000854 -0.024706 0.075133
-0.109589 0.001146 -0.029311
-0.047777 -0.050637 -0.072144
-0.103193 -0.034170 0.075086
0.002854 0.000896 0.065699
-0.038230 0.051500 -0.028070
-0.045680 0.054633 -0.068017
-0.052399 0.052826 -0.030691
-0.100023 -0.036668 0.018580
-0.111291 0.007613 -0.028405
-0.042295 -0.054665 0.018918
-0.015093 0.040186 0.054462
-0.054928 0.006605 0.079313
-0.081999 -0.053921 -0.072108
0.056640 0.057445 -0.023942
-0.098067 0.031801 -0.030328
-0.061622 -0.035105 0.084042
-0.034929 0.043840 0.065706
-0.006899 -0.017205 0.066226
-0.104757 -0.014897 -0.080872
-0.026605 -0.020916 0.083966
0.113652 -0.035924 0.043555
-0.077851 -0.050496 -0.027603
-0.018372 0.044333 -0.075056
0.000488 -0.028674 -0.053392
-0.053798 0.030415 0.083870
-0.040091 0.006010 0.080252
0.072782 -0.002604 0.063929
0.080669 0.015088 -0.057643
-0.002904 0.039584 -0.054130
-0.058393 0.055301 0.077691
-0.065246 0.049312 0.068999
-0.064327 0.056703 0.068999
-0.004487 0.027266 0.063215
-0.003426 -0.028534 -0.058059
0.008087 -0.005605 0.061773
-0.104200 -0.029653 -0.077722
-0.008509 0.028270 -0.060932
-0.066825 -0.022782 -0.081811
-0.109950 0.001146 -0.029632
0.055490 0.024666 -0.059344
0.065215 0.057288 -0.015865
-0.111216 0.013109 -0.075186
0.003376 -0.002604 0.068982
0.000152 -0.029457 -0.055744
-0.012105 -0.036307 -0.053396
-0.043562 -0.057140 -0.029190
-0.108740 -0.012783 0.066304
-0.058195 0.052720 -0.065550
-0.067426 0.046193 -0.065664
0.004698 0.041117 0.058323
-0.002935 0.016356 0.079743
-0.091728 -0.045105 -0.030469
-0.073412 -0.053906 -0.028057
0.098568 0.053563 -0.012070
0.010761 -0.054763 -0.026652
-0.065929 -0.049813 0.072158
0.029251 -0.009428 -0.060719
-0.056507 0.047799 -0.072137
-0.001627 -0.002604 -0.075482
-0.049359 -0.053354 0.080784
-0.069669 0.004818 -0.080252
-0.020435 -0.004665 0.084071
-0.019082 0.041575 -0.039418
0.070203 0.000896 -0.061153
-0.007589 0.052349 0.017844
-0.050951 -0.056266 0.079660
-0.000697 0.040886 -0.027491
0.001278 -0.020727 -0.072188
-0.059793 0.004760 -0.079313
0.113652 -0.006525 0.055928
0.004335 0.002204 0.072313
-0.070814 0.050000 0.015901
-0.004326 -0.024117 -0.061089
-0.082732 -0.053593 0.068999
0.009628 -0.054915 0.001500
0.043343 -0.031524 0.061214
-0.020505 0.045149 0.032392
0.097536 -0.013933 -0.054798
-0.041700 0.037640 0.082881
0.097452 -0.040949 -0.043985
-0.066264 0.054207 0.018924
-0.108421 0.010956 0.066280
-0.012068 -0.027834 0.066041
0.046997 0.042077 0.057965
-0.025930 -0.052052 0.022896
-0.102196 0.016695 0.015320
-0.014443 0.041718 0.050803
-0.111113 -0.000604 -0.027203
-0.028666 0.040728 0.072261
0.039289 0.057802 0.027876
-0.020356 -0.044280 -0.042654
-0.088761 0.001457 0.084071
-0.026533 -0.051224 0.077670
0.010760 0.000896 -0.059348
0.004207 0.000896 0.064171
-0.099737 -0.027150 -0.080789
-0.004272 -0.024013 -0.061137
0.113652 -0.041802 0.041431
0.007599 -0.024542 0.061462
-0.016874 0.044738 0.041915
-0.080480 -0.043961 0.072260
-0.001664 -0.015402 0.079771
0.064947 0.057307 0.018887
-0.030459 0.002319 -0.081811
0.007746 0.005935 0.061695
-0.043145 -0.052348 0.068999
-0.100891 0.028013 0.065982
-0.080727 -0.040628 -0.081755
-0.098990 -0.037825 -0.030349
-0.111703 0.004974 -0.028361
-0.001598 -0.001604 0.068999
-0.080751 0.043239 -0.080749
-0.037179 -0.048002 -0.065689
0.022437 0.049093 -0.049681
-0.044883 0.056616 0.072151
0.030586 0.037923 -0.056937
-0.023609 0.044229 -0.027847
0.003995 0.007059 0.065021
-0.083394 0.049323 -0.075061
0.025658 0.001146 -0.062342
0.030710 0.046386 -0.052755
-0.041224 0.051257 0.065576
0.022597 0.055064 -0.037458
0.000113 0.016666 0.067088
-0.022400 -0.001604 -0.083922
0.013690 0.053921 0.040047
-0.055257 -0.017973 -0.080252
-0.009994 0.039684 -0.048296
0.001900 0.010540 -0.068787
-0.040131 0.045709 0.072174
-0.003508 0.027472 -0.058925
-0.035438 0.054261 -0.072130
-0.039893 0.029212 0.084010
-0.087235 -0.050157 -0.075058
-0.066673 -0.055031 -0.079655
-0.051669 0.052367 -0.027692
-0.005689 0.030816 0.060745
-0.078279 -0.050795 0.065640
-0.020401 -0.045233 -0.037022
0.013524 0.042288 -0.056401
-0.025625 0.041479 -0.080745
-0.005689 0.030816 0.060745
0.008072 -0.052629 0.012919
0.113652 -0.014915 -0.054077
-0.065770 -0.051073 -0.027613
-0.085724 0.037161 0.065822
-0.029803 -0.051999 0.016813
0.005472 0.007259 -0.061206
0.021733 0.025835 0.061959
0.003781 0.011845 0.061449
-0.039461 0.050322 0.015907
0.080400 -0.044977 -0.040105
0.034329 -0.002604 0.066850
-0.015089 -0.032059 0.065967
-0.021310 -0.049072 -0.033462
0.005864 0.017806 -0.057816
-0.109190 0.002223 0.079848
-0.088956 0.037238 0.080745
0.000784 0.001146 -0.065311
-0.105794 -0.014332 0.068999
-0.019857 0.044688 0.038130
-0.103598 -0.018650 0.080843
-0.004891 -0.048911 -0.033794
-0.100539 0.022473 0.080797
-0.001718 0.054715 0.017886
0.098606 0.053948 0.008532
0.056633 0.000896 0.064084
0.016424 -0.058198 0.019284
-0.041224 0.051258 -0.065576
-0.057874 0.014448 -0.080252
-0.036127 -0.055550 -0.077679
-0.044868 0.056704 -0.068999
-0.106364 0.022666 0.016911
0.014168 0.050624 -0.045854
0.002763 0.054481 0.016214
0.016723 0.058893 -0.022505
-0.049931 -0.008365 0.079313
-0.092665 0.037146 -0.027426
-0.059490 -0.050863 0.072139
-0.003508 0.027472 -0.058925
0.081706 0.058277 0.001500
0.002469 -0.055114 0.016192
-0.028433 -0.052364 0.023564
-0.015453 0.011103 -0.082888
0.113652 -0.027192 0.049561
-0.024346 0.046710 0.077669
-0.054598 -0.060148 -0.074999
-0.112571 -0.000598 -0.029766
0.043493 -0.054304 0.030959
-0.087235 -0.050157 0.075057
0.064477 0.054744 0.038339
-0.031351 -0.051168 -0.079642
-0.105516 0.001146 0.016049
0.030182 0.038042 -0.059511
-0.108991 -0.020749 0.068665
-0.003615 -0.000604 -0.026767
0.007984 -0.053693 0.026625
-0.111065 -0.000604 -0.027184
-0.080727 0.037408 0.081757
-0.009834 -0.036868 0.077693
0.008168 0.000896 0.063155
-0.021798 0.045135 -0.029441
-0.082732 -0.053592 -0.068999
-0.015361 0.024150 -0.081754
-0.110752 -0.001604 0.078813
0.113652 0.045763 0.033917
-0.043435 0.047883 -0.027613
0.028909 -0.010462 -0.063118
-0.055257 -0.017974 0.080252
-0.022365 -0.049246 0.036248
-0.022454 0.039148 -0.080744
-0.004365 -0.023232 -0.079721
-0.048343 0.037721 -0.083168
-0.043217 0.046594 -0.065657
-0.093416 -0.032906 -0.065952
-0.013674 0.042562 -0.046957
-0.079424 0.049811 0.018851
-0.100353 0.018761 0.066143
0.014168 0.050624 -0.045854
0.004984 -0.008735 0.061726
0.043789 -0.001604 0.064489
0.025710 -0.056804 0.014322
0.081477 0.058288 0.017625
-0.102332 -0.017100 0.066228
0.005930 0.046881 -0.048259
-0.107954 0.010472 -0.079784
0.002672 0.001146 -0.063627
0.063691 0.008806 -0.060226
-0.072691 0.044506 -0.072194
-0.050704 -0.059985 0.075095
-0.112402 -0.002604 -0.028773
0.031254 0.057916 -0.017257
-0.026533 -0.051224 -0.077670
0.079140 -0.009477 0.063914
-0.019115 -0.045324 -0.036266
-0.003537 0.043183 0.054722
-0.032570 -0.046028 0.065723
0.046073 -0.041766 -0.051815
0.002021 -0.016316 -0.075186
-0.099031 -0.037860 0.068366
-0.005279 0.010545 0.017713
-0.108732 0.022142 -0.068999
0.097629 -0.056033 -0.003941
0.001557 0.011931 0.067642
-0.000464 -0.002604 0.013518
-0.097134 0.024619 0.072542
-0.003136 0.052155 -0.036381
-0.000977 -0.016959 -0.060783
-0.004085 0.005382 -0.026872
0.035779 0.000896 -0.062567
-0.020699 -0.044547 0.045112
-0.035047 -0.016295 0.081811
0.009553 0.055760 0.016102
-0.046123 0.056290 0.075092
0.001256 -0.040358 0.012678
0.000077 0.006898 -0.065009
-0.031134 -0.048124 -0.068999
-0.033726 -0.054649 -0.030627
0.038930 0.054070 -0.048153
-0.065661 0.051321 0.015924
0.028901 -0.018318 -0.062001
-0.059637 -0.055860 0.018939
-0.020405 -0.044312 -0.079641
0.081977 0.055727 -0.014258
-0.045497 0.047022 0.072151
-0.018459 0.043627 -0.027792
0.007955 -0.002604 -0.061410
0.003579 0.004542 0.075251
-0.023476 0.045986 0.017673
-0.093416 -0.032906 -0.072453
0.098320 0.052799 0.021147
-0.009161 0.032471 -0.054507
-0.093834 0.024141 -0.081755
-0.089884 0.040234 0.065769
-0.030201 -0.051185 0.016162
-0.102238 0.018920 -0.080819
-0.029199 0.017481 0.083797
-0.005432 -0.012161 -0.066314
-0.078907 -0.022094 0.083796
-0.010081 -0.037785 0.056513
-0.058280 -0.033428 -0.083872
0.079122 -0.054600 0.023827
-0.050040 -0.017340 -0.080252
-0.049241 -0.056876 -0.028108
-0.002465 -0.028520 -0.056872
-0.021546 0.045405 0.017666
0.063165 -0.056350 -0.027626
-0.012152 0.048973 -0.029717
0.080379 -0.043428 -0.045675
0.113652 0.015508 -0.053230
-0.054598 -0.001604 0.079000
-0.003044 0.048848 -0.045465
-0.054049 0.055390 -0.068004
-0.089492 0.040553 0.018730
0.030944 0.054079 -0.042488
-0.019557 0.040854 -0.044470
-0.085591 0.006220 -0.083850
-0.062789 -0.015792 0.080252
-0.011885 0.036628 0.059982
0.005130 0.055712 -0.031441
-0.040086 -0.056349 0.017427
0.047425 0.054104 0.044965
-0.083982 0.047379 -0.030560
-0.045397 -0.052792 0.080780
-0.028613 -0.023539 -0.083964
-0.018714 0.044822 -0.035090
-0.015361 0.024150 -0.081754
-0.094578 -0.045073 0.072090
-0.073658 0.026645 -0.083987
0.001443 0.038341 -0.024461
-0.020716 0.041353 -0.079640
-0.016192 -0.044058 0.049316
-0.065661 0.051321 0.015924
0.080379 -0.043428 -0.045675
0.004525 0.056758 0.019084
-0.112213 0.004124 0.018095
0.015283 0.058767 -0.007156
-0.013320 -0.033849 0.068999
0.001956 -0.020134 0.059639
-0.078776 0.048489 0.016269
0.002979 0.006970 -0.063378
0.026824 0.057801 0.001500
0.034635 -0.035439 0.056399
0.005899 0.004218 -0.061365
0.096785 -0.039068 0.045435
-0.013674 0.042562 0.049958
0.113652 -0.054874 0.005037
0.019569 0.001146 -0.060298
0.012571 0.057067 0.016120
-0.015241 -0.044178 -0.038938
0.113652 0.051737 0.007113
-0.035404 0.054307 -0.068999
-0.022470 -0.039566 0.065836
-0.110099 0.000896 0.017792
-0.107597 -0.001604 0.068999
-0.008274 0.038137 -0.053114
-0.001718 0.054715 0.017886
-0.081749 -0.053427 -0.075063
0.012790 -0.057786 -0.004651
0.006612 -0.002604 -0.061441
-0.072902 -0.017820 -0.081811
-0.041700 0.037640 -0.082881
-0.105635 -0.011053 -0.080904
-0.004843 -0.034333 0.056042
0.039383 0.058150 0.020148
-0.026476 -0.050772 0.016119
-0.066860 -0.012468 0.080252
-0.009637 -0.048182 0.036743
-0.069330 -0.058228 -0.075084
-0.017827 0.044195 -0.039568
-0.097134 0.024620 -0.072542
0.064163 0.059917 0.001500
0.085504 -0.000604 -0.059454
0.063931 0.049372 0.053132
0.081290 0.052709 0.035595
-0.111160 -0.016532 0.075185
-0.014968 0.028699 -0.065969
0.003221 0.000896 -0.060556
-0.005535 0.023295 -0.062586
-0.069419 0.055565 -0.072141
0.010756 -0.056105 0.014192
-0.042052 -0.030990 0.083845
0.113652 -0.037993 0.041722
0.029251 -0.009428 -0.060719
-0.087235 -0.050157 0.075057
-0.095374 0.038643 0.018666
0.046641 0.037519 0.062547
-0.002299 0.016151 0.066189
0.011726 -0.040820 -0.051243
-0.080727 0.037408 -0.081757
-0.018701 0.043198 -0.044678
-0.104841 0.002556 0.066426
-0.093119 -0.033227 0.065947
-0.108104 -0.021944 0.016844
0.013512 0.037366 -0.058280
-0.112571 -0.002604 -0.068981
0.001051 0.038426 -0.025956
-0.001535 0.015550 -0.061456
0.113652 0.009512 -0.052096
-0.106857 -0.024325 -0.077750
-0.011515 -0.041177 0.075064
0.047178 0.049271 0.052631
0.006187 -0.004055 -0.061473
0.005382 -0.017650 0.062632
-0.035582 -0.052742 0.018885
-0.083880 0.010872 -0.083819
-0.026376 0.047991 0.018821
-0.006109 -0.027600 0.062475
-0.099695 -0.027219 0.080789
-0.031401 -0.009348 0.081811
-0.018569 0.045311 -0.029612
-0.020129 0.045518 0.017686
0.003900 -0.001604 -0.075302
0.011725 -0.048198 -0.043767
-0.099737 -0.027151 0.080789
0.025829 -0.009416 0.063497
-0.020815 -0.047881 0.040823
-0.002752 0.038802 0.054674
0.096912 -0.007686 0.058808
-0.070937 -0.028988 0.083826
-0.028490 -0.049525 0.015837
-0.003892 0.019871 0.066124
-0.103638 0.031305 0.072113
-0.092582 -0.041000 -0.065811
0.113652 -0.048631 0.027658
0.001186 0.054586 -0.031090
-0.023522 0.012339 0.083986
0.007161 -0.052610 -0.027651
-0.001443 0.039108 0.015711
-0.003670 0.027179 0.075103
0.014222 0.055089 -0.031373
-0.032865 0.044209 0.018300
0.072948 0.051922 -0.038929
-0.093565 -0.040123 -0.065826
-0.026373 0.047993 0.068134
-0.055582 -0.026039 -0.081811
0.013499 0.031577 -0.059707
-0.019303 0.043149 0.077671
-0.012037 -0.027789 -0.066041
-0.023609 0.044229 -0.027847
-0.082692 0.050309 -0.072107
0.081647 0.058269 -0.014606
-0.088761 0.001457 -0.084071
0.003026 0.004056 -0.065199
-0.020953 0.044854 -0.035449
-0.001462 0.023771 0.062891
-0.096441 -0.028787 0.066024
-0.106944 0.020918 -0.077751
-0.003489 0.039443 0.057028
-0.032944 -0.012968 -0.081811
0.000142 -0.012777 -0.061648
-0.063952 -0.057772 0.068019
-0.046333 0.054825 0.077689
0.002587 -0.008517 0.063050
-0.002893 0.000896 0.067705
-0.083175 -0.048179 -0.065686
-0.103908 0.008301 -0.072826
0.113652 -0.021696 0.052211
0.029118 -0.053938 -0.028472
0.008087 -0.005605 0.061773
-0.101599 -0.018987 -0.072696
-0.087035 0.038912 -0.080744
0.097545 0.024528 -0.054870
-0.066673 -0.055031 0.079654
-0.006899 -0.017204 -0.072727
-0.059759 0.054768 -0.029204
-0.007132 0.036705 0.054329
-0.018742 0.041323 0.043740
-0.086593 -0.004318 0.083895
-0.081999 -0.053921 -0.072108
0.003053 -0.001604 -0.060561
0.003376 -0.002604 -0.065366
-0.022794 0.045700 0.077669
-0.001770 0.051000 -0.030728
0.035944 -0.001604 -0.061375
-0.049931 -0.008365 0.079313
0.005941 0.049143 -0.045075
-0.013074 -0.042741 0.044381
0.014432 0.057673 -0.028433
-0.104681 0.029695 -0.072119
0.028812 -0.059474 -0.011358
-0.064285 0.052312 0.079657
-0.002338 0.021118 -0.077750
0.013455 0.001146 0.062586
0.004552 -0.047889 0.014324
-0.005120 0.027665 0.068488
-0.054049 0.055390 0.068004
-0.005163 -0.010954 0.066336
0.113652 0.006718 0.055576
0.061386 -0.023273 0.060632
0.082224 -0.001604 0.061431
0.004226 -0.001604 0.074226
0.007540 0.000896 0.063101
0.080405 -0.037310 -0.047736
0.097660 0.033963 -0.047741
-0.019973 0.044905 0.016697
-0.033249 0.024916 0.083977
-0.016123 -0.040987 0.048835
-0.032570 -0.046028 -0.065723
-0.052623 -0.017867 -0.080252
-0.063548 0.031420 0.084036
-0.005161 -0.033902 -0.072116
-0.033330 0.043197 -0.065716
-0.072098 -0.028237 -0.083820
-0.066825 0.019575 -0.081811
-0.060536 0.057155 0.072156
-0.016774 -0.044573 -0.045550
0.080485 -0.055766 -0.015340
0.040076 0.001146 -0.062957
-0.029361 -0.051906 0.016758
-0.003670 0.027179 0.075103
-0.067669 0.048723 0.080774
0.001051 0.038426 0.014207
0.113652 0.039651 -0.034754
0.043497 -0.057451 0.013836
-0.037749 -0.050778 -0.080766
-0.032383 0.021157 0.083800
-0.010560 0.041861 0.048716
-0.002895 0.023687 -0.062799
-0.057710 -0.052509 -0.027638
-0.070064 -0.020547 0.081811
0.002141 -0.017870 -0.060460
-0.014596 0.036483 0.055908
-0.030201 -0.051185 0.016162
-0.059555 -0.050853 0.065639
-0.009178 0.028856 -0.079675
-0.030468 -0.052910 -0.029118
-0.064724 -0.050075 0.065653
-0.054598 -0.035828 0.084042
-0.101929 -0.033335 0.077706
-0.060484 0.056610 -0.075094
0.025701 -0.053765 0.031570
0.102164 -0.002604 0.059547
-0.090823 -0.047540 0.075056
-0.034608 -0.055047 0.018884
-0.108878 0.006359 0.015139
-0.008463 0.035269 0.072100
0.013609 0.057525 -0.031137
0.021598 0.057327 0.041342
-0.019738 0.043970 0.016026
0.007078 0.053242 -0.027707
-0.085320 -0.010348 -0.083843
0.005382 -0.017650 0.062632
-0.023195 0.045192 0.016684
0.097898 0.046683 -0.039692
-0.013342 0.038531 0.056604
-0.022514 0.045607 0.017657
-0.105234 -0.025704 -0.027569
-0.073792 0.054307 -0.068999
-0.093896 -0.033589 -0.027308
-0.012002 -0.039910 -0.068330
-0.057097 0.054945 -0.029207
-0.111291 0.007613 -0.028405
-0.000244 0.037157 0.015275
0.113652 0.048455 -0.026143
-0.102404 0.013623 -0.072734
-0.004114 -0.028036 0.077730
-0.088146 0.041608 -0.065744
-0.104273 0.015884 0.068999
0.008344 -0.052852 -0.025796
-0.054598 0.030420 -0.083868
0.097393 0.012323 -0.057606
-0.109719 -0.007142 -0.066402
-0.097648 0.027325 0.080773
0.030347 0.049489 0.052957
-0.013572 -0.038464 -0.048888
0.113652 -0.048527 0.032778
0.004610 0.052940 0.045252
-0.108920 0.008799 -0.066317
-0.004891 0.006353 0.072861
0.003900 -0.001604 0.075302
-0.090906 -0.048252 -0.068999
0.003547 -0.018126 -0.059641
-0.023875 0.007140 0.083843
-0.097769 -0.041905 -0.072093
-0.113509 -0.006485 0.068999
-0.012226 0.040545 -0.046143
-0.021310 -0.049072 -0.033462
-0.049931 0.005157 -0.079313
-0.054598 -0.060570 -0.073294
0.002936 -0.017399 -0.057328
0.016934 -0.017000 0.061714
-0.050668 -0.060531 0.072157
0.005513 -0.049425 -0.026101
0.113652 0.048461 0.029147
-0.041645 0.048751 0.080774
0.061317 -0.057380 0.013329
-0.009500 0.024012 0.080789
-0.024436 0.039519 0.015718
0.113652 -0.037455 0.045634
0.014878 0.058255 -0.022365
0.047881 0.058140 0.001500
0.064879 0.059850 0.001500
-0.109194 -0.007363 -0.026850
-0.004699 0.034234 0.056040
-0.086948 0.036153 0.072340
0.008330 -0.002136 0.061949
-0.077628 -0.052224 0.016278
0.013107 0.058565 0.019099
-0.069289 0.055031 -0.075084
-0.020630 0.045237 0.030770
-0.003876 0.054048 0.019044
0.002930 0.017165 -0.060293
-0.010593 0.039462 0.051152
-0.002752 0.038802 0.054674
0.005251 0.041208 -0.055400
-0.017073 0.031098 -0.065928
-0.065970 -0.052366 -0.068999
0.046102 -0.000604 0.066961
-0.037912 0.052530 -0.029166
-0.106857 -0.024325 -0.077750
-0.105635 -0.011053 -0.080904
-0.044880 -0.059834 -0.072152
-0.048907 -0.007529 0.079313
0.025431 -0.031469 0.060867
-0.078889 0.018907 -0.083796
-0.056241 -0.009653 0.079313
-0.031506 -0.055361 -0.075070
0.113652 -0.018549 -0.052997
-0.012910 0.036490 -0.051327
-0.103753 0.008998 -0.072814
-0.041489 0.048713 0.080774
0.113652 0.038913 0.038606
0.013994 -0.054729 -0.031375
0.014784 -0.058079 0.017788
-0.094271 0.036178 -0.065839
-0.011157 0.038387 0.072094
0.013701 0.055003 0.034346
-0.002465 0.006983 0.068999
0.046104 -0.031457 -0.058170
0.113652 0.037015 -0.041376
0.029123 -0.055324 -0.023019
-0.104953 -0.014039 -0.080879
-0.025012 0.044338 -0.065696
-0.009229 -0.041033 -0.047509
-0.086948 0.036153 0.065840
-0.030459 -0.005526 -0.081811
0.080451 0.027693 0.060923
-0.081444 0.040167 0.065770
0.063761 0.035690 0.058746
-0.083959 0.047337 0.068145
0.062507 0.001146 0.065135
0.113652 -0.022377 0.051893
-0.094639 0.039356 -0.068284
-0.022850 -0.048946 0.077669
-0.006899 -0.017205 0.066226
0.024759 -0.002604 -0.062038
-0.078342 0.004249 0.081811
0.097241 -0.000604 -0.058547
-0.054598 -0.001604 -0.079000
0.006168 0.000896 -0.059055
-0.105580 -0.000604 0.015018
-0.102613 0.019843 0.068999
-0.113515 0.002435 0.072311
0.113652 0.020602 -0.048714
-0.073285 0.052300 0.068058
0.006119 -0.002604 0.063359
0.047387 -0.000604 0.066951
-0.040705 0.018522 0.081811
0.013835 0.001146 0.064169
-0.097357 -0.041527 0.075064
-0.096892 0.032609 0.015597
-0.048343 -0.040915 -0.083170
-0.054612 -0.052346 -0.030136
-0.025803 -0.015205 -0.083812
-0.098089 -0.041640 0.068999
-0.021806 0.042681 0.015773
-0.005432 -0.012161 0.072815
-0.012210 0.049062 -0.030964
-0.040705 -0.021730 -0.081811
-0.052519 0.050352 -0.068999
-0.077096 0.007982 -0.081811
-0.018629 0.045421 -0.030843
0.046152 -0.010388 -0.063484
-0.002951 0.043342 -0.051821
0.002851 0.001146 0.066207
0.013486 0.024853 -0.060746
-0.006160 -0.027572 0.066046
0.064876 0.059813 -0.016145
-0.108730 0.006359 0.079814
0.002282 0.002134 0.077880
-0.001890 -0.019654 -0.060056
-0.093616 0.036865 0.018666
0.097586 -0.001604 -0.056023
-0.077537 0.047874 0.065635
0.097403 -0.053484 -0.025800
-0.008737 0.031954 -0.054800
0.097645 0.041719 0.044566
0.097536 -0.013933 -0.054798
-0.113440 -0.006480 0.072303
-0.004955 0.006625 0.066355
0.046319 0.016859 0.066177
-0.002894 -0.026892 0.068558
0.113652 0.001146 -0.054729
-0.099824 -0.025165 0.015411
-0.060407 0.013715 -0.080252
-0.006913 -0.034073 0.057905
-0.010499 0.031096 -0.065928
-0.055582 -0.026039 0.081811
-0.048093 -0.058234 0.018937
-0.047054 0.049858 -0.080782
0.069596 -0.002604 0.064279
-0.059649 0.055172 -0.068008
-0.010090 -0.041778 0.049618
-0.066860 -0.012468 0.080252
-0.011024 0.037168 0.053176
-0.047003 0.053410 0.016354
0.055805 0.045345 -0.051945
0.061310 -0.010094 0.065784
0.097452 -0.030231 -0.048811
0.035945 0.000896 -0.061413
-0.107159 -0.018379 0.018291
-0.014596 0.036484 -0.052908
-0.005432 -0.012161 -0.072815
-0.098335 -0.038697 0.018614
-0.000276 -0.012012 -0.066317
0.008088 -0.009183 0.061559
0.098157 0.051540 0.026744
-0.028613 -0.023539 0.083964
-0.060852 0.037708 -0.083170
-0.011395 0.047558 -0.027869
0.097377 -0.056930 -0.015174
-0.024150 0.043797 0.030968
-0.093565 -0.040123 0.065826
-0.010349 0.031722 0.059735
0.013523 0.037213 0.058687
-0.108991 -0.020749 -0.068665
-0.011641 -0.035452 -0.079662
-0.099289 -0.024029 -0.066107
0.097741 0.041696 -0.041541
-0.024078 -0.048974 0.026915
-0.057049 0.053870 -0.028111
-0.001518 0.029886 0.060517
-0.083359 -0.048063 -0.065688
-0.065929 -0.049813 -0.065657
-0.005321 -0.027173 0.060153
0.005766 0.000896 0.062147
0.008314 -0.052990 -0.020555
-0.104007 -0.014218 0.015220
-0.015915 0.037169 -0.065822
0.081069 0.052838 0.041945
-0.001701 0.021194 -0.063336
-0.110615 0.004849 -0.027263
-0.011106 0.038433 0.068999
-0.083774 0.015889 0.083970
-0.073586 -0.056945 -0.075077
0.070203 0.000896 -0.061153
-0.043012 -0.049733 0.065659
-0.026527 -0.048479 -0.030561
-0.088790 0.041105 0.079641
-0.078369 -0.025938 0.083968
-0.078342 -0.007456 0.081811
0.000591 -0.006549 -0.066412
0.098320 0.052799 0.021147
-0.043130 0.049118 0.080777
-0.063415 -0.034665 0.084037
-0.006083 -0.036920 0.051066
0.113652 -0.020237 -0.052495
0.081119 0.050724 0.040414
0.030305 -0.000604 -0.063672
0.001811 0.024674 -0.056454
-0.024330 0.008506 0.083833
-0.093416 -0.032906 0.065952
0.056183 0.056664 0.033567
-0.066065 -0.052325 0.080776
0.113652 0.054309 -0.004410
0.034770 -0.001604 -0.061385
-0.018951 0.046252 0.018876
-0.001701 0.021194 0.066337
-0.107478 -0.015603 -0.079770
0.016386 0.055516 -0.030806
0.113652 -0.037455 0.045634
-0.027712 -0.043349 -0.065770
0.113652 -0.006524 -0.052938
-0.026373 0.047993 0.068134
-0.047794 -0.025093 -0.081811
0.079229 -0.001604 0.061840
-0.070937 -0.028988 0.083826
-0.059637 -0.055860 0.018939
-0.023604 -0.009427 -0.083850
-0.086948 0.036154 -0.072340
0.010426 0.001146 -0.060723
-0.016622 0.043170 -0.027531
-0.092582 -0.041000 -0.065811
0.097645 0.041719 0.044566
-0.021316 -0.044999 0.044057
0.063346 -0.017610 -0.061480
0.000853 0.037138 0.014177
0.009553 0.055760 0.016102
-0.051968 -0.033532 0.083872
-0.067495 0.037627 -0.082883
-0.015583 0.041446 0.051347
-0.109805 0.000896 0.017498
-0.027647 -0.049242 0.079639
0.028886 -0.031545 -0.058019
-0.005432 -0.012161 0.066315
0.004314 0.003278 0.068999
-0.021130 0.041669 0.048333
-0.009964 0.042105 -0.045827
-0.001039 0.011968 -0.066261
-0.060407 -0.016922 -0.080252
0.063391 -0.029107 -0.055247
-0.039865 0.055020 0.075084
-0.097769 -0.041905 -0.072093
0.014432 0.057673 -0.028433
-0.041500 0.008238 -0.080252
0.046949 0.050827 0.054660
-0.005110 0.030728 -0.068999
-0.090619 0.032790 -0.072399
-0.045780 0.031457 -0.084037
-0.078342 0.004249 -0.081811
-0.101599 -0.018987 0.066195
-0.002653 -0.001604 0.080993
-0.109855 -0.005147 -0.066437
0.055875 0.053657 0.044256
0.063165 -0.056350 -0.027626
-0.040091 -0.009217 -0.080252
-0.019061 0.040027 -0.050025
0.009197 0.054994 -0.028002
-0.086077 0.004244 0.083866
-0.068444 0.007153 -0.080252
-0.001462 0.023771 0.062891
-0.085724 0.037162 -0.072323
0.005130 0.055712 -0.031441
0.098092 0.049776 -0.028859
-0.070979 -0.048370 0.072183
0.109017 0.001146 0.058544
0.012529 -0.057500 0.017271
-0.095874 -0.039215 -0.027802
-0.067426 0.046192 0.072165
-0.002163 -0.018717 -0.066200
-0.085132 -0.047013 -0.079639
0.002306 0.056013 0.017906
0.043589 -0.023990 0.061356
0.000254 -0.024017 0.058404
0.080515 -0.015410 -0.057301
-0.088140 -0.044748 -0.030496
0.001443 0.038341 0.012711
0.113652 0.050010 -0.014805
-0.007946 0.033795 0.059316
0.004314 0.003278 0.068999
0.063528 0.016779 0.062646
-0.103755 0.025285 -0.027617
0.009863 0.052653 -0.026175
-0.073792 0.054307 -0.068999
-0.001863 0.002774 -0.068999
0.000113 0.016666 -0.064087
-0.057228 0.030325 -0.083872
0.096703 -0.058014 0.012671
0.005355 -0.002604 0.064916
-0.060407 -0.016922 -0.080252
-0.100309 0.018868 0.072642
0.001796 -0.009876 0.077845
-0.098881 0.034237 0.017107
0.097465 -0.036647 -0.047614
0.064021 0.047821 0.051060
-0.112214 0.011359 -0.072234
0.002077 0.009567 0.068804
0.007597 -0.010165 0.063940
0.001555 -0.001604 -0.062710
-0.102287 0.014023 0.072727
0.000600 -0.043361 0.015331
0.027089 -0.000604 0.065476
-0.106244 -0.020935 -0.030084
-0.020424 0.001365 -0.084072
-0.033330 0.043197 -0.065716
-0.049917 -0.055877 -0.065551
-0.005530 0.031265 -0.072113
-0.010007 0.039036 -0.048750
-0.023185 -0.040140 0.065826
-0.024117 -0.047050 -0.079639
0.030212 0.042561 0.058048
0.001443 -0.041548 -0.024461
-0.085013 -0.047025 -0.065706
-0.085641 -0.051192 -0.075059
-0.010261 -0.040518 -0.047968
-0.000204 0.017542 -0.068665
-0.004887 -0.050087 -0.030756
-0.006671 0.030633 -0.058993
-0.097307 -0.035763 -0.079661
0.001443 0.038341 0.012711
0.096883 -0.013999 0.057903
-0.093741 0.011099 0.082889
-0.002446 0.023562 -0.061208
0.113652 0.035739 0.045500
-0.097235 -0.027669 0.066044
-0.001571 0.020085 -0.058604
-0.067550 -0.051959 0.080774
-0.078342 -0.007456 0.081811
-0.058393 0.055302 -0.077691
-0.021059 0.045548 0.021473
-0.104085 -0.033936 0.068999
0.080471 -0.054503 -0.020759
-0.038751 0.052777 0.017421
0.008159 -0.002604 -0.060215
-0.000457 -0.024585 0.061489
-0.111051 -0.002604 0.015456
-0.109291 0.006862 -0.029896
-0.088479 -0.044561 0.079640
-0.069289 0.055031 -0.075084
-0.015361 -0.027349 0.081755
-0.002838 0.031840 -0.056823
0.003026 0.004056 -0.065199
0.000651 -0.016984 -0.058659
0.022801 0.057433 0.001500
-0.000694 -0.020098 -0.077775
0.003768 -0.002604 0.066720
0.113652 -0.025334 -0.050411
0.005311 0.036247 0.057649
-0.005299 -0.048948 -0.039103
0.006456 0.000896 -0.059005
0.080623 0.027666 -0.057896
-0.017073 0.031098 0.065928
-0.027034 0.042403 -0.080747
-0.014617 0.041866 -0.072090
-0.093974 0.036509 -0.065833
-0.073111 -0.055535 -0.077679
-0.004955 0.006625 0.066355
-0.041154 -0.033010 0.084017
-0.006874 -0.019575 0.017814
-0.085061 -0.040826 -0.072315
-0.036515 0.024595 0.083817
-0.104841 0.002556 0.066426
-0.034929 0.043841 -0.072206
-0.025304 0.038447 0.072300
-0.003002 0.022588 -0.077742
0.113652 -0.031182 0.047168
-0.039734 0.055554 0.072141
-0.018342 0.045763 0.032234
-0.054598 -0.001604 -0.079000
-0.059257 -0.056938 0.016359
-0.041500 0.008238 -0.080252
-0.005087 0.021625 0.079712
-0.111902 -0.016115 0.068999
0.113652 0.043731 -0.029093
-0.022922 0.045768 0.017655
-0.062789 -0.015792 -0.080252
-0.003605 -0.022353 0.066137
-0.007642 0.020437 0.080809
-0.107085 -0.021557 0.015747
-0.012152 0.048973 -0.029717
-0.018954 0.044039 0.042823
-0.086948 0.036153 0.072340
-0.050040 0.014132 0.080252
0.005907 0.044080 -0.050860
-0.102332 -0.017100 0.072729
-0.004955 0.006626 -0.066355
-0.080647 -0.027621 -0.083534
-0.080012 -0.050084 0.079640
0.000994 -0.014164 0.077814
0.003471 -0.023069 -0.055590
-0.104709 0.025806 -0.028714
-0.015485 -0.046060 -0.040595
-0.098038 0.033555 0.016010
0.017158 0.059397 -0.007174
0.000933 -0.008498 -0.062245
0.030212 0.042561 0.058048
-0.013101 -0.043129 0.047943
-0.021393 -0.046726 -0.032597
-0.059637 -0.055841 0.065552
-0.106857 -0.024325 0.077750
-0.036474 -0.053058 0.065601
-0.018742 0.041323 -0.040739
-0.009096 0.036964 0.056771
-0.108431 -0.020299 -0.077774
0.013994 -0.054729 -0.031375
0.047822 0.057765 0.027527
-0.044114 0.020490 0.081811
-0.001562 -0.000604 -0.026365
-0.109979 0.001146 -0.029798
-0.080647 0.024405 0.083535
-0.088146 0.041608 -0.065744
-0.053798 0.030416 -0.083869
-0.024798 -0.047423 -0.034606
0.021733 0.059726 0.020479
0.080967 0.048250 0.044642
-0.015300 -0.044077 -0.044047
0.000491 -0.008549 0.066378
-0.001755 -0.024522 -0.068599
-0.076806 0.050547 0.017383
0.097733 0.044879 0.040794
-0.062789 0.012584 -0.080252
-0.034883 0.051940 -0.068064
-0.054598 -0.001604 -0.079000
0.010312 -0.055921 0.015136
0.007597 -0.010165 0.063940
0.028886 -0.031545 -0.058019
-0.100655 0.023625 0.068999
-0.059793 -0.007968 0.079313
-0.054916 0.047892 -0.065634
-0.109937 0.017360 0.075158
0.070040 0.000896 -0.061174
-0.026501 0.050315 -0.072107
-0.019303 0.043149 0.077671
0.082390 0.000896 -0.059625
-0.029048 -0.052689 0.018895
0.100080 -0.001605 0.058616
-0.015454 -0.014306 0.082889
0.091611 -0.002604 0.062523
0.113652 -0.037865 0.045264
0.029953 0.051044 0.054938
0.011725 -0.051023 -0.039385
-0.059836 0.050146 0.080784
0.077295 0.001146 0.063562
-0.067143 0.027782 -0.083845
-0.003758 -0.027150 -0.055226
-0.111065 -0.002604 -0.027184
-0.030084 0.047144 -0.065647
-0.019912 0.042187 0.038018
0.022545 0.053530 -0.042325
0.097564 0.012868 0.057921
0.058028 0.000896 -0.061051
0.009526 -0.054767 0.008540
-0.047203 0.051946 0.015935
-0.060812 0.032047 0.084043
0.002707 0.012908 -0.068999
-0.015198 0.042381 -0.039941
0.007980 -0.052322 0.031943
-0.011722 0.047320 0.042915
-0.000063 -0.000604 0.012019
-0.025676 -0.044721 0.080745
-0.065921 0.028256 -0.083851
-0.099361 0.033661 -0.077693
0.079229 -0.001604 0.061840
-0.089892 -0.046356 -0.077671
-0.074695 0.051729 0.018883
-0.057874 0.014448 -0.080252
-0.068923 0.053593 0.077683
0.040712 0.060717 0.001500
-0.012152 0.048973 -0.029717
-0.097818 0.023520 -0.072561
-0.083644 -0.047985 0.079639
-0.021393 -0.046726 -0.032597
-0.072691 0.044506 -0.065693
0.002865 -0.024209 -0.057813
0.063424 0.008817 0.063249
-0.076425 -0.027692 -0.083975
0.006421 -0.001604 -0.058967
-0.049688 0.047653 0.072140
-0.024455 -0.051337 0.027658
0.000087 0.015834 0.062272
-0.004338 -0.024112 -0.066106
0.058868 -0.000604 -0.063439
0.113652 -0.048631 0.027658
0.010616 0.055122 0.015547
-0.062014 0.047317 -0.065644
-0.017073 0.031098 -0.072428
0.011630 -0.056880 0.015953
0.101949 -0.001604 0.058297
-0.079427 0.051372 0.075067
-0.091728 -0.045105 -0.030469
0.001256 0.037150 -0.024427
-0.017141 0.043746 0.030427
-0.054583 -0.052341 0.015886
-0.078235 -0.050813 -0.065640
-0.044471 0.046867 0.072153
-0.017568 0.038659 0.079644
-0.049688 0.047653 0.065639
-0.014026 -0.042962 -0.045587
0.030944 0.054079 -0.042488
-0.040131 0.045709 -0.065672
0.061268 -0.024581 0.062862
-0.064312 -0.059824 0.072151
-0.102195 -0.028532 -0.079692
0.003056 0.047148 -0.027601
0.005857 -0.002604 0.063393
-0.017400 0.042167 -0.047675
-0.024042 -0.047113 0.036300
0.113652 -0.053491 0.022999
-0.059489 -0.025565 0.081811
-0.010261 -0.040518 -0.047968
0.004172 -0.021220 -0.058775
-0.070536 -0.029210 0.083828
0.080431 -0.050666 -0.030997
-0.003896 0.054086 0.019525
0.038987 0.042464 -0.055160
-0.018119 0.045559 -0.029635
-0.109185 -0.020057 -0.030055
-0.099660 0.024003 0.080789
0.003995 0.007059 0.065021
0.046665 0.016845 -0.063170
0.008304 0.052400 -0.027295
0.012073 -0.046058 -0.042489
0.113652 0.023379 0.050440
-0.004514 -0.032903 0.072119
-0.054325 0.052892 0.065548
-0.017073 0.031098 -0.072428
-0.041700 0.037640 0.082881
0.000145 0.054192 -0.029829
0.009055 -0.055579 0.015759
0.016401 -0.058137 -0.016763
0.004552 -0.047889 0.014324
0.007600 -0.030558 0.059453
0.007878 -0.052572 -0.026783
0.113652 0.009969 0.057582
-0.034611 -0.029188 -0.083983
-0.053800 -0.055647 0.015943
0.096853 -0.015088 0.060278
-0.034929 0.043840 0.065706
0.001909 -0.042660 -0.024492
0.080489 -0.057098 -0.004158
0.029143 -0.039921 -0.050183
0.000318 0.006520 0.066357
0.007986 -0.045668 0.045363
-0.018666 0.043829 0.043938
0.051251 0.001146 -0.062807
-0.023794 -0.049309 -0.028621
-0.017820 -0.045732 -0.035642
-0.015361 -0.027349 -0.081755
-0.013364 0.042344 0.050469
-0.045291 -0.015086 -0.080252
-0.029477 0.042779 -0.027524
-0.004634 0.030127 -0.054769
0.113652 0.037380 -0.037166
-0.060113 0.052901 -0.079660
0.013455 -0.000604 -0.062097
-0.015874 -0.046329 0.043102
-0.035421 0.054254 0.072131
-0.029705 0.049780 0.068102
0.113652 0.054309 -0.004410
-0.001211 -0.028843 -0.056061
-0.080727 -0.040628 -0.081755
-0.041500 -0.011446 -0.080252
0.007365 -0.009096 -0.060994
-0.110819 -0.013156 -0.028445
0.113652 0.050048 -0.014686
-0.016866 -0.046971 -0.038728
-0.002175 0.049967 -0.035587
-0.102909 0.028615 0.077712
-0.009556 0.033940 -0.058896
0.097386 0.018666 0.059485
-0.002798 -0.005252 0.080957
0.021996 0.053472 -0.047947
-0.029708 -0.051008 0.016091
0.001190 -0.001604 0.079133
0.014878 0.058255 -0.022365
0.012947 0.056325 0.013761
-0.049241 -0.056876 -0.028108
-0.055110 -0.058598 -0.068004
0.113652 -0.036894 -0.043102
0.080263 -0.058262 -0.015714
-0.011144 0.038952 0.054923
-0.058705 0.005511 0.079313
-0.022400 -0.001604 0.083922
-0.016774 -0.044573 0.048550
-0.022999 -0.006739 0.083873
0.063360 -0.057331 -0.010271
-0.003679 0.001146 -0.027798
0.113652 -0.019011 0.055911
-0.046866 -0.058083 0.068013
-0.019053 -0.036433 -0.065891
-0.004699 0.034234 -0.053040
-0.060516 0.053612 0.016357
0.000254 -0.024017 0.058404
-0.020424 0.001365 0.084072
0.000254 -0.024017 -0.055403
0.046058 -0.045916 -0.047911
-0.077544 0.047887 0.018857
0.001388 -0.004118 -0.062594
0.002608 0.007006 -0.065035
0.064879 0.059850 0.001500
-0.085875 -0.040251 -0.072325
-0.016778 0.044672 0.042391
0.001796 -0.009875 -0.077845
-0.083981 0.047375 0.018811
-0.004891 -0.048911 -0.033794
-0.066825 -0.022783 0.081811
-0.041489 0.048713 -0.080773
-0.110647 -0.011942 0.077830
-0.022571 0.045750 -0.030533
-0.109937 0.017360 -0.075158
-0.061622 -0.035105 0.084042
-0.040833 -0.054617 -0.079653
-0.106224 -0.007123 -0.080939
0.022492 0.051553 -0.046362
-0.098408 0.027227 0.068999
-0.004352 -0.005742 -0.072927
0.008555 -0.053547 -0.028326
0.003847 -0.045968 -0.024551
-0.011147 -0.001604 -0.082661
-0.104085 0.030728 -0.068999
-0.025304 0.038447 -0.072300
-0.086345 0.045738 -0.077669
-0.111580 -0.000604 0.067981
0.113652 0.052013 0.001500
-0.067446 0.030033 -0.084020
-0.036799 -0.028033 0.083818
0.077295 0.001146 0.063562
0.113652 0.020295 0.054659
0.001793 -0.001604 -0.062107
-0.028580 0.020291 0.083964
0.079043 -0.039341 0.052625
-0.094242 0.036150 -0.030403
-0.012002 -0.039910 -0.068330
-0.054598 -0.056415 -0.079642
0.097686 0.038067 -0.044862
0.005808 0.001146 0.063603
-0.069669 0.004818 -0.080252
0.030507 0.054060 0.045488
0.000671 0.020843 -0.057276
-0.082732 0.050385 0.068999
0.016719 -0.058652 0.014674
-0.018362 -0.043753 0.043042
-0.030854 -0.025966 0.083968
0.098040 0.052030 -0.030239
0.012135 -0.029489 -0.054754
-0.006754 0.032835 -0.053503
-0.109209 0.011932 0.015636
0.007585 0.004407 -0.061244
0.030589 0.055642 0.040577
-0.014443 0.041718 0.050803
0.005848 0.031145 -0.056084
-0.093878 0.032224 -0.080755
0.097569 0.001146 0.058965
-0.106933 0.025762 0.072138
-0.019053 -0.036434 0.065891
0.005701 0.046513 0.014356
-0.002895 0.023687 -0.062799
0.006187 -0.004055 0.064473
-0.026503 -0.053517 0.072107
0.079202 -0.008497 0.061468
0.006219 -0.051749 -0.027319
0.021910 0.047148 -0.054671
-0.094089 0.028873 -0.072467
-0.040086 -0.056349 0.017427
-0.113096 -0.001604 -0.075303
-0.009372 0.019873 0.072625
-0.018701 0.043198 0.047678
-0.078724 -0.047791 -0.068999
0.002077 0.000896 0.067705
-0.093177 -0.043552 0.077675
0.113652 -0.049613 -0.028116
-0.015318 -0.035432 0.080755
0.030347 0.049489 0.052957
-0.004352 -0.005742 -0.066426
0.113652 -0.051048 -0.019201
-0.090865 -0.048199 -0.072092
-0.045291 0.011879 -0.080252
-0.076871 0.042716 0.065725
-0.096441 -0.028786 -0.066024
-0.022454 0.039148 0.080744
-0.103896 -0.025049 -0.027159
-0.021929 0.042772 -0.030536
0.012965 0.017106 0.064400
-0.007074 0.026067 -0.061787
0.008330 -0.002136 0.061949
0.029143 -0.039921 -0.050183
-0.020716 0.041353 -0.079640
0.113652 -0.033111 0.048954
-0.057511 -0.009285 -0.079313
0.113652 0.028436 -0.047708
-0.070504 -0.005524 -0.080252
-0.009764 -0.040212 0.047697
-0.059134 -0.055465 0.015940
0.001481 -0.002046 -0.062676
0.010531 -0.054386 -0.027883
0.030321 0.047477 -0.055038
-0.051749 0.049317 -0.027638
-0.007179 -0.017890 -0.066214
-0.006083 -0.036920 0.051066
-0.013857 -0.033711 0.080760
-0.085061 -0.040826 -0.065814
-0.113096 -0.001604 -0.075303
-0.000762 -0.014117 -0.066280
-0.109113 -0.010912 -0.029911
-0.078479 -0.051836 -0.028021
-0.022120 -0.047322 -0.030686
-0.093177 -0.043552 -0.077675
0.063262 -0.002604 0.066103
-0.026653 -0.051754 0.016873
-0.000284 0.021294 -0.060397
-0.050740 -0.033372 0.083871
-0.040091 -0.009217 0.080252
-0.027601 -0.049541 0.022901
0.030339 0.009813 -0.060850
0.064028 0.035656 -0.055717
0.047400 0.053844 -0.047801
-0.005174 0.030687 0.072116
-0.000465 -0.009567 0.079814
-0.094454 0.038986 -0.028937
-0.044056 -0.054633 -0.027675
0.113652 0.027963 0.047878
-0.038184 0.045151 0.065683
0.003221 0.000896 -0.060556
-0.098562 0.025915 0.080779
0.045982 -0.058225 -0.022783
-0.040833 -0.054618 0.079652
0.003163 -0.001604 -0.060489
-0.026348 -0.050009 0.018900
-0.097134 0.024619 0.072542
0.046218 -0.047252 -0.042339
-0.087422 -0.011000 0.084015
-0.080615 0.020289 -0.083964
-0.086948 0.036153 0.065840
-0.026148 -0.048243 0.034399
0.000591 -0.006549 -0.066412
-0.000601 0.023511 0.059744
-0.091159 -0.042270 0.065789
-0.047003 0.053410 0.016354
0.003918 0.000896 0.062979
0.016991 -0.059084 -0.004796
-0.018289 0.045045 -0.068999
0.005941 0.049143 -0.045075
-0.016664 0.041558 -0.049045
-0.023532 0.045905 0.017304
0.021391 0.042888 0.060086
-0.029477 0.042779 -0.027524
-0.062786 -0.002265 -0.079313
-0.093848 0.030429 0.018060
-0.100092 0.028359 0.015523
-0.038258 0.025780 0.083826
0.113652 -0.031182 0.047168
0.011136 0.056274 -0.028617
-0.111549 0.001146 -0.067950
0.030299 0.059978 0.028450
-0.054598 0.037769 0.083199
-0.091982 0.038327 0.018691
0.113652 0.043731 -0.029093
-0.094578 -0.045073 -0.072090
-0.070428 0.051660 -0.028073
-0.009628 -0.052679 0.018943
0.030459 0.053961 -0.048200
-0.032976 -0.051904 -0.079644
-0.023247 0.038417 0.015699
-0.105597 -0.001604 -0.028000
0.113652 -0.054682 0.006787
-0.022442 -0.049249 -0.028750
-0.052312 0.006287 0.079313
0.113652 -0.045379 0.037270
-0.004099 -0.001604 -0.072999
-0.019402 0.042634 -0.030555
-0.044152 -0.055105 -0.030676
-0.065039 0.030964 -0.084031
-0.110722 0.003995 0.015499
-0.005535 0.023295 -0.062586
-0.012154 -0.043563 0.047482
0.007644 0.048696 0.012907
-0.019975 -0.047621 -0.030724
0.000138 -0.001604 0.079880
0.061130 -0.054414 0.036067
0.105561 -0.000604 -0.057189
-0.054598 -0.060149 0.074999
0.025411 0.000896 0.065078
0.015026 0.057870 -0.029637
-0.078061 0.044917 0.068999
-0.062894 -0.057606 -0.029198
-0.112599 -0.001604 -0.076421
-0.011665 0.045634 0.046982
0.047294 0.051942 0.049140
-0.066575 0.046452 -0.072160
-0.019249 0.045222 -0.030797
-0.055582 0.022832 -0.081811
-0.054928 -0.009812 -0.079313
-0.009982 0.045575 -0.039036
-0.086401 -0.048908 0.077669
-0.032088 -0.053987 -0.077674
-0.111664 0.011263 -0.075199
-0.080012 -0.050084 0.079640
-0.098089 0.038433 0.068999
-0.043249 -0.013419 0.080252
-0.016533 0.043282 -0.033395
-0.006286 -0.031823 -0.077712
0.045982 -0.058225 -0.022783
-0.049004 -0.050790 0.065640
-0.111065 -0.002604 -0.027184
-0.009048 0.021134 0.015397
0.003764 -0.005638 0.075269
0.081137 0.050082 -0.043445
-0.109348 -0.001604 0.079872
-0.041765 -0.054597 0.065574
-0.109783 0.003364 -0.066412
0.097829 0.044857 -0.037768
-0.094089 0.028873 -0.065966
-0.012910 0.036490 0.054328
0.113652 -0.057182 0.006979
-0.105516 0.001146 0.016049
-0.070391 -0.048538 0.065679
0.113652 0.052443 0.018707
-0.058189 -0.053495 -0.080785
0.078927 -0.057070 0.024359
0.008459 0.055202 0.019002
-0.106429 0.025517 -0.075111
-0.005432 -0.012161 0.072815
0.029126 -0.056988 -0.011230
0.113652 0.010241 -0.051912
-0.067258 -0.054628 -0.065573
0.006818 -0.053422 0.015507
-0.014103 0.042863 -0.046249
-0.101553 -0.023644 0.080809
0.080263 -0.058262 -0.015714
-0.064804 0.054418 -0.068021
-0.003556 -0.032548 0.057142
-0.040736 -0.053877 0.015913
-0.051968 -0.033532 0.083872
-0.101301 -0.029709 -0.027240
0.000670 0.017567 -0.075157
-0.047194 -0.055604 -0.065556
-0.111172 0.000896 -0.029093
0.000500 0.012962 -0.077800
-0.020516 0.042634 0.032560
0.113652 0.042601 0.038349
-0.112383 0.002467 0.068928
-0.000506 -0.013054 -0.064275
-0.015174 0.042274 0.049561
0.005311 0.036247 0.057649
0.006388 0.001146 -0.060447
0.096703 -0.058014 0.012671
-0.017782 0.045362 0.037063
0.012998 0.037322 0.061224
0.113652 0.047931 0.030282
-0.079245 0.049460 0.017365
-0.087177 0.046988 0.075058
-0.035537 -0.029852 0.083987
0.046013 -0.054827 -0.033789
-0.001755 -0.024522 0.068599
-0.077728 -0.055344 -0.075070
-0.028759 -0.052613 0.018936
0.081937 0.055918 0.009762
0.113652 0.025864 -0.049081
-0.066575 0.046452 0.065660
-0.095338 0.030503 0.080760
-0.103638 0.031305 0.072113
0.005130 0.055712 -0.031441
-0.004448 0.020216 -0.079720
-0.053798 0.030416 -0.083869
-0.026605 -0.020916 0.083966
0.014209 0.054005 -0.037078
-0.054598 -0.059640 -0.076167
0.034635 -0.035439 0.056399
0.097440 -0.044787 -0.039945
-0.039365 -0.029640 0.083832
-0.009371 -0.025165 -0.027161
-0.001462 0.023771 0.062891
0.097377 -0.056930 -0.015174
0.007525 -0.051805 -0.025164
-0.013277 -0.041076 0.046527
-0.041334 0.053452 0.017432
0.047646 0.051926 -0.046116
-0.003477 -0.023507 0.061748
0.113652 0.047792 -0.027543
0.113652 0.020821 -0.051399
-0.021609 -0.045463 -0.037870
0.009321 -0.054471 0.013208
0.080343 0.021343 0.062342
0.113652 -0.057221 -0.004222
-0.111051 -0.002604 0.015456
-0.003379 -0.014250 -0.068999
0.003830 0.001146 -0.059813
-0.011660 -0.051988 0.015880
-0.006399 0.015050 -0.029541
-0.109783 0.003364 -0.066412
-0.091412 0.038310 0.015697
-0.000977 -0.016959 0.063783
0.002877 -0.001604 0.063726
-0.107170 -0.018382 0.066206
-0.061541 0.002787 -0.079313
-0.073930 -0.055267 0.068062
-0.033883 0.049989 0.016295
0.046744 0.042709 0.060467
-0.030459 0.002319 0.081811
-0.039030 -0.051263 -0.068999
-0.001443 0.039108 0.015711
-0.004448 0.020216 -0.079720
-0.069248 -0.050454 -0.027603
-0.010828 0.046478 -0.027589
-0.006899 -0.017205 0.066226
-0.091167 -0.047980 0.072091
-0.011932 0.036585 -0.068332
0.000591 -0.006549 -0.066412
0.097465 -0.036647 -0.047614
0.006040 0.000896 0.062117
-0.058705 0.005511 -0.079313
-0.011838 0.038319 0.075064
0.063503 -0.001604 -0.060529
-0.024063 0.043806 0.079639
-0.020630 0.045237 0.030770
-0.040705 0.018523 -0.081811
-0.048858 -0.058346 0.077691
0.015655 -0.056879 -0.023777
-0.001664 -0.015402 -0.079771
0.097957 0.052046 0.033259
0.030669 0.059220 -0.032424
0.001443 0.038341 0.012711
-0.053798 0.030415 0.083870
-0.021519 -0.001604 0.084113
-0.111446 -0.000604 0.015675
0.025408 -0.049146 0.046940
-0.054598 0.054239 0.078895
0.064272 0.057074 0.039426
-0.033249 0.024916 0.083977
-0.081444 0.040167 0.065770
0.010531 -0.054386 -0.027883
-0.013074 -0.042741 -0.041380
-0.104747 -0.023424 0.079720
0.097688 0.034870 -0.050248
-0.083445 0.047256 -0.029077
0.058103 0.000896 -0.062211
-0.024436 0.039519 0.015718
0.002599 0.005362 -0.060213
-0.104462 -0.008290 0.066382
-0.065929 -0.031484 0.083851
0.113652 0.009969 0.057582
-0.085875 -0.040251 -0.065824
-0.105211 0.009866 -0.080887
0.063503 -0.001604 -0.060529
0.056030 0.055399 0.039315
-0.096610 -0.036805 -0.065884
0.113652 0.046297 0.027599
-0.094930 0.041539 0.072090
-0.097674 -0.034854 0.015581
-0.074721 -0.026251 0.083807
-0.062001 0.052397 0.065556
0.025839 -0.001606 0.063895
0.000330 -0.019245 -0.068691
0.030949 0.000896 0.064265
0.000455 -0.007401 -0.066397
0.109017 0.001146 0.058544
-0.111664 0.011263 0.075200
-0.008905 0.034925 -0.075072
0.079142 -0.056694 0.012827
-0.035047 -0.016295 0.081811
-0.105140 0.000896 0.066542
-0.054714 -0.055652 -0.027693
-0.025551 0.044777 -0.079639
-0.006833 0.025614 0.066024
0.005572 -0.002066 -0.059141
0.023035 -0.002604 0.066165
0.096793 -0.041059 0.047054
-0.004979 0.027434 -0.061763
-0.075267 0.011467 -0.081811
-0.077728 -0.055344 -0.075070
0.000853 0.037138 -0.025927
0.007605 -0.054739 0.032502
0.015859 0.058963 0.017501
-0.005677 -0.032266 -0.056056
0.038222 0.009700 0.064133
-0.047574 0.013198 -0.080252
-0.009764 -0.040211 -0.044697
-0.054325 0.052892 0.065548
-0.109227 -0.020073 0.018305
-0.004229 0.001146 0.072951
-0.109444 -0.004868 -0.026807
0.113652 -0.031714 0.046770
0.004978 0.017339 -0.057710
-0.109348 -0.001604 0.079872
-0.003431 0.032640 0.059482
0.098252 0.051522 -0.023721
0.004231 -0.006478 -0.072303
-0.023822 -0.016176 -0.083982
-0.029768 -0.054580 0.075067
-0.009372 0.019873 0.072625
0.014008 0.000896 0.062772
-0.019276 -0.043699 -0.041556
0.005375 0.052222 0.039399
0.000670 0.017567 -0.075157
-0.095104 -0.034006 -0.080759
0.079101 -0.023194 0.061132
-0.088142 -0.044747 -0.065745
-0.002857 0.035060 -0.055941
-0.009264 0.021023 -0.029645
0.071206 -0.000604 -0.062329
-0.089822 -0.036791 0.072385
-0.035609 0.053737 0.075077
0.113652 -0.011985 0.055099
0.004314 0.003278 -0.068999
0.011726 -0.040820 -0.051243
-0.022850 -0.048946 0.077669
0.079024 -0.043591 0.048798
-0.050523 0.057314 -0.072157
0.012098 -0.039057 -0.049473
-0.107323 -0.023807 -0.028625
-0.073777 -0.054921 -0.029152
-0.055886 0.030373 0.083870
-0.108730 0.006359 -0.079814
-0.013375 0.030710 -0.068999
-0.111461 0.002356 -0.077878
-0.018770 0.034689 -0.029884
-0.073792 -0.057514 -0.068999
-0.018289 -0.048252 -0.068999
-0.108596 -0.013452 0.018205
0.113652 0.054539 0.001500
-0.104070 0.010572 -0.026962
0.014067 -0.054765 -0.031284
-0.035404 0.054307 0.068999
-0.026444 -0.051386 0.028338
0.013857 -0.002604 0.063986
-0.112482 0.006858 0.075233
-0.049688 0.047654 -0.072140
-0.108920 0.008799 -0.066317
-0.016907 0.041588 -0.040267
0.028920 -0.002604 -0.063535
0.058107 -0.002604 -0.062272
-0.102321 -0.019575 -0.029564
0.003156 0.021900 0.060012
-0.010029 0.030454 0.065939
0.080184 -0.000604 -0.061158
-0.015318 0.032221 0.080755
-0.025551 0.044777 -0.079639
-0.009964 0.042105 -0.045827
-0.112974 -0.005409 -0.075271
0.016017 0.057966 -0.031142
0.001278 -0.020727 0.072188
0.113652 -0.053330 0.023471
-0.015678 -0.043236 -0.077675
-0.105641 0.000896 0.017457
-0.002446 0.023562 -0.061208
-0.103166 0.031002 0.075086
-0.088761 0.001457 -0.084071
-0.001443 -0.042315 -0.027460
-0.050982 0.047712 0.072139
-0.053699 -0.058542 -0.068005
0.003363 -0.013361 0.064341
0.097500 -0.021065 -0.055602
-0.109689 -0.007045 0.018095
0.113652 0.053693 -0.009765
-0.108732 0.022142 -0.068999
0.113652 0.054292 0.007409
-0.038427 0.001024 0.080252
-0.019681 0.042152 -0.027513
0.079138 -0.057165 0.007177
-0.022433 0.042545 0.065728
-0.017865 0.042278 0.052267
0.030227 0.059197 0.035426
-0.025163 -0.048802 0.027246
-0.004495 0.021279 0.066099
-0.071485 -0.050765 -0.080766
-0.059661 0.053696 -0.028108
0.098319 0.056503 -0.005739
0.102200 -0.000604 0.059759
0.011697 0.055012 -0.026660
0.098092 0.049776 -0.028859
0.008698 -0.053558 0.013000
