0.030669 0.056787 0.034771
-0.109805 0.000896 -0.029248
-0.013773 0.034995 -0.056944
-0.017400 0.042167 -0.047675
0.097465 -0.036647 -0.047614
-0.015408 0.043752 -0.043560
-0.000005 -0.005430 -0.079848
-0.064881 -0.057282 0.017443
-0.019061 0.040026 0.053026
-0.010349 0.031722 0.059735
-0.070853 0.053069 -0.030654
-0.025012 0.044338 -0.065696
-0.044854 -0.032076 -0.083858
0.005943 0.000896 -0.060373
0.012571 0.057067 0.016120
0.046088 -0.036959 -0.055248
-0.073586 -0.056945 0.075077
-0.082590 0.017708 0.083966
0.014386 0.057708 -0.030319
-0.104966 0.001146 0.066451
-0.085724 0.037161 0.072323
0.030406 0.018367 -0.060326
-0.055257 0.014766 0.080252
0.113652 0.049037 0.021059
-0.012631 -0.040157 -0.077683
0.097886 0.049632 0.038226
0.010222 -0.055586 0.013783
-0.070927 -0.002922 -0.080252
-0.100956 0.027405 0.079682
-0.093404 -0.041699 0.016096
-0.103485 -0.025862 0.015424
-0.110356 0.006595 0.015544
-0.045780 0.031457 -0.084037
0.000587 0.005158 0.066381
-0.011024 0.037168 -0.050175
-0.018629 0.045421 -0.030843
-0.081449 -0.018583 0.083800
-0.111902 0.012908 0.068999
-0.062329 0.054875 0.068013
-0.086684 0.009940 -0.084000
-0.112571 -0.000604 0.068982
-0.011292 0.036403 0.058624
0.015313 0.058802 0.001500
-0.108740 -0.012783 0.066304
-0.094572 -0.038934 -0.079651
-0.010613 0.046454 0.037412
-0.050661 0.055292 -0.077691
-0.104944 0.026062 -0.068516
-0.025801 -0.052531 0.075061
0.028834 -0.056374 -0.029019
-0.042522 0.051824 0.079655
0.098319 0.056503 -0.005739
-0.049382 -0.055405 -0.027689
0.046028 -0.052406 -0.038857
-0.112571 -0.000604 0.018016
0.113652 0.047792 -0.027543
0.009863 0.052653 -0.026175
-0.002125 0.046975 -0.044046
-0.043467 0.047850 0.018364
-0.082161 -0.045610 -0.080747
-0.021654 0.047414 0.072096
0.005808 0.001146 0.063603
-0.112116 -0.002604 0.016428
-0.077689 0.052154 -0.075069
-0.076390 -0.047481 0.015801
-0.019303 0.043149 0.077671
-0.011995 0.036755 0.059889
-0.004634 0.030127 -0.054769
0.047348 0.042055 -0.054949
-0.030293 -0.053263 -0.030604
-0.018334 0.042660 0.051367
-0.111216 0.013108 0.075186
-0.040705 0.018523 -0.081811
0.047818 0.060240 -0.024963
-0.007119 -0.029349 0.066014
0.097569 0.001146 0.058965
-0.106602 0.016723 -0.066178
0.061314 -0.055524 0.024708
0.113652 -0.002604 0.058768
0.063165 -0.056350 -0.027626
0.014139 0.048253 -0.049106
-0.083394 0.049323 0.075061
-0.109444 -0.004868 -0.026807
0.007601 -0.040456 0.053975
-0.111477 -0.005342 0.077880
-0.069597 0.050759 -0.065584
-0.004272 -0.024014 0.064137
-0.015198 0.042381 0.042942
0.016530 0.059153 0.018893
-0.067143 0.027782 -0.083845
-0.022435 -0.049791 -0.029997
0.063361 -0.056582 -0.016019
-0.109333 -0.001604 0.079880
0.030742 0.060002 -0.025447
-0.046655 0.052599 -0.079658
-0.012885 0.040470 -0.049983
0.022162 0.056133 0.034678
0.081378 0.057723 0.024668
-0.054598 0.037756 0.083201
0.113652 0.025864 -0.049081
0.113652 -0.022366 -0.048864
-0.064341 0.028869 -0.083858
0.009321 -0.054471 0.013208
0.102153 0.000896 0.059487
-0.039980 -0.056728 0.018912
0.113652 -0.006524 -0.052938
-0.020768 0.044507 -0.041661
-0.021102 0.044755 0.016687
-0.088761 0.001457 -0.084071
-0.009946 0.034414 0.068371
-0.006083 0.051850 -0.029782
0.048024 0.001146 -0.061398
0.098092 0.049776 -0.028859
0.004720 0.036375 0.060163
0.063456 -0.016464 -0.059138
-0.009834 -0.036868 -0.077693
-0.058060 0.050296 -0.080785
0.095177 -0.001604 0.059437
-0.004114 -0.028036 0.077730
-0.039053 0.051742 0.016325
-0.018666 0.043829 -0.040938
-0.001571 0.020085 -0.058604
-0.081999 -0.053922 0.072108
-0.054598 -0.058677 0.077638
0.014420 0.057619 -0.028667
0.001264 -0.020434 0.062810
0.005572 -0.002066 0.062142
0.040076 0.001146 -0.062957
-0.005555 -0.012587 0.072808
-0.046655 0.052599 -0.079658
-0.098264 -0.034098 -0.027317
0.043796 -0.002604 0.065782
0.003199 -0.008727 -0.063294
-0.004242 0.010832 0.080879
-0.033330 0.043197 0.065717
-0.062001 0.052397 -0.065556
0.015842 -0.057204 -0.022424
-0.001625 0.023214 0.075123
0.030889 0.000896 0.065426
-0.106429 0.025517 -0.075111
0.113652 -0.046605 -0.032745
-0.007218 -0.032501 -0.052249
0.001056 0.001146 -0.063453
-0.040236 0.047332 -0.027604
-0.082732 -0.053593 0.068999
-0.008274 0.038137 -0.053114
-0.023352 0.043264 -0.035810
0.025408 -0.049146 0.046940
-0.027712 -0.043349 0.065770
0.025793 -0.024028 0.060885
-0.000985 -0.022627 -0.061976
-0.001241 0.012542 -0.064490
-0.050915 0.030220 0.083872
-0.104990 -0.003063 -0.072974
0.000956 0.005162 0.065427
-0.059793 -0.007968 0.079313
0.097660 0.033963 -0.047741
-0.009372 0.019873 -0.066123
-0.104841 0.002556 -0.066426
0.014008 0.000896 -0.059771
-0.018937 -0.047557 -0.037394
-0.013615 0.026792 -0.066003
-0.091163 -0.042354 -0.030455
-0.065960 0.052769 0.016343
-0.001443 0.039108 0.015711
-0.098048 -0.001604 0.082661
-0.007132 0.036706 -0.051329
-0.103331 -0.032056 0.018504
-0.105580 -0.002604 -0.026767
0.025458 -0.002604 0.066312
0.112890 -0.002604 0.057676
-0.061009 0.050004 -0.068999
-0.004229 0.001146 0.072951
-0.098842 -0.035774 0.015993
-0.048448 0.055066 -0.068009
0.061502 0.000896 0.064968
-0.012210 0.049062 -0.030964
0.006028 -0.001604 0.062043
-0.051135 -0.053504 0.080785
0.009197 0.054994 -0.028002
-0.005534 -0.018467 0.080845
-0.048280 0.050015 0.068999
-0.095104 -0.034006 -0.080759
-0.072902 -0.017821 0.081811
-0.016171 0.037988 -0.050943
0.113652 0.020602 -0.048714
-0.110984 0.001146 -0.028376
-0.106944 0.020918 -0.077751
-0.059555 -0.050853 0.065639
-0.009030 -0.024271 -0.027145
-0.065040 -0.050006 0.072154
-0.108679 -0.025326 0.072158
-0.028646 0.016767 -0.083797
0.007671 -0.051992 -0.025276
-0.009458 -0.037386 -0.052401
-0.054598 0.057156 -0.074303
-0.097197 -0.037750 0.016027
-0.007179 -0.017891 0.066214
-0.093565 -0.040123 -0.065826
-0.083175 -0.048179 -0.065686
-0.062786 -0.002265 -0.079313
0.028827 -0.057790 -0.023393
-0.047574 0.013198 -0.080252
0.004314 -0.006485 0.068999
0.012251 0.057637 0.016946
-0.000284 0.021294 -0.060397
0.081119 0.050724 0.040414
-0.093741 0.011099 -0.082889
-0.100616 -0.026902 0.068999
0.025711 -0.043692 0.049608
-0.099031 -0.037860 -0.068366
0.041452 -0.000604 -0.063998
-0.073586 -0.056945 0.075077
-0.021967 0.045345 -0.035663
0.000657 0.004807 0.066387
-0.086948 0.036154 -0.072340
-0.076663 0.045433 0.080756
0.058028 0.000896 -0.061051
0.080436 -0.029002 -0.055681
-0.007179 -0.017891 0.072715
0.081240 0.052810 -0.038911
-0.015617 0.036903 -0.065826
-0.098089 -0.041640 -0.068999
-0.061541 0.002787 0.079313
-0.087483 0.047453 -0.072096
-0.021317 0.045193 -0.030636
-0.063947 0.052036 -0.065562
-0.065116 0.052935 -0.028095
0.079229 -0.001604 0.061840
-0.035931 -0.027411 -0.083814
-0.098038 0.033555 0.016010
-0.113649 -0.001604 0.072484
0.000994 -0.014163 -0.077814
0.080623 0.027666 -0.057896
-0.032770 0.024484 0.083975
-0.093517 0.040029 0.077675
-0.001890 -0.019654 -0.060056
-0.106412 -0.005049 0.080959
-0.099737 -0.027151 0.080789
-0.023794 -0.049309 -0.028621
-0.001664 -0.015402 -0.079771
0.080471 -0.054503 -0.020759
-0.023185 -0.040140 0.065826
-0.010170 0.023431 0.017938
-0.030118 -0.049939 0.015844
0.063124 -0.059076 -0.016323
-0.004099 -0.001604 0.072999
0.003026 0.004056 -0.065199
0.029965 0.017296 -0.062898
-0.078801 0.050017 -0.077673
0.003019 -0.014567 -0.072234
-0.013773 0.034995 -0.056944
-0.039053 0.051742 0.016325
0.063424 0.008817 0.063249
0.009553 0.055760 0.016102
0.038842 0.051098 -0.051949
-0.007902 -0.035984 0.051776
0.113652 -0.053993 -0.009043
-0.029048 -0.052689 0.018895
0.014171 0.057516 -0.028268
-0.073340 -0.030070 -0.083989
-0.073068 0.052343 0.077679
-0.001885 -0.023508 -0.056731
0.030597 0.057989 -0.038501
-0.001742 -0.040410 -0.027427
-0.102799 0.024803 0.066038
0.001900 0.010540 0.068787
0.001420 0.011357 0.062774
-0.091157 0.044068 -0.075056
-0.097357 -0.041526 -0.075064
0.005314 0.016232 0.060831
-0.014026 -0.042962 -0.045587
-0.086600 -0.045870 0.065726
-0.091715 -0.045088 0.018719
-0.051510 0.055311 -0.030691
0.097474 -0.045918 -0.034304
-0.106341 0.023607 -0.030167
0.004833 0.000896 -0.060763
-0.015300 -0.044077 0.047048
-0.087710 0.006811 0.084023
0.002083 0.004413 0.077862
-0.099992 0.028893 0.079675
0.006486 -0.050211 -0.024697
-0.083635 0.045892 0.016224
-0.008881 -0.022066 0.066142
-0.015318 -0.035432 0.080755
-0.060812 0.032047 -0.084043
-0.003178 0.019759 0.063768
0.002568 -0.016431 -0.072219
0.005382 -0.017649 -0.059632
0.007980 -0.048344 0.041317
-0.109791 0.001146 0.017659
-0.035733 0.052172 -0.030639
0.065288 -0.057819 0.001500
-0.054598 0.057438 0.072570
0.004588 0.054467 0.040237
-0.011942 0.024433 -0.066044
0.079136 0.001146 -0.058793
-0.021890 -0.001604 -0.084053
-0.041750 0.030022 0.084020
0.000651 -0.016984 0.061659
0.098701 0.053935 -0.005523
0.080485 0.015108 0.060669
-0.104016 0.010973 -0.026969
-0.022602 0.001111 -0.083895
-0.073714 0.049497 -0.065606
-0.065753 -0.051125 0.015864
0.005018 0.005556 0.061895
-0.064327 -0.059911 -0.068999
0.102195 0.001146 0.059729
-0.023822 -0.016176 0.083982
0.097590 0.038090 0.047886
-0.097134 0.024620 -0.066041
-0.009096 0.036965 -0.053771
-0.007908 0.037801 -0.053440
-0.016874 0.044738 -0.038914
0.056184 0.053636 -0.041224
0.043357 -0.025282 0.063577
0.021909 0.046031 0.055383
-0.046489 -0.002921 -0.079313
-0.011994 -0.054172 0.016908
0.005926 0.052358 -0.036449
0.003642 -0.000604 0.066937
-0.108798 -0.012570 0.066307
0.080413 -0.048060 -0.035716
-0.005158 0.034738 0.055741
0.002314 -0.025471 0.060407
0.069880 0.000896 -0.060021
-0.063548 0.031420 -0.084036
0.113652 -0.018561 0.056034
0.007636 0.000896 0.061941
0.039969 0.058166 0.001500
-0.112685 -0.012261 0.072253
-0.067426 0.046193 -0.065664
-0.072021 0.044792 0.072190
0.005936 -0.016606 -0.057321
0.113652 -0.039739 0.039894
0.043343 -0.031524 0.061214
0.003308 -0.004056 0.068307
-0.013847 -0.034494 0.068999
-0.022400 -0.001604 -0.083922
-0.109695 -0.016170 0.077800
-0.104085 -0.033936 -0.068999
-0.107568 -0.000604 0.075482
-0.074721 -0.026251 0.083807
-0.048272 -0.053199 -0.080783
-0.000221 -0.050766 -0.030765
-0.004099 -0.001604 -0.072999
-0.108431 -0.020299 0.077774
0.113652 -0.035465 0.043963
-0.023294 0.037022 0.072325
0.078986 -0.050482 0.039939
-0.020037 0.035898 -0.027404
-0.018289 0.045045 -0.068999
0.002324 -0.001604 0.064334
0.046895 0.000896 -0.062618
-0.048474 -0.050724 -0.072142
-0.035642 -0.052283 0.015885
-0.030084 0.047144 -0.065647
-0.024167 -0.049995 -0.029653
-0.107543 0.012359 -0.026993
-0.020887 -0.049445 0.035558
0.039474 0.055883 -0.037421
-0.041700 0.037640 -0.082881
-0.013982 0.039518 0.049689
0.038383 0.000896 -0.061524
-0.090906 0.045045 -0.068999
-0.054598 -0.001604 0.079000
0.014254 0.057550 -0.028402
-0.024322 0.044693 0.016105
-0.044471 0.046867 0.065653
-0.002562 0.027014 -0.055844
0.113652 0.050533 0.015701
-0.072691 0.044506 -0.065693
-0.094089 0.028873 0.072467
-0.010645 0.022132 -0.066084
0.001909 -0.042660 0.012742
-0.085078 0.043842 0.079639
-0.004229 0.001146 0.072951
0.047274 0.037327 -0.056933
0.005018 0.005556 0.061895
0.072256 0.039196 0.055543
0.000087 0.015835 -0.059271
-0.107410 -0.005148 -0.068999
0.001443 -0.041548 -0.024461
0.006388 0.001146 -0.060447
-0.104526 -0.018397 0.068999
-0.044868 0.056703 0.068999
0.103374 -0.055803 0.001500
-0.026654 -0.045637 0.068999
-0.000005 -0.005430 0.079848
0.038757 0.049547 0.052951
-0.065661 0.051321 0.015924
-0.006874 -0.019575 0.017814
-0.020424 0.001365 -0.084072
-0.015915 0.037169 -0.065822
-0.029965 0.041416 -0.065747
-0.012037 -0.027789 0.072542
-0.030826 0.022731 0.083968
-0.065615 -0.031621 0.083853
0.097530 -0.002604 -0.058498
-0.034929 0.043840 0.072206
0.009473 0.056143 0.016242
-0.100655 0.023625 0.068999
-0.009458 -0.037386 0.055401
0.047529 0.049253 -0.049610
0.002395 0.016468 -0.057944
-0.060413 0.052587 0.018938
-0.022481 0.043017 0.030801
0.079142 -0.056694 0.012827
0.080832 0.038459 -0.053663
-0.012037 -0.027789 -0.066041
-0.073264 0.024203 0.083814
-0.013021 0.041039 0.047926
0.097815 0.046702 0.042714
0.001443 0.038341 0.012711
0.002196 -0.001604 0.064514
0.025770 -0.030052 0.058770
-0.050815 0.053049 0.079660
-0.028092 -0.052440 0.019031
0.039063 0.046353 -0.052796
-0.054011 -0.051085 -0.072136
-0.080751 -0.046429 -0.080749
0.004320 -0.005642 -0.072311
0.003376 -0.002604 -0.065366
-0.012634 0.034426 -0.054882
0.113652 -0.040938 -0.039420
-0.098703 0.031088 0.018566
0.013506 0.057881 0.016719
0.012998 0.037322 0.061224
-0.092763 0.041069 -0.030455
-0.022438 0.045811 0.018800
-0.044517 -0.057735 0.077688
-0.005557 -0.034513 0.072113
0.079084 -0.050791 0.034092
-0.110254 0.000896 0.016426
-0.085673 -0.015547 -0.083986
-0.075267 -0.014674 -0.081811
-0.106412 -0.005049 0.080959
0.014030 -0.054747 -0.031329
-0.109597 -0.000604 -0.027768
0.025660 0.001146 0.065343
-0.105580 -0.000604 0.015018
-0.103809 -0.013619 -0.029460
0.004320 -0.005642 -0.072311
0.011630 -0.056880 0.015953
-0.035609 0.053737 0.075077
-0.109865 -0.020775 0.075157
-0.023753 -0.046926 -0.033895
0.013865 0.000896 0.063926
0.022127 0.058574 -0.032328
-0.066575 0.046452 0.065660
-0.105081 0.024829 -0.077730
-0.063269 0.021262 0.081811
-0.016302 -0.044817 -0.037582
0.013512 0.037366 -0.058280
-0.046369 0.029330 -0.083863
0.097428 -0.048156 -0.035536
0.030743 0.057524 0.028017
-0.080600 -0.023517 0.083964
-0.033482 0.050990 0.017390
0.029608 0.025173 0.065106
-0.021485 -0.010019 -0.084023
-0.014647 -0.044339 0.075059
-0.091157 0.044068 0.075057
-0.076431 0.024475 0.083975
0.079157 -0.002604 0.064311
-0.041750 0.030022 0.084020
-0.005878 -0.030593 0.056434
-0.093142 0.040204 0.017208
0.097558 0.029407 0.053201
0.025373 -0.059287 0.014449
-0.021011 -0.044786 -0.065745
0.064876 0.059813 -0.016145
-0.036703 -0.053088 0.018891
-0.032764 -0.027683 0.083975
-0.073774 -0.057462 -0.072131
-0.113649 -0.001604 0.072484
-0.018978 -0.046098 -0.077671
-0.062736 -0.056541 -0.028102
-0.101929 -0.033335 -0.077706
0.072790 0.049538 -0.043155
0.047153 0.056278 0.046289
-0.093741 0.011099 0.082889
0.079120 -0.016638 0.062831
-0.001443 -0.042315 -0.027460
0.074462 0.000896 0.063668
-0.065760 0.047883 0.015864
-0.035512 -0.055371 -0.030639
-0.109190 0.002223 0.079848
-0.018362 -0.043753 0.043042
-0.022999 -0.006739 0.083873
-0.106819 0.016203 -0.066188
0.003026 0.004056 -0.065199
-0.086401 -0.048908 0.077669
-0.020245 0.037252 -0.080745
-0.009834 -0.036868 0.077693
0.064647 0.058488 -0.030421
-0.109571 -0.000604 -0.026767
-0.016373 0.043164 -0.034675
-0.013674 0.042562 0.049958
-0.012411 0.027048 -0.027250
-0.100290 -0.038132 -0.075073
0.078865 -0.059680 0.007277
-0.008737 0.031954 -0.054800
-0.102909 0.028616 -0.077712
0.097688 0.034870 -0.050248
0.047777 0.054092 -0.041940
-0.105066 0.025983 -0.030206
-0.007000 0.025325 -0.079692
-0.017324 -0.042068 0.047282
0.006784 -0.013699 -0.057897
-0.109689 -0.007045 0.018095
-0.033482 0.050990 0.017390
0.081173 0.055011 0.036811
-0.093251 -0.034869 0.015581
-0.064809 0.054433 0.018927
-0.083621 0.044700 -0.065690
-0.015572 -0.001604 0.083365
-0.041285 -0.057052 -0.068031
-0.045497 0.047022 -0.065650
-0.023098 0.004152 0.083867
-0.111216 0.013108 0.075186
-0.043435 0.047883 -0.027613
-0.001680 -0.017305 0.066225
-0.047451 0.049909 -0.068999
0.006292 -0.000604 0.063499
0.001051 0.038426 -0.025956
-0.020500 -0.047199 0.034527
0.030469 0.025874 -0.059531
-0.078376 -0.022669 0.083797
-0.011660 -0.051988 0.015880
-0.073190 -0.052894 0.065603
-0.101923 -0.018240 0.072709
-0.013982 0.039518 -0.046689
0.061447 -0.009069 0.063355
-0.063147 -0.060040 -0.072153
-0.029965 0.041416 -0.065747
-0.070064 0.017339 0.081811
0.046682 0.017877 0.063572
0.064420 0.050603 -0.044434
-0.050659 0.032408 0.084046
0.003287 -0.010066 0.075233
0.030527 0.060359 0.001500
-0.093420 0.040486 0.018696
-0.029361 -0.051906 0.016758
0.013586 0.056292 -0.037951
0.013285 0.057098 0.015321
-0.089822 -0.036790 -0.072385
0.007979 -0.050550 0.036843
-0.049266 0.052629 0.018939
0.097620 -0.055449 -0.009361
-0.047514 0.048902 0.018382
0.113652 0.000896 0.057480
-0.104997 0.026092 -0.030208
-0.024494 -0.050120 0.068152
-0.009556 0.033939 0.061897
-0.049098 -0.058339 -0.030689
0.113652 0.020382 0.051740
-0.003063 -0.000604 0.015018
-0.075267 0.011467 -0.081811
-0.092490 0.040783 -0.028967
-0.019761 -0.038848 0.015650
-0.109190 0.002223 -0.079848
-0.004995 0.026446 0.077722
-0.072021 0.044792 -0.065688
-0.015877 -0.034791 -0.029829
-0.077146 -0.053971 -0.077674
-0.021701 -0.046906 0.035044
0.008337 0.000896 0.062005
0.046428 0.024641 0.065344
-0.048659 -0.060363 0.072156
-0.048907 0.004321 0.079313
-0.107478 -0.015603 -0.079770
-0.013739 -0.044790 -0.042690
0.013499 0.031577 -0.059707
-0.004736 0.021778 -0.066090
-0.014556 -0.042101 0.045117
-0.081749 -0.053427 0.075063
-0.000506 -0.013054 -0.064275
0.113652 -0.035465 0.043963
-0.067598 -0.059214 0.072145
0.080473 -0.016534 -0.059658
0.004436 -0.020963 -0.056283
-0.030293 -0.053263 -0.030604
-0.045397 -0.052791 -0.080780
-0.008737 0.031953 0.057800
-0.093251 -0.034869 0.015581
-0.008274 0.038137 -0.053114
-0.062001 0.052397 0.065556
-0.005117 -0.013693 -0.026961
-0.024569 -0.012363 0.083829
0.092612 0.054777 0.001500
-0.014996 0.041455 -0.075058
0.003673 -0.004003 -0.063647
-0.093834 0.024141 -0.081755
0.113652 0.052443 0.018707
0.071206 -0.000604 0.065330
0.002314 -0.025471 0.060407
-0.014322 -0.038608 0.079652
-0.109783 0.003364 -0.066412
-0.081466 0.015387 -0.083800
-0.097674 -0.034854 0.015581
0.007078 0.053242 -0.027707
-0.080647 -0.027621 -0.083534
0.040333 0.000896 -0.062714
0.016452 -0.055431 -0.017644
-0.030900 0.047580 0.065640
-0.054598 0.032248 -0.084082
-0.098089 0.038433 -0.068999
-0.073792 0.054307 -0.068999
0.055729 0.051428 0.048457
-0.021698 0.043818 0.016020
-0.095348 0.031286 -0.068999
-0.105525 -0.030387 -0.075103
-0.105580 -0.002604 0.016233
-0.109077 -0.008258 0.015116
-0.054245 -0.051099 0.072135
-0.007404 -0.030648 -0.055250
-0.018190 0.045652 -0.030874
0.003166 0.001146 0.065646
-0.109209 0.011932 0.015636
-0.104033 0.007740 0.066336
-0.066065 -0.052325 0.080776
-0.013773 0.034995 0.059945
-0.011665 0.045634 0.046982
-0.111753 -0.010102 -0.029890
0.022317 0.059933 0.001500
-0.110798 0.000896 -0.028538
-0.002795 0.022690 -0.058073
-0.067495 0.037627 -0.082883
0.015197 -0.000604 -0.061364
-0.030378 -0.050537 -0.065644
-0.016778 0.044672 0.042391
-0.028838 0.046041 -0.027581
0.113652 -0.014915 -0.054077
-0.027446 0.050220 0.075063
0.001388 -0.004118 -0.062594
-0.111902 -0.016115 -0.068999
-0.073542 0.053753 -0.075077
-0.009178 0.028856 0.079676
-0.048846 0.052594 0.065553
-0.109333 -0.001604 -0.079880
-0.034072 -0.049342 0.080759
-0.015678 -0.043236 -0.077675
0.013486 0.024853 -0.060746
-0.010261 -0.040518 -0.047968
-0.054598 0.056899 -0.075090
0.022039 0.055695 -0.043542
-0.012068 -0.027833 -0.066041
-0.111625 -0.001604 -0.077886
-0.099361 0.033661 -0.077693
-0.017568 -0.045911 0.044071
-0.067143 0.027782 0.083845
-0.093517 0.040029 -0.077675
-0.007119 -0.029349 -0.066014
-0.104199 0.029409 -0.075093
-0.051590 0.053843 -0.028111
0.008555 -0.053547 -0.028326
-0.005987 -0.034028 -0.053827
0.113652 -0.017302 0.053754
0.002203 0.000896 0.064564
0.029749 0.038041 0.062495
-0.054598 -0.060570 -0.073294
0.030669 0.056787 0.034771
-0.096061 0.034211 0.018620
-0.015537 0.043839 0.046190
-0.106730 -0.010191 -0.068999
-0.042859 0.054193 -0.068025
-0.002465 0.006984 -0.068999
-0.093623 -0.001604 0.083365
0.113652 0.050990 -0.020363
-0.005387 -0.013620 0.015210
-0.103206 -0.027254 -0.066051
0.038670 0.046362 0.055802
-0.076219 0.048696 0.079644
-0.062014 0.047317 0.065645
-0.109542 -0.019194 -0.068692
-0.068523 -0.056904 -0.030665
0.071206 -0.000604 -0.062329
-0.060361 0.052142 0.015938
-0.104085 -0.033936 -0.068999
-0.016009 -0.041871 -0.043108
-0.026501 0.050315 0.072107
0.004314 0.003278 0.068999
-0.081749 -0.053427 0.075063
-0.007218 -0.032501 0.055249
-0.111216 0.013109 -0.075186
0.005694 -0.008870 -0.061128
0.107802 -0.001604 -0.054283
0.003527 0.000896 0.063228
0.097570 -0.052986 -0.019919
0.002352 -0.013345 0.065675
0.080515 0.021320 -0.059316
-0.023185 -0.040140 -0.065826
-0.018330 0.044992 0.072092
0.113652 0.049037 0.021059
-0.020500 -0.047199 0.034527
-0.026463 0.050385 0.068999
-0.024436 0.039519 0.015718
-0.085930 -0.051666 -0.072099
0.029164 -0.035377 -0.053284
0.046073 -0.041766 -0.051815
-0.088985 -0.001604 -0.084102
-0.110231 -0.000604 -0.026841
-0.005110 0.030728 0.068999
0.043796 0.000896 0.065656
0.000318 0.006520 0.066357
-0.026373 0.047993 -0.068133
-0.058672 -0.060521 0.072157
-0.100353 0.018761 0.066143
-0.104085 -0.033936 0.068999
-0.094089 0.028873 0.072467
-0.006085 0.011444 0.072772
-0.106327 0.016163 -0.079745
-0.111902 0.012908 0.068999
0.043300 -0.045965 0.050992
0.002982 -0.000604 0.066017
-0.086948 0.036154 -0.065839
-0.021752 0.045408 0.030865
-0.112482 0.006858 0.075233
0.097428 -0.048156 -0.035536
0.001481 -0.002046 -0.062676
-0.102195 -0.028533 0.079692
-0.016683 0.033806 -0.080750
-0.012769 -0.040783 0.053545
-0.022120 -0.047322 -0.030686
-0.104797 0.002840 -0.072922
-0.009500 0.024012 -0.080789
-0.028548 0.024414 0.083534
0.025813 -0.017166 0.062475
-0.076806 0.050547 0.017383
0.009206 0.051796 -0.026199
0.019140 -0.000604 -0.062804
0.113652 -0.020237 -0.052495
0.047387 -0.000604 -0.063951
-0.106260 -0.019564 0.079743
0.004400 0.012321 -0.060825
-0.109903 0.001146 0.017784
-0.004495 0.021279 0.066099
0.034329 -0.002604 0.066850
-0.017400 0.042167 0.050676
0.072481 0.039160 -0.052509
0.000853 0.037138 -0.025927
0.064947 0.057307 0.018887
-0.056241 -0.009653 -0.079313
-0.034072 -0.049342 0.080759
-0.054598 -0.034149 0.084000
0.005333 0.040513 0.055921
-0.000790 0.028809 -0.057900
-0.108217 -0.001604 0.080458
-0.054011 -0.051085 0.072136
0.002247 0.056192 0.019078
-0.074721 -0.026251 -0.083807
0.013455 0.001146 0.062586
-0.052504 0.052405 0.015943
-0.046382 -0.001604 0.079313
-0.072691 0.044506 -0.072194
-0.093251 -0.034869 0.015581
-0.014126 0.038942 -0.054717
0.012138 0.055230 -0.025602
-0.105582 -0.002502 0.016235
0.000138 0.006614 -0.066355
0.043789 -0.001604 0.064489
0.047120 0.025271 -0.059706
-0.085332 0.043531 -0.065710
-0.059490 -0.050863 0.072139
-0.080727 -0.040629 0.081754
-0.103908 0.008301 -0.066325
-0.100290 -0.038132 -0.075073
0.022597 0.055064 -0.037458
-0.045291 -0.015086 -0.080252
0.061268 -0.024581 0.062862
0.113652 -0.051888 -0.017113
0.043328 -0.037025 0.058303
-0.093834 0.024141 0.081755
-0.074698 0.051742 -0.068068
-0.048429 -0.055306 0.015937
-0.019303 0.043149 -0.077671
0.022163 0.018375 -0.059763
-0.109597 0.000896 -0.028044
-0.011110 0.047598 -0.040024
0.072333 0.043245 0.052925
0.001900 0.010540 -0.068787
-0.000005 -0.005430 0.079848
-0.080647 -0.027621 -0.083534
-0.072151 0.050018 0.065598
-0.105582 -0.002502 -0.027984
-0.065320 0.053993 -0.029191
-0.023753 -0.046926 -0.033895
-0.016171 0.037988 0.053943
0.004217 -0.008739 -0.061943
0.007601 -0.035848 0.056952
-0.072902 -0.017820 -0.081811
-0.113550 -0.001604 -0.073554
0.003308 -0.004056 -0.065307
-0.043452 0.047937 0.015865
-0.052312 -0.009495 -0.079313
-0.099289 -0.024029 0.072608
0.061502 0.000896 0.064968
0.038984 -0.000604 -0.062973
0.113652 0.042597 -0.035345
-0.104174 0.024532 0.015854
0.038361 0.047461 0.058101
-0.003758 -0.027150 -0.055226
-0.111172 0.000896 -0.029093
-0.057511 -0.009285 0.079313
-0.078075 -0.053206 0.017374
-0.106585 -0.026328 -0.030159
-0.014623 0.035727 -0.079651
0.014081 0.058255 0.017107
-0.080727 -0.040629 0.081754
-0.029581 -0.050143 0.023471
-0.051076 0.005819 -0.079313
-0.036084 0.052328 0.077679
-0.021524 0.045615 0.018815
0.003056 0.047148 -0.027601
0.013455 -0.000604 -0.062097
0.000711 -0.018083 0.066341
-0.097134 0.024620 -0.066041
-0.054598 -0.034519 -0.084058
-0.024395 -0.050466 0.031844
-0.087305 -0.001604 -0.084053
0.009863 0.052653 -0.026175
0.004335 0.002204 0.072313
-0.021470 -0.048211 0.041362
0.064044 0.052527 0.049227
-0.059649 0.055172 -0.068008
-0.011888 0.032556 -0.079661
0.113652 -0.043792 0.039325
-0.009203 -0.032101 0.079675
-0.097307 -0.035763 -0.079661
-0.023185 -0.040140 -0.065826
-0.003670 0.027179 -0.075103
0.015231 0.058703 0.014548
-0.012068 -0.027834 0.072541
0.074509 0.000896 0.062491
0.007076 0.054504 -0.027993
0.080669 0.015088 -0.057643
-0.081591 -0.043282 0.072272
-0.008202 0.017176 0.072672
-0.048343 0.037721 0.083168
-0.029383 -0.052833 0.018848
-0.019726 0.042597 -0.030551
0.001956 -0.020134 0.059639
-0.032944 0.009761 0.081811
-0.012087 -0.054770 0.017996
-0.010091 0.033985 -0.077691
0.022039 0.055695 -0.043542
-0.077096 -0.011189 0.081811
0.113652 -0.051228 -0.025001
-0.034037 0.046119 -0.080758
0.004696 -0.001604 -0.059482
0.094095 0.057119 0.001500
-0.080320 -0.049780 -0.030584
-0.111763 0.013224 -0.072219
-0.002562 0.027014 0.058845
-0.003876 0.054048 0.019044
-0.022764 -0.049195 -0.034265
0.080231 0.014346 0.063338
0.081821 0.055195 -0.021030
0.001139 -0.017855 0.064767
-0.080727 0.037408 -0.081757
-0.104021 -0.033895 0.072116
-0.080751 -0.046429 -0.080749
0.000862 -0.024897 0.060671
-0.001627 -0.000604 0.068982
0.113652 -0.049847 -0.022189
-0.081466 0.015387 0.083800
-0.005158 0.034738 0.055741
-0.106944 0.020918 -0.077751
-0.086401 -0.048908 0.077669
-0.104273 0.015884 0.068999
0.011725 -0.051023 -0.039385
-0.019249 0.045222 -0.030797
0.007600 -0.030558 0.059453
0.113652 -0.002604 -0.054542
0.046043 -0.049449 -0.043578
0.081937 0.055918 0.009762
-0.061622 -0.035105 0.084042
0.005936 -0.016606 -0.057321
-0.062786 -0.002265 0.079313
-0.068160 -0.055479 -0.028084
-0.009373 -0.022984 -0.072626
0.004136 -0.013130 -0.058153
-0.086077 0.004244 0.083866
-0.035422 -0.057460 -0.072131
-0.030928 -0.051934 -0.028022
-0.021485 -0.010019 -0.084023
-0.067892 0.053848 0.068031
0.080404 0.014329 -0.060314
-0.109719 -0.007142 0.066402
-0.021108 0.045388 0.017671
-0.100554 0.034592 -0.075074
0.017368 0.056796 -0.014165
-0.043378 0.051747 -0.065567
-0.024078 -0.048974 0.026915
-0.097134 0.024619 0.072542
0.084085 -0.002604 -0.059444
-0.103598 -0.018650 -0.080843
0.097675 0.039329 0.050234
0.042496 -0.001604 0.064519
-0.048697 -0.035327 -0.084044
-0.000965 0.019358 -0.063641
-0.013857 -0.033710 -0.080760
-0.049004 -0.050789 -0.065640
-0.108737 0.007179 -0.026903
-0.048659 -0.060363 0.072156
-0.044114 0.020490 0.081811
-0.038279 -0.031568 -0.084002
0.113652 0.010241 -0.051912
0.020089 0.000896 0.063448
-0.027316 0.045664 0.065674
0.013835 0.001146 -0.061169
0.001552 -0.042837 0.014235
0.004320 -0.005643 0.072311
0.005490 -0.018135 -0.057017
-0.006899 -0.017205 0.066226
-0.003241 -0.009174 0.080920
-0.032570 -0.046028 -0.065723
0.079067 -0.048199 0.038822
-0.094585 0.028180 -0.065978
-0.002783 0.001842 0.080959
0.061305 -0.053995 0.030106
0.043372 -0.018261 0.065354
-0.014780 -0.040804 -0.044574
0.081446 0.056614 -0.028028
0.009565 -0.054028 -0.028880
0.046104 -0.031457 -0.058170
-0.015093 0.040186 -0.051461
-0.000528 -0.013134 -0.064257
0.013082 -0.057780 0.018057
0.047575 0.060610 0.020134
-0.104841 0.002556 0.066426
-0.008280 0.028921 0.061121
0.002083 0.004413 -0.077862
-0.097745 0.023638 -0.072559
-0.048907 -0.007529 -0.079313
0.017018 0.059247 -0.015154
-0.089822 -0.036791 0.072385
-0.079924 -0.045869 -0.030023
-0.064315 0.056626 -0.072151
-0.086373 -0.049123 -0.030536
-0.010792 0.039607 -0.047948
-0.089434 -0.038848 -0.027400
-0.101301 -0.029709 -0.027240
-0.102357 -0.019479 -0.027062
-0.093878 -0.035429 -0.080755
-0.044868 -0.059911 -0.068999
0.113652 -0.023824 -0.051028
-0.096073 -0.036778 0.015614
-0.012002 -0.039910 -0.068330
-0.023069 -0.049391 0.036654
-0.040705 -0.021730 -0.081811
-0.086939 -0.012455 0.084005
-0.012170 -0.038315 0.050450
0.080685 0.037709 0.054178
-0.074700 0.051741 -0.030632
0.024759 -0.002604 -0.062038
-0.007036 0.019101 0.080818
-0.009640 -0.051366 0.027023
-0.011144 0.038952 0.054923
-0.060675 0.055074 0.018938
-0.060812 -0.035239 -0.084043
-0.036692 -0.053122 0.065599
-0.101815 0.026569 0.018488
-0.020388 0.044280 -0.028482
-0.017305 0.043797 0.015793
-0.074721 -0.026251 -0.083807
0.025839 -0.001606 0.063895
0.043357 -0.025282 0.063577
-0.002752 0.038802 0.054674
-0.102332 -0.017099 -0.072729
0.079108 -0.027664 0.056732
-0.005555 -0.012587 0.072808
0.113652 0.052431 0.018746
-0.013364 0.042344 0.050469
-0.000977 -0.016959 0.063783
0.002397 0.006677 0.063137
-0.027451 -0.052420 0.019121
-0.018568 -0.035990 -0.065898
-0.109338 -0.018545 -0.028536
0.096786 -0.034925 0.048887
-0.112571 -0.002604 -0.029766
-0.001627 -0.000604 0.075482
0.004135 0.004569 0.072291
0.015828 -0.058181 0.018875
-0.058491 0.056777 0.075095
-0.021310 -0.049072 -0.033462
0.038526 0.037781 0.060089
-0.001627 -0.000604 -0.068981
-0.097235 -0.027668 -0.066043
-0.085641 -0.051192 -0.075059
-0.000379 0.010040 0.066296
-0.021546 0.045405 0.017666
-0.007908 0.037801 0.056441
0.025443 -0.018281 0.064792
-0.105641 0.000896 0.016294
0.012507 0.056133 0.014855
0.013865 0.000896 0.063926
-0.080647 0.024405 -0.083535
0.006044 0.001146 0.061942
0.079202 -0.008497 0.061468
-0.051669 0.052367 -0.027692
0.113652 0.047792 -0.027543
-0.073068 0.052343 -0.077679
0.030182 0.038042 -0.059511
-0.021773 0.007793 0.084015
-0.085827 0.046269 0.068164
-0.010645 0.022132 0.072585
0.028909 -0.010462 -0.063118
-0.032088 -0.053987 -0.077674
-0.023077 0.011254 -0.083992
-0.011660 -0.051988 0.015880
0.097829 0.044857 -0.037768
0.113652 -0.052773 -0.014199
-0.043217 0.046594 0.072158
-0.060337 0.055138 -0.077691
0.097590 0.038090 0.047886
-0.011090 -0.035659 0.054598
-0.102791 0.024798 0.018457
-0.009834 -0.036868 0.077693
0.113652 -0.045415 -0.034298
0.004314 0.003278 0.068999
0.113652 0.045053 -0.032082
-0.111065 -0.002604 -0.027184
-0.000617 0.010955 0.066280
0.015281 0.001146 0.062828
0.028834 -0.056374 -0.029019
-0.015678 -0.043237 0.077675
0.081548 0.057702 -0.021643
-0.060361 0.052142 0.015938
-0.013674 0.042562 -0.046957
-0.108991 -0.020749 0.068665
-0.007946 0.033795 -0.056315
0.004811 -0.013561 0.063524
-0.010073 -0.050503 0.037586
0.064616 0.059831 0.019165
-0.003178 0.019759 -0.060767
-0.019857 0.044688 0.038130
0.064876 0.059813 -0.016145
-0.039365 -0.029640 0.083832
-0.098048 -0.001604 -0.082661
-0.006913 -0.034073 -0.054904
-0.054598 -0.060662 0.072155
0.006510 0.000896 -0.060174
-0.085875 -0.040251 0.065824
0.022238 0.057271 0.020219
0.001872 0.023961 -0.059103
0.029127 -0.043811 -0.046647
-0.060185 -0.056853 -0.028108
-0.106397 0.002044 -0.080957
-0.060536 0.057155 0.072156
-0.109443 0.005504 -0.066374
-0.001625 0.023215 -0.075123
-0.099660 0.024004 -0.080789
0.038612 0.009694 -0.061140
0.002350 -0.049224 0.015831
-0.017589 0.039244 0.051738
-0.003489 0.039443 0.057028
-0.085724 0.037161 0.072323
-0.036515 0.024595 0.083817
-0.003624 -0.034949 -0.052646
-0.015174 0.042274 0.049561
0.030111 0.032065 -0.061019
0.002906 0.005023 0.068884
-0.080013 -0.045819 -0.027522
-0.011932 0.036585 -0.068332
-0.001742 0.037203 -0.027427
-0.028468 -0.040615 0.081757
0.055181 0.024690 0.062363
-0.005158 0.034738 0.055741
-0.054583 -0.052347 0.018386
0.080669 0.015088 -0.057643
0.001872 0.023961 -0.059103
-0.107170 -0.018382 0.066206
-0.005564 0.023278 -0.066064
0.021867 0.042913 -0.057119
0.064532 0.057050 -0.036393
-0.048711 -0.059818 0.075094
-0.104706 0.021266 0.066100
-0.086939 -0.012455 0.084005
-0.054598 -0.056385 -0.079658
0.011149 -0.056914 0.016601
-0.080727 0.037408 0.081757
0.022067 0.053485 0.045308
-0.070504 -0.005524 -0.080252
0.064044 0.052527 0.049227
-0.082494 0.039430 0.072283
-0.022571 0.045750 -0.030533
-0.084198 0.046813 0.017320
-0.043772 -0.056083 -0.028094
-0.111291 0.007613 -0.028405
0.011726 -0.044811 -0.047727
0.005006 0.005639 -0.058890
0.113652 -0.018561 0.056034
-0.069461 -0.058762 0.072141
-0.072021 0.044792 -0.072189
-0.008737 0.031954 -0.054800
-0.004891 0.006353 0.072861
0.097629 -0.056033 -0.003941
-0.040086 -0.056349 0.017427
0.064803 0.056919 0.026200
0.006689 0.056058 -0.029862
0.014103 0.045323 -0.051773
0.013609 0.057525 -0.031137
0.113652 0.045531 -0.026137
-0.112571 -0.000604 0.018016
0.007273 -0.000604 -0.060377
0.050233 -0.002604 -0.062658
0.002948 0.012019 0.064641
-0.099031 -0.037860 0.068366
-0.037710 0.047557 0.080766
-0.024581 0.044077 0.021667
-0.047794 -0.025093 -0.081811
-0.003780 0.052954 0.033598
-0.106579 -0.000604 -0.074482
-0.086593 -0.004318 0.083895
-0.008278 -0.031181 -0.065982
0.005321 0.017770 0.060734
-0.062522 -0.055079 -0.027683
-0.046856 0.054477 0.017449
-0.076871 0.042716 0.065725
-0.000264 0.028300 -0.055508
-0.081449 -0.018583 0.083800
-0.000406 -0.012920 0.066301
0.007979 -0.050550 0.036843
0.046447 -0.000604 -0.063958
-0.009179 0.021076 0.017896
-0.054598 -0.057811 0.078572
-0.055438 -0.035824 0.084044
-0.024137 0.043789 -0.065706
0.098245 0.056114 -0.012541
0.000113 0.016666 0.067088
0.012874 -0.057506 0.016798
-0.017574 0.042041 0.052825
-0.032820 -0.047389 0.018300
-0.053607 0.006552 0.079313
-0.033727 -0.054645 -0.068073
-0.015835 0.039068 -0.047585
-0.093416 -0.032906 -0.065952
0.001388 -0.004118 -0.062594
-0.010066 -0.053801 0.027428
0.113652 -0.012957 -0.054520
-0.009639 -0.049965 0.032134
0.016419 -0.058197 0.019290
0.113652 -0.000604 -0.054760
0.030973 0.060375 0.001500
-0.035650 -0.055002 -0.029154
0.077295 0.001146 0.063562
-0.009683 -0.033209 -0.055983
-0.055438 -0.035823 -0.084044
0.011725 -0.051023 -0.039385
0.027507 -0.002604 -0.062287
-0.021063 0.044717 0.043470
-0.106819 0.016202 0.066188
-0.008938 0.033656 0.060501
-0.037930 0.050274 0.018898
-0.045990 0.054353 -0.029197
-0.007000 0.025325 -0.079692
-0.015089 -0.032059 -0.065967
0.096996 -0.001605 0.059136
0.096743 -0.053562 0.028834
-0.023224 -0.041585 -0.027448
0.004528 0.053032 -0.030764
-0.021130 0.041669 0.048333
-0.004568 -0.007129 -0.066402
-0.111434 -0.000604 -0.029004
-0.088479 -0.044561 0.079640
-0.108287 -0.012617 -0.026942
0.080483 -0.021760 -0.055722
-0.004352 -0.005742 0.072927
0.009324 -0.054475 -0.010153
0.002851 0.001146 0.066207
-0.112133 -0.002604 -0.028287
-0.015515 -0.043458 0.050207
-0.102332 -0.017100 0.066228
0.025373 -0.059287 0.014449
-0.077985 -0.048162 -0.068999
-0.104200 -0.029654 0.077722
0.079140 -0.021893 0.058888
0.007980 -0.052322 0.031943
0.113652 -0.018561 0.056034
-0.061744 -0.053116 -0.068999
-0.107410 -0.005148 -0.068999
-0.088225 0.004706 0.084041
0.043300 -0.045965 0.050992
-0.019316 -0.043445 0.065768
-0.057511 -0.009285 0.079313
-0.104451 -0.025001 0.066090
0.046102 -0.000604 0.066961
-0.063798 0.049584 0.080780
-0.028548 -0.027612 -0.083535
-0.049688 0.047654 -0.065639
0.046102 -0.000604 0.066961
0.001386 0.001146 0.065618
0.081446 0.056614 -0.028028
-0.000764 0.017092 0.077774
-0.017867 0.042276 -0.068233
-0.005110 -0.033936 0.068999
0.009628 -0.054915 0.001500
-0.001430 -0.001604 0.080639
-0.001430 -0.001604 0.080639
-0.017400 0.042167 -0.047675
-0.104944 0.026062 -0.068516
0.034745 -0.001604 0.064319
0.050858 0.001146 0.065823
-0.064312 -0.059824 -0.072151
-0.013410 0.049618 0.018955
-0.015874 -0.046329 0.043102
-0.021344 -0.046957 -0.027541
0.013039 0.052459 0.050357
0.085415 -0.000604 -0.060476
-0.025534 -0.053017 -0.072104
0.016530 0.059153 0.018893
0.029251 -0.009428 -0.060719
-0.066264 0.054207 0.018924
-0.015546 0.042604 0.041717
-0.107597 -0.001604 0.068999
-0.109597 -0.002604 -0.027983
0.021474 0.050609 0.054609
-0.108295 -0.018223 -0.027439
-0.008540 -0.026832 -0.068999
-0.009207 -0.032524 0.059464
-0.034759 -0.048586 -0.027570
0.096756 -0.051145 0.033848
-0.024474 -0.050154 -0.032322
-0.010577 0.045302 0.041936
-0.105497 0.025210 0.018444
0.004135 0.004569 -0.072291
0.113652 -0.019011 0.055911
-0.076256 -0.051887 -0.079644
-0.050668 -0.060531 -0.072157
0.004810 0.001146 -0.061060
-0.006728 0.034336 -0.055519
-0.067143 0.027782 -0.083845
-0.082662 0.048016 -0.077670
-0.050737 0.030191 0.083872
-0.018334 0.042660 -0.048366
-0.103485 -0.025862 0.015424
-0.050915 0.030220 0.083872
0.003768 -0.002604 -0.063719
0.047927 0.060603 -0.017119
-0.028666 0.040728 -0.065759
-0.059489 -0.025565 0.081811
-0.062001 0.052397 -0.065556
-0.011257 -0.040295 0.051675
0.011724 -0.053329 -0.034598
-0.111689 0.007659 -0.029903
0.064576 0.052906 -0.040217
-0.004891 0.006353 -0.072860
-0.009165 0.029277 -0.060540
-0.030288 0.018886 -0.083796
0.002936 -0.017399 0.060329
-0.010989 0.034548 0.056107
-0.025794 -0.051247 0.028093
-0.105794 -0.014332 -0.068999
-0.067143 0.027782 0.083845
-0.106341 0.023607 -0.030167
0.078967 -0.053159 0.035001
-0.112974 -0.005409 0.075271
-0.060407 0.013714 0.080252
-0.054598 0.051630 -0.080420
-0.009373 -0.022984 0.066126
0.015101 0.057852 -0.030683
0.006119 -0.002604 0.063359
0.000656 0.052673 -0.027961
-0.112571 -0.002604 0.018016
-0.009372 0.019873 0.066124
-0.054928 -0.009813 0.079313
0.000138 -0.001604 0.079880
-0.023522 0.012339 0.083986
-0.104451 -0.025001 0.066090
-0.004738 -0.032232 0.057939
-0.107159 -0.018379 0.018291
-0.106569 -0.018669 0.015298
-0.035582 -0.052742 0.018885
-0.036474 -0.053058 -0.065600
0.063362 -0.034382 -0.052487
-0.073757 -0.057469 0.072130
-0.039980 -0.056728 0.018912
-0.002556 0.016693 -0.066179
-0.004438 0.011689 0.080872
-0.045671 0.054689 -0.030681
-0.029564 -0.052483 0.017361
-0.019912 0.042187 0.038018
-0.098990 -0.037825 -0.030349
-0.049082 -0.056109 -0.079660
-0.107551 0.017141 0.015726
0.004587 -0.049993 -0.027197
-0.063798 0.049584 0.080780
0.005151 0.054606 -0.037290
0.005333 0.040513 0.055921
-0.048030 -0.006539 -0.079313
-0.087305 -0.001604 0.084053
-0.008537 0.028250 -0.065977
-0.033330 0.043197 0.065717
0.021694 0.018369 0.062723
-0.021698 0.043818 0.016020
0.014067 -0.054765 -0.031284
-0.037912 0.052530 -0.029166
-0.075946 -0.028124 -0.083977
0.010011 -0.054104 -0.028314
-0.026605 -0.020916 0.083966
-0.082694 -0.053523 0.072107
-0.109478 0.001146 -0.029298
-0.107982 -0.019152 0.015706
-0.023604 -0.009427 -0.083850
-0.026376 0.047991 0.018821
-0.011532 -0.035614 0.065905
-0.021773 0.007793 0.084015
-0.007064 -0.029248 -0.066016
0.063165 -0.056350 -0.027626
-0.084140 -0.018483 -0.083972
-0.073068 0.052343 -0.077679
-0.076149 0.051241 -0.030624
-0.076330 0.044209 -0.030050
-0.054598 0.055470 -0.077638
-0.006838 -0.019479 0.015312
-0.112571 -0.000598 -0.029766
-0.021890 -0.001604 0.084053
-0.005366 -0.032994 -0.050975
-0.086077 0.004244 0.083866
-0.004438 0.011690 -0.080872
0.112152 0.000896 0.057744
0.047074 0.000896 -0.061453
0.006468 -0.002604 -0.060244
-0.104757 -0.014897 -0.080872
-0.016533 0.043282 -0.033395
0.061208 -0.041045 0.054102
0.010810 0.056674 0.016377
0.009670 -0.056036 0.015972
-0.025304 0.038447 -0.065799
0.025710 -0.056804 0.014322
-0.016533 0.043282 -0.033395
-0.094548 0.041131 0.075059
-0.003090 0.050739 -0.041295
-0.059572 0.052669 -0.030689
-0.093119 -0.033227 -0.072447
0.030597 0.057989 -0.038501
-0.108252 -0.024912 -0.075132
-0.097674 -0.034854 0.015581
-0.103309 -0.013714 0.072788
-0.083266 -0.050947 -0.030566
0.013715 0.056153 0.019017
-0.045647 -0.034628 0.084036
-0.009373 -0.022984 0.066126
-0.109080 -0.010908 -0.066336
-0.015927 0.040903 0.046057
-0.094930 0.041539 -0.072090
-0.017400 0.042167 -0.047675
-0.061418 0.047430 0.072144
-0.017865 0.042278 0.052267
-0.104990 -0.003063 -0.066473
0.030886 -0.002604 0.065487
-0.087296 0.041671 0.015756
-0.060812 -0.035239 -0.084043
-0.035438 0.054261 0.072131
-0.035855 0.026863 0.083989
0.008159 -0.002604 -0.060215
-0.053913 -0.056096 0.018943
0.113652 -0.054682 0.006787
-0.099671 0.029682 0.018542
-0.065817 -0.054955 0.065567
-0.014448 0.037896 0.052567
0.013800 0.057459 -0.007134
-0.066860 0.009260 -0.080252
-0.102079 0.026137 -0.066014
0.002903 -0.002604 0.065728
-0.027446 0.050220 -0.075063
-0.016907 0.041587 0.043268
-0.063072 -0.059497 0.075092
-0.062141 -0.053065 -0.080782
0.064181 0.044412 -0.051061
-0.090167 -0.046415 0.018741
0.069880 0.000896 -0.060021
0.072195 0.034480 0.057714
0.097452 -0.042663 -0.038516
-0.025692 -0.050885 0.032478
-0.056241 0.006445 0.079313
-0.005878 -0.030593 -0.053434
-0.002616 -0.000604 0.067981
0.080660 0.038491 0.056694
-0.000965 0.019358 -0.063641
-0.097648 0.027325 -0.080772
-0.089723 -0.039797 -0.080746
-0.020563 -0.049261 -0.033134
0.113652 0.005165 0.058349
0.043300 -0.045965 0.050992
-0.015583 0.041446 0.051347
0.097428 -0.048156 -0.035536
-0.065025 0.056527 0.072151
0.055411 0.041389 0.057456
-0.088761 0.001457 -0.084071
-0.050802 -0.058509 0.077691
-0.041117 0.050768 -0.027664
-0.015241 -0.044178 -0.038938
-0.048343 -0.040915 0.083170
-0.060852 -0.040929 0.083168
-0.078973 -0.003572 0.081811
0.078886 -0.059203 0.013048
-0.014516 -0.042526 0.068285
-0.108217 -0.001604 -0.080458
0.005943 0.000896 -0.060373
-0.009458 0.023943 0.080789
-0.089372 0.037392 0.068999
-0.004229 0.001146 -0.072951
-0.047777 -0.050637 -0.072144
-0.092582 -0.041000 -0.065811
0.113652 0.050010 -0.014805
0.001256 -0.040358 0.012678
0.047200 0.031748 -0.058509
-0.102159 -0.022309 -0.080818
-0.084865 -0.011713 -0.083833
-0.016866 -0.046971 -0.038728
-0.020768 0.044507 0.044662
-0.074469 0.023265 -0.083808
-0.073190 -0.052894 -0.065603
0.003642 -0.000604 0.066937
0.006037 0.012733 0.063694
-0.105975 0.023448 -0.028674
-0.040236 0.047332 -0.027604
0.039584 0.057062 -0.031606
-0.009242 0.034031 0.060280
-0.088761 0.001457 -0.084071
-0.046489 -0.002921 -0.079313
0.013573 0.054675 -0.043063
0.000270 -0.020422 -0.061096
-0.012631 -0.040157 -0.077683
0.003996 0.001146 0.062713
-0.012584 0.038457 0.051529
-0.105954 0.005966 0.080920
-0.082694 -0.053523 -0.072107
0.061289 -0.017708 0.064638
-0.002163 -0.018717 -0.066200
-0.054598 -0.056415 -0.079642
-0.065817 -0.054955 0.065567
-0.015326 -0.032327 -0.072463
0.010312 -0.055921 0.015136
0.002634 0.012890 -0.072222
-0.032944 -0.012969 0.081811
-0.056764 0.050348 -0.068999
-0.104108 -0.024833 0.079712
0.021733 0.025835 0.061959
-0.028468 -0.040615 -0.081757
-0.082151 0.045047 -0.027564
-0.099289 -0.024029 -0.066107
-0.105140 0.000896 -0.066542
-0.064678 0.054528 0.077688
0.046988 0.037497 -0.059534
-0.106020 -0.030649 -0.072130
-0.017580 0.044163 0.018806
-0.092381 -0.040624 0.015681
-0.049359 -0.053354 0.080784
0.097744 0.043267 0.046717
-0.109865 -0.020775 -0.075157
-0.005305 -0.042841 -0.046743
0.009565 -0.054028 -0.028880
-0.090906 0.045045 -0.068999
-0.029129 -0.052496 0.017743
-0.050740 -0.033372 0.083871
0.113078 0.000896 0.056400
-0.023435 -0.040341 -0.065822
0.015281 0.001146 0.062828
-0.075562 -0.046527 -0.072215
0.029143 -0.039921 -0.050183
-0.057874 -0.017655 -0.080252
-0.036084 0.052328 -0.077679
-0.111902 0.012908 -0.068999
-0.020953 0.044854 -0.035449
0.025747 -0.035295 0.056165
-0.065929 -0.049813 -0.072158
-0.004020 -0.008103 0.015114
-0.072917 -0.052512 -0.027638
-0.111113 -0.000604 -0.027203
-0.022565 -0.048246 0.030564
0.001552 0.039630 -0.025984
-0.007908 0.037801 0.056441
-0.048846 0.052594 0.065553
0.047503 0.056266 -0.043267
-0.081548 0.046034 -0.079639
-0.022997 0.003532 -0.083873
0.113652 0.040778 -0.037577
-0.090167 -0.046415 0.018741
-0.022850 -0.048946 0.077669
-0.076473 -0.051540 0.065627
0.013613 0.057260 -0.028945
-0.111364 -0.002604 0.018001
-0.106602 0.016723 -0.066178
-0.016634 -0.043646 -0.039636
-0.055257 -0.017974 0.080252
-0.106857 -0.024325 0.077750
0.000500 0.012962 0.077800
-0.002895 0.023687 -0.062799
-0.018038 -0.047275 0.075056
-0.009500 0.024012 -0.080789
0.003517 0.047877 0.015864
-0.066575 0.046452 0.072161
0.004779 0.016849 0.063243
-0.019061 0.040026 0.053026
-0.023078 -0.014457 0.083992
-0.043597 -0.057542 -0.030675
0.001443 0.038341 -0.024461
-0.108930 0.008603 0.018177
-0.004770 0.034312 -0.052994
0.063735 0.030000 -0.060062
-0.084730 -0.046666 -0.027536
-0.054598 -0.060717 0.068999
-0.054598 -0.060717 -0.068999
-0.059637 -0.055841 0.065552
0.063528 0.016779 0.062646
-0.016533 0.043282 -0.033395
0.011697 0.055012 -0.026660
-0.030394 -0.053224 0.077673
-0.036811 0.050189 -0.079648
-0.070927 -0.000286 0.080252
-0.044517 -0.057735 0.077688
-0.083774 0.015890 -0.083970
-0.006671 0.030633 0.061994
-0.005713 -0.031766 -0.057837
0.055805 0.045345 -0.051945
-0.111812 0.004103 0.016596
-0.018298 -0.042517 -0.065784
0.011724 -0.053329 -0.034598
0.000946 0.000896 -0.065391
0.079140 -0.009477 0.063914
-0.087710 0.006811 0.084023
-0.044156 -0.034171 -0.084031
-0.009982 0.045575 -0.039036
0.028849 -0.052169 -0.039322
-0.072384 -0.053396 -0.079648
0.011727 -0.030845 -0.056870
0.048050 0.056994 -0.031196
-0.078452 0.049828 -0.029120
-0.078973 -0.003572 0.081811
0.096942 -0.054499 0.017725
0.061330 -0.002604 0.066243
0.015313 0.058802 0.001500
-0.105081 0.024828 0.077730
-0.076482 -0.051559 0.018865
-0.098089 0.038433 0.068999
-0.004484 -0.024463 -0.066099
0.061169 -0.048851 0.045841
-0.040705 -0.021730 0.081811
-0.073264 0.024203 0.083814
-0.023435 -0.040341 0.065823
0.004394 0.000896 -0.059679
-0.022359 0.043638 -0.027771
0.113652 0.051076 0.012553
-0.045497 0.047022 -0.072151
-0.040272 -0.056801 0.077683
0.048294 0.058099 -0.016868
0.001256 -0.040358 -0.024428
-0.055729 -0.056051 -0.065548
0.001051 -0.041633 -0.025957
-0.040131 0.045709 0.072174
0.113652 0.030589 -0.046282
-0.019185 -0.046483 -0.033575
-0.063269 0.021262 -0.081811
0.078096 -0.001604 0.061994
-0.020988 0.034999 0.065860
-0.050982 0.047712 0.072139
-0.012068 -0.027833 -0.072542
-0.034929 0.043840 0.065706
-0.058536 -0.035616 0.084046
-0.070391 -0.048538 -0.065679
-0.060675 0.055074 0.018938
-0.082161 -0.045610 -0.080747
-0.094548 0.041131 0.075059
-0.054598 -0.001604 -0.079000
-0.097016 -0.029911 -0.027244
-0.105066 0.025983 -0.030206
-0.065615 -0.031621 0.083853
0.096866 -0.008601 0.061272
0.046319 0.016859 0.066177
0.001880 -0.013833 -0.068785
-0.051650 0.022673 0.081811
0.096883 -0.013999 0.057903
-0.051650 -0.025881 -0.081811
0.100494 -0.002604 0.059832
-0.018568 -0.035990 0.072399
0.079055 -0.045128 0.043222
-0.017574 0.042041 0.052825
-0.102909 0.028616 -0.077712
-0.025068 -0.050609 0.032156
0.058028 0.000896 -0.061051
0.063761 0.035690 0.058746
-0.041929 0.050966 0.015918
0.043656 -0.001604 0.064492
0.021733 0.025835 0.061959
-0.048429 -0.055306 0.015937
-0.009638 -0.052409 0.021405
0.097504 -0.048726 -0.029769
0.097660 0.033963 -0.047741
0.022203 0.025846 -0.058997
-0.067484 -0.058677 -0.075087
0.017158 0.059397 -0.007174
0.029126 -0.056988 -0.011230
-0.061622 -0.035105 -0.084042
-0.036502 -0.027820 0.083817
0.113652 -0.032518 -0.046356
-0.072902 0.014613 0.081811
0.006187 -0.004055 -0.061473
0.005864 0.017806 -0.057816
0.047695 0.057003 0.034219
-0.021316 -0.044999 0.044057
0.013625 0.048184 0.052062
0.063706 0.041118 0.059157
-0.067426 0.046193 -0.072165
0.098245 0.056114 -0.012541
0.007980 -0.052322 0.031943
0.043487 -0.052443 0.036129
-0.111065 -0.000604 -0.027184
-0.045497 0.047022 -0.072151
-0.032532 -0.048641 0.080755
-0.009373 -0.022984 0.072626
0.005247 0.045796 -0.026093
0.014013 -0.001604 0.062728
-0.011147 -0.001604 0.082661
-0.019557 0.040854 0.047471
0.004694 -0.004002 0.065287
-0.042603 -0.049655 0.072161
-0.100147 -0.032196 -0.065964
-0.054598 -0.035828 0.084042
0.022317 0.059933 0.001500
-0.022435 -0.049791 -0.029997
-0.048343 0.037721 -0.083168
0.038930 0.054070 -0.048153
0.063795 0.016758 -0.059622
-0.012515 0.048063 0.016101
-0.015946 0.040640 0.055413
-0.110663 0.012273 0.018229
0.102164 -0.002604 0.059547
-0.039893 0.029212 0.084010
-0.101599 -0.018987 0.072696
-0.010261 -0.040518 0.050968
-0.017979 -0.045755 -0.042221
-0.022602 0.001111 -0.083895
-0.001563 -0.002604 0.014616
-0.049382 -0.055405 -0.027689
-0.011547 -0.030533 0.080772
-0.000463 -0.025349 0.068999
-0.113116 -0.001604 -0.075257
0.113652 -0.046268 -0.028611
0.113652 -0.057387 0.005046
0.004245 0.003272 0.072303
0.095548 0.000896 0.060598
-0.042052 -0.030990 0.083845
0.073706 -0.002604 -0.062039
-0.035047 0.013088 -0.081811
-0.111051 -0.000604 0.015456
-0.088771 -0.004572 -0.084072
-0.018345 -0.046045 0.044695
0.019524 -0.002604 -0.062840
-0.004738 -0.032232 0.057939
-0.112482 0.006858 0.075233
-0.040131 0.045709 0.065673
-0.033727 -0.054645 0.068073
-0.041711 0.055469 0.075087
-0.105096 -0.001604 -0.066498
0.001900 0.010540 -0.068787
-0.053757 0.032616 -0.084044
-0.093903 0.030489 -0.029810
-0.001627 -0.002604 -0.068981
0.063795 0.016758 -0.059622
-0.030826 0.022731 -0.083968
0.003376 -0.002604 -0.068981
0.071206 -0.000604 -0.062329
-0.019316 -0.043445 0.065768
-0.093974 0.036509 -0.065833
-0.009871 0.034323 0.061661
-0.090906 -0.048252 -0.068999
-0.015326 -0.032327 0.072463
-0.034664 -0.048546 -0.030070
-0.000204 0.017541 0.068665
