0.046704 -0.029185 0.012041
0.022615 0.022166 0.017454
0.029060 -0.037205 0.016631
0.023170 0.035909 -0.005606
-0.034942 0.020869 0.009104
0.019174 0.036848 -0.000447
0.030075 0.032261 0.042395
-0.037612 -0.011984 -0.000918
0.008843 0.037049 -0.000207
0.034421 -0.032335 0.033927
0.016598 0.036159 -0.005993
-0.034942 0.020869 0.009104
0.047893 -0.026780 0.010918
-0.035031 0.020899 0.012854
0.054231 -0.006559 0.028448
0.048009 0.005033 0.042543
0.015306 0.036718 0.004206
0.004131 -0.036636 -0.005729
-0.038346 -0.007314 0.003076
0.009831 -0.034309 -0.006189
0.009063 0.037001 0.003848
-0.052819 -0.019558 -0.042396
0.046588 -0.029093 0.011255
0.053225 0.013439 0.022355
0.025923 -0.036961 0.001262
0.050616 0.005633 0.034463
0.045899 0.030170 0.013525
0.007246 -0.036737 -0.000153
0.005055 -0.035036 -0.007248
0.049988 -0.015819 0.021810
0.007147 0.034572 -0.005045
-0.010563 -0.055491 -0.040678
-0.004185 0.039001 0.001218
0.005981 -0.036879 0.002745
-0.034591 -0.016515 0.001911
0.022474 0.037206 -0.003953
-0.036627 -0.017027 0.008773
0.033966 0.036837 0.016970
0.052306 0.003228 0.021812
0.056445 -0.001443 -0.041131
0.043612 0.024502 0.041790
0.036007 0.036293 0.011678
0.036358 -0.036198 0.017447
0.051955 0.015374 0.030548
0.050617 0.005881 0.034237
0.050612 0.012118 0.029605
-0.003751 -0.036843 -0.008348
-0.034263 0.016255 0.011360
-0.052819 -0.019558 -0.042396
0.039221 -0.029767 0.042457
0.042332 0.023093 0.034652
0.035437 -0.031023 0.042439
0.043800 -0.028919 0.009757
0.048628 0.025545 0.022338
-0.022257 0.034045 0.011460
0.048925 0.011614 0.009800
0.015860 -0.034693 -0.004045
-0.003751 -0.036843 -0.008348
0.016183 0.037168 0.004654
-0.002915 0.037284 0.005684
0.006125 0.037418 -0.001556
0.030766 -0.034459 0.024515
0.046097 0.028067 0.030962
0.014939 0.036138 -0.005022
0.042079 -0.037739 -0.041250
0.027028 0.023091 0.042369
0.036357 -0.036198 0.017482
0.023396 0.037164 0.001873
0.024070 -0.037804 0.002735
0.005785 0.038114 0.005197
0.025095 0.036781 -0.000398
0.022594 -0.036207 0.005896
0.040753 -0.029540 0.033994
0.036363 0.036160 0.017460
-0.002716 0.036691 -0.003594
0.039540 -0.030234 0.033980
0.054992 0.003994 0.013600
0.010059 -0.036666 0.000700
-0.005339 -0.037325 0.001971
0.052311 0.003250 0.017578
0.015303 0.034437 -0.007733
0.002028 -0.037827 -0.006360
0.039580 -0.032055 0.018593
0.027979 0.036550 0.017101
0.044950 0.033407 -0.041735
0.004439 -0.038028 0.002380
0.050473 0.006369 0.040157
0.005496 -0.038074 0.001770
0.050710 0.006060 0.034102
-0.033515 -0.019821 0.016866
0.011318 -0.038096 0.002906
0.030575 -0.034716 0.040302
0.019645 0.037422 -0.005799
-0.004048 -0.038400 -0.001430
-0.004185 0.039001 0.001218
0.051596 0.006705 0.029610
-0.004472 -0.037600 0.002609
-0.001542 -0.037979 0.004891
0.011118 0.034431 -0.005970
0.011146 -0.037605 0.004247
0.038629 -0.029347 0.042164
-0.055457 -0.000651 -0.040068
-0.038304 -0.007401 0.007864
0.022579 0.037293 -0.004618
0.030267 -0.034396 0.024499
0.037610 0.022873 0.039066
0.001932 -0.037827 0.005180
0.009601 0.037491 0.009917
0.048292 0.013865 0.039219
0.048817 0.013863 0.038550
-0.034650 -0.014648 -0.000386
0.008193 0.038214 0.000427
0.044887 0.027763 0.009766
0.031075 -0.030477 0.042325
0.013247 0.036958 -0.001391
0.022620 -0.036732 0.005582
0.027317 -0.002111 0.042260
0.033751 -0.036379 0.010219
0.024390 -0.036466 -0.000909
0.051310 0.009269 0.028031
0.027492 -0.002507 0.041882
-0.004963 0.038787 0.003237
0.044619 0.021661 0.041815
0.024315 0.036036 -0.003765
0.038755 -0.029309 0.042190
0.000997 0.056464 -0.041591
0.029189 0.037241 0.016492
-0.036874 -0.016602 0.012741
0.005994 -0.038053 -0.001357
-0.001297 -0.038347 -0.005216
0.025432 0.021875 0.028664
0.001010 -0.035613 -0.009049
0.041893 0.023373 0.042349
0.033870 0.000546 0.041935
0.026188 0.015690 0.040112
0.037600 -0.000019 0.040207
0.044508 0.024758 0.034359
0.033964 0.036832 0.017239
0.051526 -0.009735 0.017572
0.027768 0.024670 0.028684
0.045815 0.027223 0.031923
0.047106 0.005075 0.040286
0.026049 0.027588 0.017606
0.007766 0.038264 -0.000006
0.007087 0.037568 -0.001393
0.050878 -0.007875 0.040067
0.051643 0.012000 0.040167
0.050652 0.005333 0.040109
0.000225 -0.038277 0.004401
0.031628 -0.037316 0.016437
0.040901 0.028494 0.042484
0.004928 -0.036725 -0.004922
0.041320 0.001788 0.039161
0.039342 0.024388 0.042471
0.029839 0.037415 0.016155
0.008898 0.034541 -0.005284
-0.037982 -0.011670 0.016680
0.049044 -0.022611 0.040167
0.024625 -0.037016 0.004849
0.051650 0.022501 -0.039669
0.048710 0.004610 0.032943
0.027848 -0.029483 0.042048
-0.011812 0.055181 -0.041891
0.007289 0.038500 0.003181
0.006856 0.037921 0.005178
0.013687 -0.037125 -0.001493
0.006047 0.037001 0.005594
0.044445 0.023463 0.041766
0.025223 -0.036621 -0.000120
0.001092 -0.037733 0.001173
0.050722 0.006088 0.034088
0.025930 -0.036589 0.001278
0.052084 -0.006547 0.017576
-0.002984 -0.038045 -0.005259
0.027844 0.037289 0.010267
0.052914 -0.012224 0.034541
0.025932 0.035782 -0.005963
-0.019130 -0.032074 -0.039766
0.009528 0.036773 0.000751
-0.006214 0.038148 0.002700
0.031835 0.032980 0.033872
0.025364 0.023104 0.042028
-0.036469 -0.017493 0.009092
0.046072 0.021192 0.042318
0.005417 -0.036600 -0.004540
0.007815 0.036915 0.005152
0.019920 0.052854 -0.041434
-0.004309 0.037106 -0.002702
-0.028993 0.027788 0.012904
0.053847 0.003824 0.031470
0.050545 -0.014578 0.012063
0.012683 -0.037166 0.005245
0.045636 0.025099 0.029597
0.007279 0.054977 -0.039547
0.029374 -0.037326 0.016442
0.046919 0.018741 0.038534
0.046172 -0.025821 0.009777
0.048439 0.011351 0.039220
0.022617 -0.036671 0.005582
0.049613 0.011982 0.041856
0.026717 0.023061 0.028675
0.049056 -0.026982 -0.039332
-0.002889 0.037111 -0.001844
0.050554 0.004473 0.041848
0.042609 0.029616 0.021684
0.001746 -0.037364 0.005344
-0.002984 -0.038045 -0.005259
0.013266 0.036369 -0.002317
0.046988 0.024866 0.032032
0.041309 0.000569 0.040238
-0.036896 0.016577 0.011338
0.000478 0.037536 0.009635
0.019749 0.052386 -0.041944
0.017015 0.035421 -0.007157
0.034323 0.034836 0.009679
0.028479 0.034305 0.040213
0.006576 -0.037172 -0.001464
0.020939 -0.051959 -0.041934
0.004335 -0.035163 -0.007545
0.039443 -0.034609 0.010732
0.013847 -0.037633 0.005358
0.052393 -0.005449 0.042265
0.048526 0.019789 0.041727
0.014487 -0.038223 0.004544
-0.005000 -0.038131 0.001097
0.045969 0.029039 0.028969
-0.036610 -0.016544 0.002001
0.029230 0.031926 0.036716
-0.004963 0.038787 0.003237
0.023081 -0.036293 0.005703
0.008970 0.037983 0.001167
0.026247 -0.035972 0.003776
-0.016407 -0.031568 -0.039744
0.055762 -0.009010 -0.041331
0.023569 -0.035965 -0.001767
0.000020 -0.036909 -0.006696
0.025909 0.025279 0.041135
0.048552 0.008428 0.038548
0.055475 -0.010469 -0.041139
0.029448 0.034980 -0.039363
0.013608 -0.038084 -0.000823
0.020725 -0.051479 -0.039436
0.022608 0.036551 -0.005305
0.035152 0.036519 0.017789
-0.013375 -0.037259 0.011533
0.033136 0.031669 0.042420
0.019411 0.035007 -0.008529
0.042342 0.023217 0.042345
0.012000 0.035814 -0.003596
-0.002497 0.039131 0.002780
0.042374 -0.032990 0.022289
0.008050 0.038233 0.003611
0.051606 -0.008205 -0.039180
0.053073 -0.012964 0.028455
0.033614 -0.035755 0.009804
-0.000411 -0.036821 -0.006795
0.023199 0.023239 0.017582
0.049065 0.006975 0.042343
0.037413 -0.042179 -0.041648
0.018043 0.037462 0.004422
0.048643 -0.025746 0.017548
-0.036603 -0.017108 0.008910
0.004079 -0.037397 -0.005456
0.027217 0.008870 0.039044
0.046360 0.019505 0.032719
-0.005918 0.038134 0.003485
0.050590 0.006201 0.034316
-0.029494 0.028275 0.012900
-0.024906 -0.032213 0.009188
0.021243 -0.038132 0.000219
-0.022254 0.034018 0.012960
0.012576 -0.038129 -0.000266
0.024145 -0.037602 0.004159
0.019816 0.052567 -0.041905
-0.037349 -0.015377 0.003334
-0.025711 -0.030840 0.012931
-0.004877 0.037898 -0.000887
0.019057 0.036572 0.005598
0.018790 0.034883 -0.008530
0.018302 0.037117 0.002918
0.034284 -0.032082 0.009678
0.048907 0.018106 0.028033
0.024902 -0.021391 0.039852
0.025631 -0.036974 0.000488
-0.004337 -0.038478 -0.000642
0.025564 0.049777 -0.039527
0.050407 0.022520 0.012062
0.023607 0.037245 0.002615
0.024708 -0.024616 0.017595
-0.032901 0.007232 0.007717
-0.026082 0.031293 0.009178
0.013000 0.036505 0.000953
0.018724 0.037179 0.009909
0.027893 0.004928 0.040126
0.049233 0.022664 0.030530
0.000350 -0.037937 0.002864
0.047917 0.019026 0.030103
-0.002072 0.038692 -0.001057
0.014447 -0.037998 -0.000922
0.011536 -0.037907 0.004130
0.024358 0.022228 0.042020
0.037485 -0.042274 -0.040279
0.050089 0.012380 0.030065
0.021841 0.035970 -0.006055
0.051891 -0.009091 0.042261
0.050636 0.021853 0.012074
-0.003643 0.038977 0.003577
0.004369 -0.035160 -0.007528
-0.024515 -0.029397 0.011441
0.018043 0.037462 0.004422
0.025053 -0.021542 0.033605
-0.033136 -0.007518 0.008119
0.029678 0.033723 0.023041
0.027849 0.036058 0.009625
0.001905 -0.036209 -0.007428
0.049593 0.015300 0.029761
0.041106 0.038554 -0.041617
0.008574 0.038173 0.001197
0.016538 0.037463 0.003551
0.001140 -0.036861 -0.006687
-0.037006 0.014982 -0.000171
0.005437 0.038355 -0.000996
0.049157 0.011544 0.032484
-0.004860 -0.037125 -0.006959
-0.004850 0.038266 0.004605
0.046363 0.005623 0.039138
0.043353 0.027469 0.042418
0.026504 -0.029028 0.039909
0.001905 -0.036209 -0.007428
-0.016817 -0.053923 -0.040730
-0.002804 0.038000 -0.001614
-0.041236 0.038441 -0.041941
0.013847 -0.037633 0.005358
-0.032870 0.007357 0.007730
0.033970 0.000807 0.040177
-0.004591 0.037262 -0.001465
0.049233 0.022664 0.030530
0.046346 0.018485 0.039138
0.023737 0.035881 -0.005810
0.013561 -0.038084 0.004836
0.024315 0.036036 -0.003765
0.022901 -0.051562 -0.040400
0.050214 0.022453 0.017561
0.055278 0.010193 -0.041610
0.009711 0.036779 0.002174
0.025794 -0.026575 0.017481
0.044231 0.031637 0.017511
-0.020394 0.034893 0.009225
0.047918 0.005611 0.034609
-0.029414 -0.048174 -0.041843
-0.010497 -0.055208 -0.042156
0.027499 0.018995 0.042308
0.047564 -0.026610 0.013539
0.015230 0.036567 0.004293
0.029807 -0.032257 0.042392
0.047530 -0.026576 0.010503
0.023402 0.035805 -0.006954
0.008244 0.038014 0.004102
0.009868 0.036664 0.002186
0.026774 0.011978 0.038976
0.006733 0.036214 -0.001915
0.041863 0.024447 0.034614
0.010111 -0.036700 0.000718
0.039240 -0.029745 0.042458
-0.034696 0.016953 0.008562
0.039324 -0.029432 0.042471
0.024847 0.036792 -0.002145
0.048525 -0.023766 0.040163
0.020756 0.035971 -0.006392
-0.036728 -0.042780 -0.040895
0.022450 -0.037258 0.005429
0.041582 -0.032794 0.028393
0.032053 -0.034671 0.018523
0.030860 -0.037308 0.010656
-0.007003 0.037269 -0.003377
0.046168 -0.028771 0.010437
-0.034651 -0.014943 -0.000205
0.052598 0.002522 0.042241
0.045969 0.029039 0.028969
0.047061 -0.020980 0.040035
0.014060 0.035620 -0.005321
-0.011624 0.054221 -0.039704
0.027907 0.025370 0.039877
0.004977 0.038617 -0.000635
0.004402 0.034978 -0.004424
0.031625 0.002882 0.039016
0.016327 -0.038425 0.003490
0.048552 0.008428 0.038548
0.049052 0.017017 0.042343
-0.022644 -0.051212 -0.042296
0.009605 -0.036571 0.009474
0.050092 0.004823 0.041844
0.049251 0.003414 0.033523
0.026525 -0.031074 0.017397
-0.004500 0.037441 -0.001306
0.050612 0.006329 0.034431
0.019654 0.037395 -0.005449
0.050660 0.017702 0.031592
0.038446 0.031687 0.027804
0.045795 0.026819 0.032116
0.050408 0.015897 0.009812
0.050216 -0.019889 0.040178
0.049194 0.003246 0.037803
0.045308 -0.026317 0.042221
-0.037898 -0.007324 -0.000921
0.023119 -0.036148 0.006059
0.007578 0.038286 -0.000174
0.029454 0.020847 0.041898
0.049721 0.014881 0.029765
-0.022254 0.034018 0.012960
0.043595 0.002882 0.039115
0.023081 -0.036293 0.005703
0.029249 -0.037322 0.016406
0.050619 0.005678 0.034336
-0.000898 -0.036954 -0.006572
0.023274 0.037234 0.002380
0.038866 -0.029799 0.042464
-0.025982 -0.031140 0.015949
0.024876 -0.025210 0.017351
0.034251 0.001659 0.039321
0.006989 0.036359 -0.001606
0.046119 0.029769 0.017527
0.040449 0.037955 -0.039272
0.025189 -0.024811 0.039898
0.019499 0.037067 -0.003912
0.016133 0.037551 0.010625
0.000972 0.055942 -0.039731
-0.056154 0.005779 -0.041056
0.027274 0.008626 0.039263
0.029112 0.021216 0.042387
-0.008659 -0.037665 0.011572
0.003772 -0.037011 0.004880
0.002249 -0.055942 -0.039720
0.048418 0.004150 0.034565
0.000978 0.035661 -0.004233
0.047042 0.006536 0.039144
0.050545 -0.014578 0.012063
0.051782 0.009877 0.009824
-0.008640 -0.037569 0.009322
0.016391 0.037429 -0.005400
0.043029 0.023666 0.032532
0.025131 -0.021532 0.024978
0.020146 0.035595 -0.007331
-0.004150 -0.056211 -0.041993
0.047624 0.022121 0.032734
0.046239 0.028137 0.030458
0.051814 -0.000019 0.034248
0.041970 0.024947 0.033711
0.048647 0.017765 0.029873
0.014707 -0.038215 -0.000554
0.034422 0.032298 0.033927
0.018714 0.036927 0.001319
-0.004569 0.037694 -0.001149
0.025048 -0.025083 0.017475
-0.004091 0.038818 0.004034
0.022617 -0.036671 0.005582
0.044592 0.024207 0.040079
-0.002710 -0.037693 -0.005515
0.041183 0.038627 -0.041451
0.007828 0.036145 -0.002124
0.013609 -0.036708 0.005656
0.005077 -0.037353 -0.004645
0.020484 0.035198 -0.008559
0.051756 0.010683 0.009823
0.003697 -0.037115 0.004740
0.050858 0.022157 -0.039186
-0.018656 0.053242 -0.040745
-0.029528 0.047761 -0.042314
0.022943 0.036536 -0.005107
-0.034636 0.012662 -0.000894
-0.004780 -0.037195 -0.004197
0.054992 0.003994 0.013600
0.003863 -0.036974 0.005043
0.030768 -0.036403 0.009761
0.022507 0.004857 0.017454
0.032340 -0.046155 -0.039829
0.052277 -0.021400 -0.041359
-0.035045 0.020914 0.011354
0.004928 0.034994 -0.004339
-0.034884 0.044208 -0.042247
0.038868 0.001207 0.039294
0.023991 0.021162 0.042016
0.051810 -0.021216 -0.039309
0.002641 -0.037504 0.005057
0.050302 0.017561 0.041001
-0.013382 0.037192 0.013033
-0.011812 0.055181 -0.041891
-0.056147 -0.000659 -0.042535
0.007084 -0.034584 -0.006743
-0.005341 0.038777 0.001848
0.030076 -0.032299 0.042395
0.039245 -0.029674 0.042459
0.030896 -0.047240 -0.041343
0.034000 -0.034253 0.018543
0.047231 0.027422 0.028427
0.050544 0.006074 0.034471
0.044887 0.027763 0.009766
0.015705 0.036094 -0.005633
0.043901 0.023022 0.032065
0.055180 -0.000019 0.012102
0.034033 -0.034288 0.016043
0.013886 0.036602 0.002724
0.031670 0.037264 0.011276
0.002266 -0.056307 -0.040079
-0.010528 -0.055368 -0.042045
0.011892 -0.037130 0.005013
0.054524 0.002990 0.028774
0.050504 -0.011606 0.034254
0.025131 -0.021532 0.024978
0.050089 0.012380 0.030065
-0.042907 -0.035939 -0.040095
0.044853 0.024179 0.034344
0.026615 -0.031059 0.017488
0.030276 0.037443 0.016088
0.030556 0.002304 0.041907
0.053954 -0.006161 0.034538
0.020406 0.036339 -0.006300
-0.022613 -0.007499 0.016957
0.023170 0.035909 -0.005606
0.044122 -0.027544 0.042218
0.008278 -0.036125 -0.003131
0.046107 0.028743 0.029580
0.038838 -0.029604 0.042434
0.025411 0.014022 0.042319
0.038866 0.001222 0.039217
0.022500 0.035994 -0.005704
0.004439 -0.038028 0.002380
0.047156 0.028245 0.017535
0.053077 0.004248 0.032156
0.025470 0.021886 0.021669
-0.054641 0.012035 -0.040192
0.007335 0.036567 -0.001366
0.009723 -0.034529 -0.005604
0.047828 0.005671 0.042025
-0.036877 0.016566 0.012761
0.008599 0.036440 -0.001055
0.046417 -0.024851 0.042222
-0.032388 -0.024850 0.009126
-0.034660 -0.021564 0.015489
0.049242 -0.019509 0.009802
0.046081 -0.032689 -0.040208
0.022519 -0.035613 -0.003605
-0.027812 0.027965 -0.039838
0.039543 0.034791 0.011197
0.031437 0.001641 0.041915
0.002269 -0.055965 -0.042089
0.006005 0.038760 0.002418
0.050876 0.005459 0.034058
0.036052 0.036255 0.017656
0.013647 0.054292 -0.041995
0.024664 0.036281 0.002029
0.041898 0.025499 0.034537
0.049072 0.014766 0.030731
0.023728 -0.037640 0.004449
0.054465 0.006808 0.022353
0.046704 0.029148 0.012041
0.054921 -0.004027 0.012110
0.029696 -0.033863 0.021792
0.025967 0.027120 0.017605
0.052405 0.008724 0.032070
0.017297 -0.034843 -0.003808
0.042148 0.023364 0.037745
0.036626 0.023974 0.041958
0.013853 0.036206 -0.003735
0.049614 -0.018580 0.009806
-0.003752 -0.038452 0.001753
0.046168 -0.028771 0.010437
0.036346 -0.036201 0.017503
0.013352 -0.035969 -0.001804
-0.008659 -0.037665 0.011572
0.021841 0.035970 -0.006055
0.014857 -0.053982 -0.039616
0.028297 -0.036695 0.017225
0.027131 0.032715 0.037256
0.005547 -0.036710 -0.004209
0.015306 0.036718 0.004206
0.031608 -0.037313 0.016822
-0.034622 -0.017493 0.009107
0.042176 0.026450 0.039995
0.016496 0.035397 -0.007020
0.013863 -0.038454 0.002483
0.013561 -0.038084 0.004836
0.004351 -0.038100 -0.003947
0.044617 0.002300 0.042024
0.012739 -0.037358 -0.001346
0.043004 0.022252 0.034630
0.025048 -0.035179 -0.039400
0.052592 -0.000021 0.009830
0.045815 0.027223 0.031923
-0.000879 -0.036847 -0.006749
0.017258 0.037162 0.002450
0.030131 -0.033802 0.029631
-0.006103 0.038322 0.002690
0.036178 0.042695 -0.039439
0.053528 0.016361 -0.039295
0.045842 0.030108 0.012034
-0.004031 0.037410 -0.001502
0.021388 0.036944 -0.005939
0.029139 -0.031637 0.039887
-0.004877 0.037898 -0.000887
0.053789 0.011922 0.012100
-0.016769 -0.053803 -0.042097
0.025675 -0.026154 0.017603
-0.003835 0.038043 0.005207
0.050567 0.005870 0.034354
0.031379 0.046974 -0.041339
0.010708 -0.037624 0.003601
0.029420 0.032005 0.039889
-0.034697 -0.016993 0.008633
0.014645 0.037546 0.001074
0.049694 0.019506 0.031974
0.022665 -0.036441 -0.001418
-0.006836 -0.037252 -0.006095
0.046504 -0.024290 0.021793
0.012703 0.035732 -0.004105
0.026146 -0.036580 0.002111
0.009059 0.037086 0.000100
0.007235 -0.034695 -0.006461
0.020731 0.035867 -0.006569
-0.004913 0.038789 0.003312
0.041342 -0.031220 0.009737
0.050757 0.014738 0.009815
0.045702 0.029989 0.022290
0.046144 0.027961 0.030893
0.050912 0.005137 0.040111
0.049292 0.016287 0.029752
0.000523 -0.037759 -0.002422
0.037143 -0.041896 -0.039431
0.030267 -0.034396 0.024499
-0.032901 0.007232 0.007717
-0.011727 0.054705 -0.039836
-0.002915 0.037284 0.005684
0.011669 -0.037582 0.004742
0.048965 0.008284 0.041851
0.053068 0.012947 0.028455
0.051402 0.014301 0.040165
0.027369 0.035522 0.017404
0.026404 -0.031096 0.017363
0.010187 -0.037145 0.001983
0.044124 0.031574 0.022276
-0.036874 -0.016602 0.012741
-0.001376 0.036833 -0.002019
0.043976 0.027221 0.042158
0.025571 0.013995 0.042214
0.052640 -0.001860 0.042268
-0.010541 -0.055354 -0.040185
0.048871 0.017884 0.029594
0.027710 0.018851 0.041884
0.014391 -0.037990 0.004954
0.029710 -0.034065 0.017348
0.051050 0.019420 0.028749
0.027391 0.026834 0.042045
0.052843 -0.000019 0.009832
0.001784 -0.037111 0.005613
0.020803 0.035864 -0.006561
-0.011624 0.054221 -0.039704
0.027687 -0.002217 0.041980
0.018719 0.037553 0.010730
-0.039697 0.039940 -0.042287
0.018730 0.036202 -0.006461
-0.029504 -0.028333 0.011399
0.022672 -0.036210 -0.001475
0.027662 0.016272 0.039125
-0.022644 -0.051212 -0.042296
0.028215 0.006557 0.039053
0.027295 0.019136 0.042371
-0.007288 -0.037274 -0.005978
-0.016092 0.036264 0.016031
0.023272 -0.023355 0.017583
0.014754 0.036921 0.003584
0.031593 0.022413 0.041916
-0.037519 0.014172 0.016467
0.011609 -0.038098 0.000530
0.048241 0.006712 0.033363
0.005323 0.038587 0.004468
0.056419 -0.001442 -0.040122
0.040771 0.030810 -0.039270
0.052702 0.002873 0.042158
0.047638 0.022041 0.032923
-0.004415 0.038797 -0.000100
-0.036728 -0.016088 0.000971
0.036327 -0.036211 0.017351
0.021924 0.036162 -0.005835
-0.032389 -0.024521 0.015896
0.022845 0.036234 -0.005222
0.052053 -0.012804 0.041396
0.002234 -0.036705 -0.006608
0.054293 0.003475 0.030202
0.028436 0.036917 0.016856
0.030513 0.035649 0.034379
0.025189 0.025660 0.017353
0.006947 0.036530 -0.001488
0.010635 -0.036810 0.000092
-0.026161 0.031367 0.011427
0.047286 0.004937 0.042046
0.049194 0.003246 0.037803
0.049599 0.014511 0.042281
0.022981 0.022655 0.028346
0.033986 -0.036864 0.017252
0.022865 0.036180 -0.005250
0.050216 -0.019889 0.040178
-0.002687 -0.038407 -0.004324
0.054011 0.016504 -0.041345
-0.033136 0.007482 0.008119
0.025934 0.027126 0.017482
0.006072 -0.037309 -0.003159
0.027736 -0.036076 0.017424
0.009119 0.037092 0.000225
0.030561 0.034686 0.040301
0.028539 0.036871 0.016966
0.045624 0.027105 0.032315
0.003268 -0.038079 0.003441
0.002571 0.036488 -0.001746
0.027831 0.035032 0.011875
0.007895 -0.034630 -0.006227
-0.006870 0.037347 0.001529
0.003690 0.035027 -0.004682
0.021118 0.037354 0.004568
0.021056 0.036664 0.005246
0.043125 0.030884 0.034457
0.054467 -0.006824 0.022353
0.050656 0.005735 0.034219
0.052048 -0.003138 0.028027
0.035761 0.032087 0.042163
0.048171 0.014743 0.009794
0.023499 -0.037828 0.003803
0.044584 -0.023545 0.009764
-0.003395 -0.038438 -0.003428
0.026330 -0.026323 0.041139
0.045972 0.003260 0.042281
0.054992 -0.004031 0.013600
0.012325 -0.038317 0.002638
0.042422 0.023380 0.042446
0.038438 -0.029368 0.042161
0.007109 -0.036742 -0.000202
0.050633 0.006131 0.034198
-0.004899 0.038091 -0.000935
0.043511 0.021855 0.038506
-0.026161 0.031367 0.011427
0.025692 -0.036600 0.000357
0.048878 -0.016139 0.040050
0.029417 -0.032343 0.037262
0.046787 0.020516 0.030565
0.051730 0.009211 0.032646
0.030687 0.034049 0.027691
0.043010 0.027972 0.032997
-0.000494 -0.037597 -0.006424
0.028231 0.026571 0.039879
0.030246 -0.037472 0.016113
-0.049928 -0.025295 -0.042522
0.014751 0.037608 -0.002633
-0.017940 -0.035933 0.015030
0.022941 -0.023336 0.017335
0.023536 -0.035907 -0.002324
0.049379 -0.027158 -0.039688
0.049988 0.015782 0.021810
0.000482 0.037410 0.009412
0.012900 0.036500 0.000397
0.033893 0.023394 0.040176
0.024779 0.035832 -0.005996
0.004451 -0.035150 -0.007487
-0.006358 0.037962 0.001841
0.004554 -0.034847 -0.008161
0.022666 -0.036925 -0.001403
0.000251 -0.037564 -0.006588
-0.029692 0.048007 -0.040836
0.047941 0.008626 0.039434
0.041899 0.028729 0.034018
-0.032471 -0.024890 0.012875
0.004604 -0.035946 -0.006446
0.045258 -0.032111 -0.039232
0.023113 0.035912 -0.005581
0.046705 0.023061 0.029578
-0.037459 -0.014425 0.011330
-0.032613 0.007482 0.005374
0.009466 0.037464 0.001114
0.050656 0.005735 0.034219
0.013886 0.036602 0.002724
0.012335 -0.038317 0.001354
0.047878 0.005666 0.042226
0.000173 -0.037903 0.005298
0.022409 0.022222 0.017330
0.046104 -0.032699 -0.041217
0.022907 0.036878 -0.005044
-0.010413 -0.036624 -0.039694
0.045508 0.028645 0.035862
0.050772 0.005721 0.034080
0.024946 -0.021083 0.033606
-0.003766 -0.037767 0.003455
0.029417 -0.032343 0.037262
0.032053 0.034633 0.018521
0.032779 -0.033880 0.041380
-0.008671 0.037598 0.013072
0.019552 0.037331 0.004342
-0.036635 -0.016993 0.008616
0.049505 -0.027225 -0.040180
0.046360 0.019505 0.032719
0.046675 -0.022582 0.034245
0.042869 0.023231 0.042394
0.051202 -0.019093 0.028456
0.045236 -0.025981 0.027987
0.040847 0.038310 -0.041769
0.049606 0.009483 0.042281
0.030547 0.002273 0.040148
0.042785 0.025185 0.042314
0.039114 -0.029561 0.042432
0.012997 0.036299 -0.002125
0.040108 0.039664 -0.040258
0.024875 0.018928 0.039851
0.003460 -0.038139 -0.004782
0.048692 -0.024855 0.028448
-0.036877 0.016566 0.012761
0.041231 0.000806 0.040237
0.034022 -0.036861 0.016982
0.037994 0.035566 0.017459
0.043153 0.027993 0.031870
0.023131 -0.037846 0.000000
0.017258 0.037162 0.002450
0.051596 0.006705 0.029610
-0.000704 -0.037986 -0.003798
0.035080 0.036594 0.011577
-0.032881 0.007232 0.007621
0.051224 0.009137 0.029608
0.054102 0.003886 0.030407
0.054623 -0.000008 0.028445
0.025117 0.036085 0.001015
0.013743 0.036504 0.002809
-0.029693 0.048022 -0.041845
0.037621 -0.000269 0.037707
-0.055075 -0.012136 -0.041047
0.046302 -0.024591 -0.039224
0.023846 -0.023918 0.017465
-0.055872 -0.007078 -0.040561
0.041845 0.025308 0.042492
-0.036463 -0.016317 0.016580
-0.005874 0.037941 0.000095
0.011620 -0.037407 -0.000798
0.045529 0.028822 0.034478
0.048998 0.006314 0.042322
-0.054808 -0.013432 -0.042247
0.016555 0.037556 -0.005120
-0.026154 -0.031380 0.012927
0.044471 0.024376 0.040058
-0.036635 0.016957 0.008616
0.011351 -0.038097 0.002988
0.022727 -0.022501 0.017455
0.045702 0.029989 0.022290
0.024291 -0.036279 -0.001042
0.016544 0.036050 -0.006099
-0.047839 0.029979 -0.041996
-0.008702 -0.036593 0.016810
0.050619 0.005678 0.034336
0.054992 0.003994 0.013600
0.012347 0.035766 -0.003841
0.003697 -0.037115 0.004740
0.010628 -0.037450 0.000342
-0.034593 -0.016693 0.002898
0.050738 0.014750 0.041745
0.010752 -0.037942 0.001983
0.044135 -0.031601 0.022276
0.049742 0.002917 0.042558
0.050567 0.005870 0.034354
-0.001836 -0.037457 -0.006065
0.029955 -0.033433 0.042123
0.005897 -0.034881 -0.006941
-0.008979 0.033020 -0.039682
0.025680 0.009986 0.042056
-0.009866 0.055503 -0.040672
0.038936 -0.029331 0.042321
0.040847 0.038310 -0.041769
0.013143 0.036268 -0.002486
0.051776 0.022550 -0.041364
-0.052665 -0.019502 -0.042506
0.048806 0.003627 0.042550
0.010635 -0.036810 0.000092
0.048628 0.025545 0.022338
0.031667 0.034273 0.024642
0.013871 -0.038454 0.001534
0.017932 0.036468 0.005589
0.051769 -0.006240 0.028028
0.006306 -0.037904 -0.001402
0.037483 -0.042260 -0.041482
0.029405 0.020898 0.042144
0.045636 0.025099 0.029597
0.043260 0.022192 0.033785
-0.023969 0.050954 -0.040296
0.018714 0.036927 0.001319
0.046588 -0.029093 0.011255
-0.002907 -0.038305 0.003820
0.048943 0.005566 0.032379
0.054921 0.003989 0.012110
-0.033359 -0.044332 -0.039884
0.031618 -0.037299 0.017468
0.025923 -0.036961 0.001262
-0.043998 0.035142 -0.040462
0.048750 -0.023295 0.040165
0.006136 -0.036698 -0.003264
0.006068 0.038757 0.001944
0.035094 -0.001092 0.042324
0.022301 -0.037882 -0.000424
0.050627 -0.015344 0.009814
0.045701 -0.032410 -0.041729
0.053293 0.011914 0.028760
0.021388 0.036944 -0.005939
-0.034884 0.044208 -0.042247
-0.031815 0.024040 0.016618
0.042683 -0.028727 0.042211
0.052873 0.011823 0.030552
0.053068 0.012947 0.028455
0.048224 0.006936 0.033755
0.044718 0.024513 0.034181
0.022436 -0.021434 0.017363
-0.006200 0.038148 0.000985
0.025827 -0.026565 0.017604
0.052570 -0.005397 0.009830
0.002591 -0.037842 -0.003498
0.023114 -0.023209 0.017458
-0.017955 -0.036024 0.012995
0.044286 0.024243 0.040996
0.025299 0.013337 0.042322
-0.003719 0.036894 -0.003568
-0.002054 -0.037246 -0.006034
0.050202 -0.016035 0.042246
-0.056128 0.005942 -0.041056
0.031547 -0.030287 0.042012
0.051402 0.014301 0.040165
-0.012460 -0.037344 0.015076
0.048446 0.011978 0.039155
-0.036843 0.016674 0.012785
0.006047 0.037001 0.005594
0.021841 0.035970 -0.006055
0.053062 -0.019225 -0.041159
0.041865 0.025291 0.034555
0.001647 0.038776 0.004437
0.052584 -0.016621 0.012090
0.024775 -0.036207 0.005032
-0.003615 0.038977 0.000150
0.048355 0.004506 0.033772
0.028490 0.036884 0.016904
-0.030432 -0.023317 0.011392
0.040771 0.030810 -0.039270
0.036089 -0.032956 0.041393
0.015144 0.032139 0.009520
-0.004429 -0.037787 0.002584
-0.032901 0.007232 0.007717
0.018049 0.037491 -0.005693
0.033306 -0.034462 0.011920
0.012906 -0.038292 0.000287
0.029330 -0.033297 0.042111
0.010305 -0.037463 0.002837
0.054374 -0.015305 -0.041342
0.025556 -0.024738 0.041132
-0.004903 -0.037608 0.001784
0.042476 0.023038 0.033876
-0.032463 0.024835 0.014910
0.039241 -0.029725 0.042459
0.025845 0.025163 0.041135
-0.004105 -0.055339 -0.039642
0.045258 -0.032111 -0.039232
0.027155 0.035267 0.017370
0.015003 -0.054452 -0.041669
0.027158 -0.035810 -0.003364
0.024293 -0.037350 0.004699
0.011923 -0.036003 -0.002090
0.029132 -0.036997 0.022036
-0.019719 0.035260 0.015016
0.025241 0.022992 0.042027
0.025733 0.050102 -0.039884
0.043992 -0.028422 0.017466
0.024532 -0.037188 -0.000592
0.000656 -0.037693 -0.000601
0.024805 -0.037524 0.003484
0.026051 -0.026578 0.039905
0.024604 0.035875 -0.003953
0.009063 0.037978 0.001969
-0.002343 -0.037281 0.004972
0.052008 -0.006489 0.021812
0.007017 0.037377 0.005198
0.049065 0.010578 0.032837
0.050612 0.006329 0.034431
0.016641 0.034490 -0.008560
0.033963 -0.036865 0.017452
0.012736 -0.037166 -0.001246
0.029141 0.037039 0.020874
0.051777 0.014240 0.031394
-0.037717 0.013084 0.016559
0.023454 -0.036468 -0.001322
0.009879 -0.036635 0.000634
-0.032389 -0.024521 0.015896
0.041525 0.000541 0.042245
0.006256 -0.037118 0.001613
0.052643 0.001720 0.042268
0.045105 0.033522 -0.041695
0.014018 -0.037779 -0.001254
0.033821 0.034092 0.021610
0.044795 0.027505 0.041655
0.037600 -0.000019 0.040207
-0.033136 0.007482 0.008119
0.045944 -0.025705 0.012025
0.045500 0.004537 0.039196
0.039245 -0.029674 0.042459
0.024754 -0.037530 0.003558
0.027848 0.036749 0.009794
0.026634 0.024715 0.042038
0.025516 -0.023287 0.042029
0.024315 0.036036 -0.003765
-0.033632 -0.014648 -0.039887
0.040950 0.022277 0.039376
0.031299 -0.030230 0.042085
-0.001933 0.039107 0.000336
0.004069 -0.036750 -0.005633
0.050722 0.005612 0.034174
0.025270 0.035970 0.001055
0.038992 0.033603 0.009885
0.012839 -0.036516 -0.001402
0.023454 -0.036468 -0.001322
0.042770 0.023053 0.042302
0.041776 -0.030914 0.040304
0.049599 0.014511 0.042281
0.019645 0.037422 -0.005799
0.048685 0.016035 0.030719
0.029719 0.004537 0.039065
0.003427 -0.037805 -0.002715
0.027241 0.004904 0.042371
0.007806 0.037272 0.004979
0.015886 0.035405 -0.006769
-0.002716 0.039141 0.001871
0.025220 -0.037309 0.003634
0.009228 0.036537 -0.000447
0.030221 0.037427 0.016171
0.040128 0.039676 -0.041266
-0.037151 -0.011788 0.016836
0.022941 -0.023336 0.017335
-0.027812 0.027965 -0.039838
0.018183 -0.038091 0.004574
0.027254 0.035567 0.017370
-0.025982 -0.031140 0.015949
-0.003354 0.037768 0.005336
0.006671 -0.036796 0.001787
0.011120 -0.037236 -0.000237
0.041231 0.023156 0.040237
0.022829 -0.037681 -0.000747
0.024057 0.021633 0.042018
0.052048 0.003101 0.028027
0.015071 0.034623 -0.007311
0.053836 0.011936 0.013591
0.054211 0.003009 0.034537
0.001000 -0.035696 -0.008678
0.047156 0.028245 0.017535
0.039114 -0.029561 0.042432
0.027574 -0.002269 0.041961
-0.022933 0.033273 0.015974
0.036357 0.000014 0.041955
0.013119 -0.037840 -0.001122
0.016870 -0.030312 -0.039468
0.025015 0.011637 0.042344
-0.032483 -0.024909 0.011375
0.038091 -0.041704 -0.041283
0.013626 -0.037064 0.005507
-0.002909 0.037392 0.005519
0.019830 0.036337 -0.006409
0.031340 0.022846 0.042405
0.027650 0.018891 0.042130
0.013641 -0.036209 -0.001535
0.049401 0.011246 0.031333
0.026819 -0.025105 0.042040
-0.036531 0.017283 0.009060
0.013608 -0.038084 -0.000823
0.026306 -0.029095 0.017608
-0.004780 -0.037195 -0.004197
-0.036627 -0.017027 0.008773
0.042325 0.029235 0.027839
-0.022255 -0.034055 0.012960
0.023396 0.037164 0.001873
0.013833 0.037271 0.002077
-0.001667 -0.038027 -0.003180
0.031230 0.034137 0.041376
-0.050378 -0.025520 -0.042017
0.006350 -0.036953 0.001655
-0.012336 -0.036343 0.016780
-0.034678 -0.017162 0.008954
0.006256 -0.037118 0.001613
-0.022459 0.007232 0.016958
0.000998 0.056429 -0.041785
0.021296 0.036944 0.005080
0.044270 0.024234 0.041071
0.053990 0.011145 0.012102
0.004402 -0.035946 -0.006586
0.005032 -0.037695 -0.004590
0.022690 -0.022288 0.017578
0.010614 -0.037258 0.000342
0.053153 0.011786 0.013585
0.048719 0.003939 0.033675
0.030131 -0.033802 0.029631
0.052406 -0.000019 0.021812
-0.032916 -0.007268 0.007746
0.045966 0.029043 0.028956
0.040967 0.001659 0.039093
0.051163 -0.012589 0.042254
0.026882 0.013873 0.039259
0.038936 -0.029331 0.042321
-0.000812 -0.036610 -0.007461
0.013901 0.037671 -0.001291
0.003253 -0.036778 -0.006104
0.030582 -0.036578 0.028292
-0.033134 0.007232 0.007869
0.010113 -0.036961 0.002169
-0.023816 0.050624 -0.039936
0.005474 0.038334 -0.001025
0.044567 0.021171 0.033851
0.048009 0.005033 0.042543
0.007289 0.038500 0.003181
0.026384 -0.022408 0.042364
0.037608 0.001164 0.039348
0.050213 -0.011399 0.040062
0.027801 -0.037603 0.015410
0.013630 -0.036042 -0.001655
0.015144 0.034630 -0.007339
0.012945 -0.037694 -0.001226
0.008279 0.038014 -0.000178
0.046557 0.023347 0.029580
-0.028148 -0.026818 0.016911
-0.002960 0.038768 0.004699
-0.005366 0.055194 -0.039652
0.004481 -0.037073 0.004204
0.015230 0.036567 0.004293
0.046874 0.025078 0.032038
0.046787 0.020516 0.030565
0.020257 -0.035222 -0.003868
0.045347 0.033705 -0.041223
-0.013340 0.037128 0.009283
0.024390 -0.036466 -0.000909
-0.043993 0.035150 -0.042323
-0.018934 0.033428 0.016987
-0.037564 -0.014009 0.016487
0.012601 0.034306 -0.006698
0.051648 0.014909 0.031310
0.031248 -0.037345 0.017667
0.001905 -0.036209 -0.007428
0.036358 -0.036198 0.017447
-0.037536 -0.013082 0.003253
0.023259 -0.022104 0.041116
0.038654 -0.029231 0.039966
0.045828 0.027936 0.035258
0.046119 0.029769 0.017527
-0.036584 -0.016693 0.002881
0.042870 -0.033071 0.012000
0.056445 -0.001443 -0.041131
0.025224 0.004612 0.042354
0.028305 -0.032097 0.042052
-0.004987 0.037041 -0.003591
0.017455 0.036983 -0.001055
0.000906 -0.036349 -0.007507
-0.008696 0.037287 0.016092
-0.038346 -0.007314 0.003076
0.031609 -0.030234 0.039907
0.024710 -0.036643 -0.000642
0.011642 -0.037214 -0.000750
0.025827 -0.026565 0.017604
0.015705 0.036094 -0.005633
0.051526 -0.009735 0.017572
-0.037560 0.012896 0.003109
0.044322 0.028278 0.009762
0.022672 -0.021321 0.029811
-0.032885 -0.007518 0.008054
0.030547 0.021690 0.040148
0.012445 -0.038133 0.004201
-0.046994 0.029439 -0.039997
-0.034625 -0.015905 0.000716
-0.055168 0.005676 -0.040065
-0.036768 0.015902 0.000743
0.022830 0.036878 0.004211
-0.002767 -0.038074 -0.000057
0.005187 0.038594 -0.000633
0.029120 0.037170 0.016665
0.038442 -0.029404 0.042214
0.046072 0.021192 0.042318
0.006919 -0.036789 -0.000215
0.022658 -0.022298 0.017454
0.031379 0.046974 -0.041339
0.047570 0.016278 0.039213
-0.047833 0.029969 -0.040987
0.023075 -0.036457 0.005593
0.006055 -0.036856 -0.003229
-0.034229 0.020911 0.012860
0.022032 0.036180 0.005174
0.050303 0.003995 0.042200
-0.001882 -0.036435 -0.008903
-0.007440 0.037506 0.009332
0.033840 0.036762 0.010796
0.006563 -0.034779 -0.006702
-0.006103 0.038322 0.002690
0.003636 -0.037456 0.004601
-0.047833 0.029969 -0.040987
-0.000898 -0.036954 -0.006572
0.022386 -0.037376 -0.001174
0.004092 -0.035196 -0.007658
0.009604 -0.032064 0.009474
0.024446 0.035921 -0.003851
0.037411 -0.030503 0.038642
0.024913 0.009572 0.037602
0.001987 -0.038095 -0.006140
0.041711 -0.037405 -0.041762
0.026774 0.011978 0.038976
-0.005918 0.038134 0.003485
-0.008702 0.036557 0.016810
0.020484 0.035198 -0.008559
0.038772 -0.029176 0.042084
-0.000757 -0.037986 0.002574
0.027613 0.032785 0.041201
0.027216 0.008870 0.039197
0.051517 0.009632 0.021812
0.027709 0.024108 0.042375
0.048013 0.005767 0.033833
-0.004970 -0.037053 -0.007577
-0.056163 0.005780 -0.042065
0.028855 0.005623 0.039276
0.051252 -0.019741 0.022351
0.009471 0.036570 -0.000114
0.053938 0.003505 0.036643
-0.043993 0.035150 -0.042323
-0.010550 -0.055474 -0.041881
0.005954 -0.036588 -0.003801
0.034023 0.023472 0.041936
-0.002122 0.038678 0.004811
0.006352 0.034793 -0.004636
0.047431 0.019010 0.042084
0.027650 0.018891 0.042130
0.021011 -0.052139 -0.041895
-0.050250 -0.025449 -0.040514
0.029995 -0.032302 0.042394
0.008685 -0.055698 -0.041886
0.020598 -0.035858 -0.001823
0.025573 -0.036436 0.000173
0.028720 0.032832 0.042087
0.050096 0.010978 0.030375
0.027216 0.008870 0.039197
0.012750 0.036369 -0.001426
0.052406 -0.000019 0.021812
-0.038303 0.007326 0.007849
-0.003354 0.037768 0.005336
0.049279 0.017117 0.042280
0.053836 0.011936 0.013591
0.006473 -0.037290 0.000821
0.036011 0.036351 0.013443
0.006074 0.037762 -0.001504
0.048854 0.003781 0.033638
-0.000060 -0.037785 -0.002279
-0.034593 -0.016693 0.002898
-0.026161 0.031367 0.011427
0.044089 0.025469 0.041262
0.030806 -0.034680 0.021862
0.031609 -0.030234 0.039907
-0.053872 -0.013199 -0.040054
-0.002792 0.038169 0.005307
0.023224 0.022005 0.041116
0.026717 0.023061 0.028675
0.027893 0.019035 0.040126
0.013199 0.036662 -0.001393
0.030638 0.037405 0.016235
0.033970 0.023156 0.040177
0.005619 -0.036013 -0.005502
0.044006 0.022735 0.042301
0.025548 0.035875 -0.001513
0.012474 0.034223 -0.007051
0.045092 0.026117 0.033272
0.009604 0.032028 0.009474
0.000114 -0.035946 -0.008710
0.022544 -0.008289 0.017577
0.006067 0.037418 0.005444
0.009377 0.037275 0.001141
0.001140 -0.036861 -0.006687
0.006064 0.037357 0.005444
0.002208 -0.036818 -0.006493
-0.032881 0.007232 0.007621
0.048388 0.004440 0.033763
0.027711 0.019182 0.037625
-0.038224 0.007482 0.016827
0.013397 0.036532 -0.002291
0.006849 -0.036709 -0.001452
-0.055457 -0.000651 -0.040068
0.051702 0.010254 0.032696
-0.055513 -0.007032 -0.040199
0.044614 0.024184 0.040085
0.050407 0.022520 0.012062
0.031661 0.037328 0.013407
0.009783 -0.034391 -0.005804
0.034284 -0.032082 0.009678
0.029545 0.031936 0.042390
-0.001437 -0.036730 -0.007375
0.010506 -0.036518 -0.000443
-0.037349 0.015341 0.003334
0.023097 -0.037846 0.004171
0.033945 0.023713 0.042361
0.003457 -0.036005 -0.007063
0.036531 0.043094 -0.041296
0.015286 0.034640 -0.007398
0.001766 -0.035570 -0.008456
0.041940 -0.033652 0.012002
0.009604 0.032028 0.009474
0.014042 -0.037810 -0.001235
0.034932 -0.001358 0.041942
0.034540 0.036683 0.017748
-0.004105 -0.055339 -0.039642
0.035678 -0.030992 0.039658
-0.034691 -0.017069 0.008871
0.030683 -0.034090 0.027691
0.013225 0.036949 0.000349
-0.001515 -0.037218 0.005540
0.049268 0.019478 0.009803
0.043364 0.032494 0.017504
-0.003212 0.038959 -0.000218
-0.006648 -0.037228 -0.006512
0.056156 -0.002586 -0.041603
0.022406 0.036180 -0.005561
0.050660 0.017702 0.031592
0.051850 -0.021224 -0.041678
0.007428 0.055986 -0.041537
0.011242 -0.038091 0.001305
0.027831 0.037628 0.011875
0.011583 -0.036375 -0.001083
0.015319 0.034642 -0.007413
0.024313 0.037215 0.001178
0.019499 0.037067 -0.003912
-0.002735 0.036679 -0.003814
0.047237 0.027366 0.028822
0.046173 0.025784 0.009777
0.046064 0.030039 0.012026
0.023177 -0.023436 0.017369
0.006606 -0.036987 -0.001447
0.025245 -0.037309 0.000572
-0.001494 -0.037641 -0.006204
0.044730 0.024252 0.034511
0.021446 -0.031052 -0.039430
-0.034362 -0.020330 0.016597
0.013321 0.036954 0.000877
0.016075 -0.034711 -0.004003
-0.032632 0.007482 0.007623
0.022500 0.035994 -0.005704
0.041086 -0.029777 0.042201
0.052393 -0.005449 0.042265
0.019556 0.037422 0.004912
0.012985 0.036441 -0.001398
0.051076 -0.016308 0.041387
0.031593 0.022413 0.041916
0.023657 0.037245 -0.003435
0.027254 0.035567 0.017370
0.015272 -0.034540 -0.004334
0.011153 -0.038091 0.002156
0.023013 -0.022692 0.029820
-0.035564 -0.015909 0.016849
-0.003805 -0.037582 0.003487
0.025514 0.011649 0.042057
0.050894 -0.019419 0.013566
0.019442 0.037067 0.003022
0.047896 0.022653 0.009791
0.055847 0.003814 -0.039276
0.025584 0.013307 0.042058
-0.036873 0.016469 0.016212
0.041868 0.023305 0.042243
0.009765 0.034273 -0.006167
0.052912 0.004454 0.032152
0.022672 -0.021321 0.029811
-0.043053 -0.036078 -0.042426
0.039737 -0.032305 0.009724
0.015775 0.036506 -0.005395
0.045481 0.027566 0.040299
0.046064 -0.030076 0.012026
-0.032499 0.024789 0.014919
0.026506 0.029000 0.039909
0.014748 -0.034602 -0.004257
0.021388 0.036944 -0.005939
0.013244 0.036508 0.001772
0.028262 0.026686 0.039879
-0.003200 -0.037410 0.004211
-0.037568 -0.013786 0.009941
0.014807 0.036891 -0.004565
-0.005431 0.056064 -0.042003
0.042422 0.023380 0.042446
0.049871 0.015234 0.028033
0.023291 0.022886 0.039887
-0.035991 -0.018876 0.015900
0.004666 0.038818 0.003783
0.045768 0.027375 0.032035
0.029872 0.037399 0.016246
0.000271 -0.037903 -0.006506
0.026735 0.011348 0.039258
0.028442 0.032431 0.042068
-0.005414 0.055901 -0.042114
0.044717 0.024849 0.034021
0.051967 0.011624 0.031926
0.007309 0.038500 0.000728
0.012764 -0.037534 0.005301
0.049065 0.006975 0.042343
0.043569 0.002918 0.039333
0.020257 -0.035222 -0.003868
0.013172 0.036935 -0.000388
0.030247 -0.037465 0.016168
-0.054375 0.014854 -0.042050
0.017063 0.036655 0.005222
0.029144 -0.035866 0.009636
0.022416 0.004857 0.017363
0.048972 -0.018756 0.021806
0.052426 -0.012892 0.040201
0.025207 -0.033537 0.009603
-0.035045 0.020914 0.011354
0.029874 -0.032271 0.039893
0.048828 0.020982 0.032047
0.024306 -0.036225 -0.001073
-0.002638 0.038331 -0.001494
0.022032 0.036180 0.005174
0.019312 0.036901 0.001374
-0.002538 -0.037306 -0.005768
0.043125 0.030884 0.034457
-0.054844 -0.013440 -0.042054
0.027848 -0.029483 0.042048
0.008633 0.037306 0.004188
0.025061 0.021080 0.021666
0.025224 0.014053 0.042354
0.026188 0.015690 0.040112
0.027831 0.035032 0.011875
0.042098 0.025692 0.033551
0.018056 0.037399 -0.005112
0.033819 -0.034130 0.021610
0.050092 0.004823 0.041844
0.050876 0.005459 0.034058
0.042222 0.026450 0.034432
-0.036915 -0.011227 0.003088
0.003268 -0.038079 0.003441
0.042629 0.027262 0.042499
0.039269 -0.029683 0.042462
0.029159 0.037259 0.016452
0.051664 0.006111 0.029610
-0.019334 -0.032647 0.009234
0.026005 -0.036778 0.002967
0.015342 0.036902 0.004170
0.037485 -0.042274 -0.040279
0.025418 0.026129 0.017355
-0.056458 -0.000663 -0.042067
0.026022 -0.036956 0.002110
-0.035888 -0.019111 0.015867
0.003403 -0.038167 -0.005229
0.050633 0.006131 0.034198
0.055497 -0.008967 -0.041609
0.040498 -0.031532 0.017438
0.011819 -0.030042 0.011492
0.021832 -0.038105 0.003618
0.017879 -0.034917 -0.003729
0.023248 -0.037395 0.005211
0.015822 0.036088 -0.005698
0.044511 0.024625 0.034516
-0.000411 -0.036821 -0.006795
0.012684 -0.037358 0.005344
0.022682 -0.035946 -0.001854
0.039187 -0.029627 0.042450
0.025459 -0.024604 0.041131
0.051028 -0.011652 -0.039185
-0.004031 0.037410 -0.001502
0.054302 -0.000009 0.034536
0.031378 -0.030139 0.039905
0.006013 -0.037652 -0.003125
0.030768 -0.036403 0.009761
0.009555 0.037136 0.001978
0.028479 0.034305 0.040213
0.014994 0.036554 -0.004768
0.024646 -0.024185 0.039893
0.029064 -0.029270 0.042386
0.037256 0.033133 0.018577
0.055438 0.010223 -0.041498
0.021122 -0.052423 -0.041424
0.052598 0.002522 0.042241
0.030770 0.036388 0.009759
0.007363 0.038318 0.004153
0.009147 0.036835 0.003909
0.042629 0.027264 0.042499
0.048877 0.005488 0.032452
0.030824 -0.035791 0.009650
0.046240 0.021374 0.042255
0.023045 0.023090 0.017458
0.027721 -0.036184 0.017316
0.034290 -0.032099 0.009678
-0.000588 -0.037807 0.000733
0.026718 -0.023100 0.028675
0.005077 -0.037353 -0.004645
0.050801 0.018856 0.030541
0.051278 0.019893 0.017570
0.051257 0.016367 0.031235
-0.004275 -0.037761 -0.004022
0.056082 0.003829 -0.041604
0.041309 0.023394 0.040238
0.016538 0.037463 0.003551
0.013751 0.054760 -0.040476
0.021490 0.035877 -0.006380
0.001817 -0.038142 0.004064
0.046346 0.018485 0.039138
0.007246 -0.036737 -0.000153
0.024911 -0.024863 0.017597
0.025733 0.050102 -0.039884
0.048467 0.028069 -0.041706
-0.005586 0.037126 -0.003675
-0.007233 -0.037271 -0.006039
0.015190 0.034634 -0.007357
0.049399 0.012590 0.031008
0.049988 0.015782 0.021810
0.024722 -0.035803 -0.003441
-0.056279 -0.003136 -0.041057
0.022981 0.022655 0.028346
0.042867 -0.029892 0.009750
0.027336 0.034735 0.021604
0.037994 0.035566 0.017459
-0.001139 -0.037831 -0.000916
0.034284 -0.032082 0.009678
-0.005070 -0.037798 0.001113
0.027577 -0.002164 0.042122
0.018719 0.036057 -0.006541
0.051587 0.011129 0.009822
0.002990 -0.035357 -0.008090
0.010289 -0.036873 0.000777
0.048355 0.004506 0.033772
0.008700 -0.055804 -0.041721
0.000350 -0.037937 0.002864
0.050723 0.005799 0.034120
0.045767 0.028340 0.035284
0.004292 -0.035948 -0.006656
0.050676 0.017727 0.031451
0.011149 -0.038091 0.002068
0.047156 -0.028261 0.017535
-0.005618 -0.037133 -0.007225
-0.002638 0.038331 -0.001494
-0.005278 0.038779 0.002537
0.045188 0.024184 0.033921
0.027274 0.008626 0.039263
0.020407 0.036647 -0.006251
-0.033136 0.007482 0.008119
0.044912 0.033393 -0.039366
-0.034256 -0.016174 0.011360
0.007084 -0.034584 -0.006743
-0.055136 0.012148 -0.042056
-0.034664 -0.017254 0.009038
0.004207 -0.036634 -0.005666
0.021071 -0.052290 -0.041783
0.045370 0.029713 0.013520
0.026815 -0.035830 -0.003097
0.022672 -0.036210 -0.001475
-0.000520 0.036723 -0.001994
0.036592 0.032904 0.024725
0.009832 0.034271 -0.006189
0.043752 0.028104 -0.039245
0.012662 -0.038125 -0.000359
-0.038304 0.007465 0.007987
0.000020 -0.036909 -0.006696
0.042946 -0.027917 0.034054
0.037143 -0.041896 -0.039431
0.012933 0.036407 -0.001402
0.052584 -0.016621 0.012090
-0.036877 0.016566 0.012761
0.036361 -0.036197 0.017465
-0.001213 -0.038278 -0.005014
0.054840 0.005592 0.012109
0.000236 -0.038302 0.004751
-0.002176 -0.037711 0.004688
0.044734 0.024357 0.034266
0.004906 0.037112 0.009435
-0.001314 0.039080 0.000032
0.022419 -0.008289 0.017363
0.054293 0.003475 0.030202
0.044507 0.021487 0.040264
0.031914 0.034495 0.021582
0.027413 0.032216 0.041148
0.053348 0.003871 0.040214
0.052277 -0.021400 -0.041359
0.048423 0.011351 0.039297
0.013274 -0.038274 0.004090
0.013629 -0.037125 0.005507
0.055628 -0.008991 -0.039636
0.054302 -0.000009 0.034536
0.012764 -0.037534 0.005301
0.026049 0.027588 0.017606
0.013764 0.054777 -0.041485
-0.038201 -0.009209 0.016803
0.025571 0.013995 0.042214
-0.002701 -0.036935 -0.007214
0.049401 0.007322 0.031703
0.022031 0.035891 -0.006223
0.023300 -0.037395 -0.001037
0.017446 0.036983 0.000131
0.049860 -0.019754 0.041375
0.038869 0.001207 0.039141
-0.004546 0.037352 -0.001386
0.033839 -0.036794 0.010851
-0.018002 0.053356 -0.040247
0.006518 -0.037629 -0.001434
0.027492 -0.002507 0.041882
0.053039 0.004567 0.031962
0.027079 -0.032315 0.039913
-0.002698 -0.038431 0.003570
-0.002432 -0.037252 0.005137
0.000020 -0.036909 -0.006696
0.017152 -0.035888 -0.001625
0.052072 0.007332 0.012076
0.013244 0.036508 0.001772
0.031914 0.034495 0.021582
0.004369 -0.035160 -0.007528
0.026815 -0.035830 -0.003097
0.024250 0.036479 -0.003568
0.051949 0.003354 0.029688
-0.028147 0.026781 0.016911
0.052027 0.004721 0.033372
0.045701 -0.032410 -0.041729
0.020568 -0.036344 -0.001436
0.049429 0.009520 0.042101
-0.004712 -0.037348 0.002757
0.023114 -0.023209 0.017458
0.050612 0.012118 0.029605
-0.003899 0.038810 0.004220
0.036454 0.035159 0.028414
0.021122 -0.052423 -0.041424
0.000997 0.056321 -0.041950
0.007396 0.036394 -0.001483
0.050613 0.024925 -0.041179
0.027818 -0.036936 0.013375
0.012519 0.036470 -0.000110
0.008341 0.036713 -0.000791
0.035774 0.033472 0.040298
0.014409 -0.037980 -0.000951
-0.032863 -0.007268 0.005371
0.026186 -0.024061 0.042035
0.028963 -0.034106 0.041336
-0.005661 0.038622 0.001046
0.024882 -0.023936 0.041127
0.003944 -0.037781 0.000556
0.013317 -0.034526 -0.004578
-0.001808 -0.036743 -0.007145
-0.020410 -0.034923 0.009225
0.034991 -0.001459 0.042041
0.048674 0.007147 0.042094
0.048569 0.006525 0.042294
0.048806 0.005687 0.032499
0.056215 0.003839 -0.039631
0.044478 0.024357 0.040058
0.011597 -0.037214 0.004731
0.013693 0.054480 -0.041955
0.034829 -0.001280 0.041941
0.006136 -0.036698 -0.003264
0.031391 -0.030300 0.042086
0.010752 -0.037942 0.001983
0.026208 0.016616 0.042297
-0.026151 0.031320 0.014962
0.020606 0.037018 -0.003622
0.042411 0.026665 0.009746
-0.005571 -0.037309 -0.001739
0.026719 -0.035831 -0.003221
0.023615 -0.022776 0.041119
0.055543 0.010242 -0.041332
0.022369 -0.037389 -0.001160
0.014351 -0.054608 -0.040471
0.026795 0.011352 0.039117
0.044483 0.024834 0.034484
0.041505 0.000607 0.041998
0.030605 -0.037200 0.022182
0.033757 0.036366 0.010193
0.025279 -0.024937 0.039898
0.019342 0.036901 -0.002266
0.023472 -0.036228 -0.001378
0.044514 0.033098 -0.039238
0.045767 0.028340 0.035284
-0.032933 0.007357 0.007821
0.022337 -0.037428 0.005334
0.051972 0.011018 0.032068
0.034808 0.034738 0.034464
0.030421 0.021892 0.037647
0.043882 0.027475 0.030135
-0.029692 0.048007 -0.040836
-0.025963 0.031342 0.009179
0.041583 0.000368 0.042425
-0.037982 -0.011670 0.016680
0.014956 -0.054335 -0.039974
0.039597 -0.034953 0.011764
0.014398 0.037558 -0.000487
0.004351 -0.038100 -0.003947
0.024194 0.036500 0.002821
-0.009402 -0.033057 0.011316
0.037023 0.033039 0.021656
0.034540 0.036683 0.017748
0.025794 -0.026575 0.017481
0.045927 0.029958 0.017525
0.023943 -0.023754 0.029822
-0.038304 -0.007463 0.007920
0.025393 0.011647 0.042220
0.046172 -0.025821 0.009777
0.033966 0.036837 0.016970
0.047870 -0.021742 0.017541
0.009555 0.037136 0.001978
0.022419 -0.008289 0.017363
0.027338 0.034790 0.020741
0.006047 0.037001 0.005594
0.014958 0.034611 -0.007269
0.023918 0.037207 0.001051
0.037143 -0.041896 -0.039431
0.050395 0.005995 0.040111
0.022981 0.022655 0.028346
0.037272 0.033121 0.017411
-0.033865 -0.045030 -0.042239
0.051163 -0.012589 0.042254
0.027208 0.034939 0.017403
0.044089 0.025469 0.041262
0.026622 0.029664 0.039910
0.025224 0.014053 0.042354
0.044511 0.024625 0.034516
0.020620 -0.033007 0.009565
0.027844 -0.037326 0.010267
0.038558 -0.029311 0.041973
-0.053354 0.018346 -0.042235
0.006670 -0.037065 -0.000434
0.048779 -0.012415 0.009799
0.031499 -0.030328 0.042115
0.035107 0.022537 0.039263
