0.030782 0.034811 0.114914
0.026216 0.027539 0.136312
0.011903 -0.037183 0.095367
-0.004341 0.037124 0.093703
0.026474 0.035762 0.090168
0.004752 0.034277 0.056837
0.025579 0.025461 0.136306
-0.056320 -0.003119 0.054340
0.027919 -0.033922 0.136555
0.024885 0.035724 0.088937
0.016692 0.034595 0.088199
-0.005096 -0.037777 0.093989
0.054453 -0.007694 0.114002
0.002539 0.036507 0.094659
0.038837 0.001225 0.135546
0.013655 -0.037106 0.094913
0.041938 0.024965 0.130116
0.006549 0.038550 0.096269
0.033861 0.000587 0.136581
0.054780 -0.000000 0.107381
-0.006232 0.038166 0.097390
0.004061 -0.037034 0.090913
0.048751 0.004528 0.129308
-0.002748 0.039159 0.098277
0.014559 -0.038404 0.096877
0.036305 0.042878 0.054638
0.047774 0.021565 0.118207
0.014850 -0.053986 0.054421
0.012514 -0.038288 0.099630
0.050604 -0.021872 0.108479
0.047825 0.026741 0.107351
0.015673 0.036113 0.090773
0.009691 -0.034510 0.090802
0.046040 0.021211 0.138723
0.050416 0.006323 0.136560
0.012075 -0.038102 0.100342
-0.000528 -0.036027 0.087331
0.047949 -0.026812 0.107691
0.024676 -0.024598 0.114000
-0.037296 -0.015137 0.107415
0.022695 -0.022482 0.113860
0.043652 -0.028784 0.113868
0.046537 -0.019526 0.106186
0.036337 0.034828 0.106246
0.022496 0.022208 0.113769
0.006032 0.037375 0.101850
0.000960 0.055983 0.054306
0.027282 -0.024149 0.136277
0.034236 0.022295 0.135443
0.047885 0.025371 0.126924
0.012846 -0.038274 0.100120
0.006985 0.037395 0.101603
0.004066 -0.032657 0.105833
0.020956 0.035687 0.089168
0.005503 -0.038055 0.093515
0.019841 0.052738 0.054612
-0.003336 -0.037294 0.100743
0.014675 -0.038196 0.095851
0.048110 0.022156 0.106199
0.051131 -0.012571 0.138660
0.036594 0.023992 0.138363
0.052762 -0.009228 0.137809
-0.038088 -0.012027 0.099484
0.004513 -0.035118 0.088960
0.029815 0.032692 0.133269
0.030600 -0.033843 0.126061
0.031041 0.046558 0.056924
-0.038087 0.012027 0.099484
0.035076 0.022555 0.135515
0.038796 -0.029429 0.138747
-0.003031 -0.037328 0.090941
0.030102 0.033783 0.126023
0.013624 -0.036391 0.094912
0.048006 0.026843 0.107673
-0.001914 -0.036416 0.087503
0.024491 0.024047 0.136297
0.027186 0.008889 0.135450
0.023051 -0.023498 0.113741
0.050475 0.018112 0.127908
0.045810 0.030127 0.108440
-0.052953 -0.019577 0.054173
-0.029407 0.027996 0.112326
0.030425 -0.037443 0.112562
0.003267 -0.036646 0.090196
0.044451 0.024852 0.130889
0.030010 0.032273 0.136300
0.008040 0.037721 0.101117
0.027812 0.037307 0.106673
0.025001 0.024600 0.136302
0.036708 -0.035936 0.107451
0.049776 0.008818 0.127477
0.048853 0.005495 0.128851
0.001752 -0.037092 0.102018
0.048372 0.005281 0.129501
0.046958 0.006583 0.135690
0.048297 0.005442 0.138919
0.006945 0.038533 0.096643
-0.034728 -0.016971 0.104967
0.036109 -0.036249 0.113906
0.024678 -0.036625 0.095763
0.025191 -0.036602 0.096286
0.031359 -0.030282 0.138491
0.039508 -0.030215 0.130385
0.027099 0.032734 0.133661
-0.036616 0.016675 0.099286
0.025343 0.025574 0.113883
0.045972 -0.026882 0.137806
-0.035995 -0.017098 0.109251
0.039508 -0.030215 0.130385
0.011732 -0.036653 0.101735
0.012018 0.035941 0.093111
0.004966 -0.037366 0.099908
0.029017 -0.035732 0.129274
-0.000930 -0.036935 0.089833
0.005612 -0.036576 0.092124
0.002245 -0.056140 0.054355
0.048591 0.005819 0.138841
0.051149 0.016359 0.127901
0.038414 -0.031705 0.124210
0.045153 0.026605 0.118174
0.013954 -0.038193 0.100946
0.043260 0.027942 0.127787
0.045571 0.028751 0.130884
-0.034984 0.044311 0.054323
0.011968 0.035833 0.092810
0.007809 0.036883 0.095347
0.025935 0.027138 0.114011
0.048124 0.007404 0.134950
0.009345 0.037294 0.097546
0.050844 0.005477 0.130464
0.048864 0.010616 0.134956
0.014692 -0.053487 0.056920
0.020285 0.035118 0.087504
0.017120 -0.035869 0.094780
0.026329 0.007477 0.138524
0.016512 0.036068 0.090306
0.020114 0.035614 0.089074
0.037513 0.030221 0.138862
0.050844 0.005477 0.130464
-0.010595 -0.055473 0.055728
0.002994 -0.035194 0.088086
0.006544 -0.037153 0.094941
-0.037527 -0.013376 0.100423
0.010485 0.034469 0.090632
0.027359 0.026853 0.138450
0.017947 0.037418 0.100603
-0.043896 0.035067 0.053973
0.048593 0.008551 0.130220
0.010569 -0.037431 0.100027
0.032021 0.034652 0.114927
0.044475 0.025089 0.130832
-0.036646 0.017054 0.105258
0.034929 -0.001288 0.138521
-0.025557 0.030557 0.113076
-0.043747 0.034932 0.056304
0.048411 0.006471 0.129459
-0.006896 -0.037232 0.090193
-0.004374 -0.037657 0.092477
0.019142 0.036866 0.095958
0.052914 0.003516 0.138009
-0.035077 0.020932 0.107759
0.019504 -0.035148 0.092845
0.049815 0.009451 0.138755
0.045893 0.003329 0.138440
0.026843 0.002245 0.136273
0.043344 0.027374 0.138823
0.040460 0.031113 0.137818
0.026027 0.023876 0.138439
-0.035014 0.020687 0.112280
0.029088 0.037188 0.113070
0.047820 0.005156 0.138910
0.054458 0.003150 0.125518
0.046278 0.018478 0.135761
0.042931 0.023452 0.138794
0.019807 0.036025 0.089873
0.012973 -0.035991 0.094635
-0.038564 -0.040579 0.056347
-0.022289 -0.034063 0.107865
0.011152 -0.037587 0.096131
-0.017763 0.052560 0.056651
0.031637 -0.037282 0.107732
-0.032503 -0.024872 0.109280
0.051611 0.012018 0.136572
0.047795 0.016005 0.106196
-0.019366 0.032628 0.105639
0.032809 -0.037122 0.107838
0.043722 0.022326 0.138213
0.047993 -0.022403 0.106198
-0.001903 0.038838 0.095503
0.046145 0.028227 0.126911
-0.021942 0.033428 0.109368
0.009115 0.036853 0.100314
0.044711 -0.028182 0.137818
-0.005467 0.037939 0.100477
0.048391 0.011370 0.135702
0.033582 -0.035737 0.106209
0.043922 0.029409 0.136698
-0.008703 0.037616 0.109478
0.051995 0.004739 0.129778
0.043228 0.022211 0.130190
0.007774 -0.035983 0.092831
0.030543 -0.034698 0.136707
0.040389 -0.032527 0.130868
0.025063 0.036799 0.096007
0.022496 -0.022559 0.113737
0.004552 -0.038094 0.099490
0.027234 0.033922 0.125940
0.049568 0.012000 0.136712
0.036057 -0.032938 0.137798
0.009108 0.037303 0.100015
0.012422 -0.034483 0.091609
-0.033166 -0.007375 0.104308
-0.002137 -0.036519 0.087839
0.023696 -0.037622 0.100854
-0.000828 0.037262 0.094792
0.028568 0.026597 0.138788
0.031185 -0.030168 0.138558
0.044560 0.024226 0.136484
0.024633 0.035727 0.088979
0.049284 0.013493 0.127264
0.051163 0.019093 0.124862
0.036985 0.031383 0.130366
-0.019647 0.035022 0.112407
0.022490 -0.037246 0.095117
0.053857 0.003060 0.136574
0.029901 0.032277 0.138799
0.042047 -0.037721 0.055155
-0.036587 -0.017233 0.105430
0.046140 -0.025803 0.106182
-0.036635 -0.017090 0.105316
0.013586 -0.036852 0.101951
0.010338 -0.037096 0.097204
0.047993 0.006334 0.130214
0.054375 -0.015296 0.055258
-0.004416 -0.037469 0.092459
-0.012675 -0.054968 0.054701
0.012651 -0.037148 0.101650
0.006945 0.038533 0.096643
0.007960 0.038259 0.100080
0.023625 0.037264 0.092970
0.052762 -0.009228 0.137809
0.046958 0.006583 0.135690
0.010612 -0.037239 0.096637
0.012569 0.034324 0.089708
-0.025995 -0.031361 0.105584
-0.004079 -0.038382 0.094975
-0.028889 -0.027488 0.113048
0.056400 -0.002581 0.056283
0.013212 0.036527 0.098178
0.030829 0.037291 0.107039
0.025676 -0.026583 0.113796
-0.039729 0.039958 0.054118
0.043653 0.029079 0.137823
0.031207 0.003225 0.135418
-0.008737 -0.035585 0.113477
0.010385 -0.037619 0.099232
0.038466 -0.029805 0.138870
0.004090 0.038830 0.100258
-0.037296 0.015138 0.107425
0.027087 0.025806 0.138448
0.004455 -0.035127 0.088935
0.022488 -0.035595 0.092801
0.025529 0.011669 0.138264
0.021999 0.035909 0.090183
-0.002841 0.038166 0.101725
-0.038378 0.007296 0.099481
-0.002158 0.037043 0.094577
0.054611 0.007710 0.108503
0.036745 -0.036058 0.108227
0.009233 0.036670 0.096413
0.001734 -0.035551 0.087950
0.017320 0.037005 0.095943
0.025608 -0.036418 0.096777
0.010897 -0.036976 0.096210
0.015721 -0.038322 0.096504
0.024757 -0.037505 0.097083
-0.032495 -0.024853 0.111315
-0.007473 -0.037524 0.105738
0.017979 0.036771 0.090089
0.017881 0.035492 0.089110
-0.032733 -0.007500 0.104278
0.030507 -0.037416 0.113589
0.004060 -0.035178 0.088748
0.013754 -0.037468 0.094978
-0.020442 -0.034904 0.105630
0.030368 -0.034728 0.136707
0.011663 -0.036526 0.095433
0.023902 0.037160 0.095207
0.045146 0.028348 0.136680
0.056352 0.003868 0.055274
-0.036501 0.017475 0.105497
0.022465 -0.035609 0.093021
0.026213 -0.027529 0.136312
0.027630 0.016291 0.135530
0.020691 0.036158 0.090126
-0.007375 0.037298 0.092756
0.029664 -0.033845 0.118198
0.022885 -0.051560 0.054996
-0.000088 -0.035971 0.087681
-0.022265 0.033966 0.111400
-0.003700 -0.036836 0.088266
0.027334 -0.002044 0.138683
0.023485 0.036557 0.100087
0.011903 -0.037111 0.101460
0.051995 0.007350 0.113981
0.022522 -0.037081 0.101922
0.019689 0.052383 0.056830
0.000449 0.037539 0.105926
-0.037952 0.011990 0.113057
-0.050523 0.024130 0.053879
0.042453 -0.030427 0.136707
0.052355 0.004962 0.106234
0.024298 0.024276 0.113874
0.039191 -0.029709 0.138864
0.030521 -0.037406 0.114061
0.044687 0.024311 0.130789
-0.023838 0.050663 0.054100
0.022377 0.022241 0.113736
0.027110 0.035752 0.090704
0.005454 -0.036841 0.092241
0.050181 -0.011380 0.136467
0.017120 -0.035869 0.094780
0.024610 0.037086 0.094325
0.017031 0.036673 0.101628
0.023827 -0.037795 0.097270
-0.002210 -0.036966 0.089982
0.038645 -0.029243 0.138378
0.031423 -0.030348 0.138560
-0.010573 -0.055336 0.056220
0.052841 0.011841 0.126958
0.036109 -0.036249 0.113906
0.028236 0.036648 0.113650
0.011380 -0.036598 0.095636
0.007142 0.038358 0.096035
0.023599 0.037239 0.093605
0.051278 -0.009288 0.124436
0.025579 0.025461 0.136306
0.052274 -0.003246 0.118218
0.023830 -0.037616 0.096206
-0.024226 0.032729 0.105599
0.036016 0.032951 0.137798
0.009196 0.036555 0.095958
0.043981 0.023027 0.138651
-0.005463 0.056082 0.054402
0.049162 0.003264 0.134208
0.024320 0.024250 0.113997
0.036057 -0.032938 0.137798
0.035340 -0.000648 0.138844
0.045370 -0.024978 0.130604
0.025579 0.025461 0.136306
0.025192 0.014072 0.138760
0.050581 0.024943 0.055226
0.008542 0.038192 0.097602
-0.034681 0.014630 0.096019
0.029092 0.036528 0.123343
0.003485 -0.035257 0.088502
0.054364 0.008420 0.114001
0.046051 0.028665 0.126392
0.033939 0.036845 0.113870
0.024686 -0.036355 0.101348
-0.022491 -0.007250 0.113363
0.019384 0.035932 0.089736
-0.033167 0.007475 0.104431
0.005981 0.038778 0.097875
0.034683 -0.001232 0.138444
0.044301 0.021733 0.129082
0.055057 0.010176 0.054755
0.020636 -0.038107 0.100396
0.017881 0.035492 0.089110
0.038842 0.001182 0.135481
0.027785 0.033785 0.136534
0.044119 0.024635 0.137404
0.050133 0.005988 0.137499
-0.033491 -0.016839 0.056520
0.037111 -0.041877 0.056975
0.045511 -0.028826 0.130883
0.006514 0.038550 0.100438
0.043215 0.022686 0.138478
0.042967 -0.032908 0.109906
0.030492 0.037436 0.112591
0.006894 -0.036765 0.095988
0.044482 0.031605 0.108429
0.045472 0.020408 0.129636
0.026740 0.011997 0.135664
-0.036542 -0.017362 0.105484
0.025402 0.021587 0.138762
-0.037381 -0.015359 0.099739
0.052361 -0.005431 0.138671
0.047152 -0.025325 0.137786
0.052507 -0.000000 0.113985
0.045604 0.025117 0.126003
-0.032895 -0.007250 0.101777
0.019410 0.037085 0.099428
0.045604 0.025117 0.126003
0.025914 0.026223 0.136309
0.005000 -0.037677 0.091815
0.052255 0.016506 0.107360
0.001108 -0.036843 0.089719
0.043451 -0.029768 0.136703
-0.006240 0.037516 0.099762
0.030189 0.037445 0.112576
-0.006184 -0.037169 0.089523
0.012569 0.034324 0.089708
0.025939 0.008214 0.134016
-0.002730 -0.038412 0.099976
-0.032876 0.007346 0.101777
0.048602 0.028184 0.054740
0.010173 -0.037449 0.098384
0.047208 -0.027426 0.124832
0.044440 0.023526 0.138090
0.025691 -0.027182 0.113763
0.030543 -0.034698 0.136707
0.051785 0.011140 0.128817
0.034900 -0.001340 0.138347
-0.000971 -0.037804 0.094922
0.029692 -0.033489 0.125983
0.044867 0.024140 0.130881
0.031199 0.034156 0.137782
0.026924 0.029622 0.137549
0.043865 0.001676 0.138670
0.001887 -0.038214 0.090579
0.027810 -0.034850 0.129119
0.012069 -0.038093 0.096435
0.040474 0.030561 0.124213
0.030604 0.020310 0.135631
0.006498 -0.036681 0.094033
0.026747 0.011369 0.135599
0.025428 -0.024585 0.137537
-0.005467 0.037939 0.100477
0.046053 0.028790 0.126006
0.020559 -0.035936 0.094782
0.013576 -0.038066 0.095582
-0.000012 -0.036890 0.089709
0.003931 -0.037763 0.094702
0.020677 0.036359 0.090163
0.005949 -0.036861 0.099150
-0.032789 -0.007466 0.104028
0.007385 -0.036000 0.092523
0.003746 0.035114 0.092104
0.038384 -0.032077 0.137808
0.026860 -0.049533 0.054670
0.039548 -0.032037 0.114998
0.042835 -0.029874 0.106155
0.050293 -0.010787 0.136468
0.047314 -0.023209 0.138627
0.034508 0.036702 0.114153
0.025064 0.021458 0.113709
0.051494 -0.009716 0.113977
0.041832 0.024774 0.130998
0.001515 -0.037869 0.092439
0.044404 0.024094 0.137419
0.048442 0.015940 0.128268
0.043688 -0.031290 0.124777
0.051485 0.009651 0.118218
0.023961 -0.008283 0.138422
0.030365 0.034728 0.136707
0.028646 -0.028019 0.119424
0.015496 0.037591 0.099305
0.039269 -0.034339 0.109876
0.022685 -0.037782 0.095919
0.052279 0.003268 0.113983
-0.006710 0.037396 0.097951
-0.005033 0.037652 0.101101
0.044576 0.020343 0.135812
0.008657 0.037515 0.100663
0.005117 -0.034998 0.089192
0.003510 0.036359 0.094491
0.023814 -0.023900 0.113870
0.002109 0.036449 0.094473
-0.034194 0.019258 0.105516
0.006756 -0.036589 0.094229
0.024651 -0.024622 0.113877
0.022576 0.036569 0.091101
0.025541 -0.036417 0.096578
0.050601 0.006150 0.130604
0.027359 0.026853 0.138450
0.033932 0.036848 0.113820
0.039509 0.030215 0.130385
0.045604 0.025117 0.126003
0.054231 0.003563 0.126548
0.008868 0.036826 0.096184
0.023043 -0.036439 0.101999
0.000874 -0.036331 0.088899
0.048412 0.011997 0.135844
0.022626 -0.022280 0.113860
-0.001484 -0.037230 0.101769
0.005949 -0.036861 0.099150
0.028630 0.028049 0.113744
-0.004933 0.038802 0.096837
0.018151 -0.038073 0.100980
-0.006235 0.037304 0.096047
0.030507 -0.037416 0.113589
0.023672 0.023911 0.113779
0.019535 0.036751 0.101925
0.029694 0.033488 0.125970
0.052052 0.006528 0.113982
0.033825 -0.036883 0.107946
0.050880 0.005155 0.136516
0.024757 -0.037505 0.097083
-0.022965 -0.033291 0.112380
0.027812 0.037307 0.106673
0.043537 0.002936 0.135738
0.000446 0.037555 0.106040
-0.037313 -0.015322 0.107740
0.024572 0.035893 0.092452
0.002163 -0.037103 0.090011
0.004933 -0.037677 0.099866
0.027054 0.034978 0.113774
0.023141 0.023280 0.113864
-0.032840 -0.007466 0.104215
0.016637 0.037541 0.100252
0.027678 0.018869 0.138289
0.026087 -0.036755 0.098516
0.034797 -0.001262 0.138346
0.012807 -0.036498 0.095003
0.053857 0.003060 0.136574
0.048678 0.004628 0.129348
-0.004652 -0.037209 0.092313
0.037639 0.035770 0.108264
-0.038336 -0.007445 0.104326
-0.000844 -0.036592 0.088944
0.048414 0.011997 0.135561
0.014494 0.036761 0.099832
0.013468 0.053809 0.056910
-0.004079 -0.038382 0.094975
0.038806 -0.029585 0.138839
0.034390 0.032317 0.130332
0.045579 0.023928 0.130081
0.011114 -0.037587 0.100653
0.006756 -0.036589 0.094229
0.048452 0.018065 0.126330
0.035340 -0.000648 0.138844
0.042047 -0.037721 0.055155
0.045153 0.026605 0.118174
-0.038909 -0.040958 0.054484
0.031589 -0.037287 0.113515
0.026494 -0.031056 0.113802
0.048006 0.026843 0.107673
0.050770 0.011405 0.126012
0.027163 -0.026035 0.138448
0.007039 0.037395 0.095112
0.014130 0.036482 0.100130
-0.032663 0.019940 0.107779
-0.047750 0.029914 0.055912
-0.034707 -0.014654 0.107762
0.049662 0.019524 0.128379
0.028295 -0.036784 0.113405
0.034145 -0.036793 0.114043
0.047538 0.023695 0.128442
-0.004890 -0.037778 0.098170
0.039178 -0.029672 0.138863
0.043321 0.027488 0.138823
-0.001269 -0.038352 0.090789
-0.037296 0.015138 0.107425
0.036057 -0.034016 0.106099
0.006609 -0.037239 0.095963
0.011636 -0.036622 0.101904
-0.005487 0.056207 0.055770
0.001873 -0.036190 0.088977
-0.005208 0.037388 0.101322
0.009408 0.036695 0.100508
0.019325 -0.035812 0.094590
0.039594 -0.034999 0.108378
-0.004909 0.037917 0.095518
-0.000247 0.039126 0.096807
0.038854 -0.029377 0.138726
-0.022741 0.007500 0.113361
0.027879 -0.035573 0.123757
0.002971 -0.036658 0.090086
0.049567 0.014530 0.138687
0.022611 -0.022515 0.113770
0.054497 -0.005578 0.107379
0.003912 -0.037763 0.096962
0.033932 0.036848 0.113820
0.033752 0.000511 0.138586
-0.002464 -0.037233 0.101542
0.013831 -0.038435 0.098889
0.054431 0.007693 0.114001
-0.002865 -0.038286 0.091325
0.048911 0.005584 0.128784
0.026895 0.013884 0.135447
0.051818 -0.021206 0.054728
0.006544 -0.037153 0.094941
0.005865 0.037962 0.101697
0.012676 0.036489 0.096829
0.047862 -0.026762 0.107324
0.053906 0.003523 0.133049
0.049397 0.016385 0.126004
-0.001903 0.038838 0.095503
-0.003984 0.038831 0.095975
-0.038378 -0.007295 0.099481
0.006985 0.037395 0.101603
0.012984 0.036612 0.096231
0.024758 -0.035759 0.093061
0.016359 0.037447 0.091005
0.020879 -0.051920 0.056840
0.030236 -0.037462 0.112491
0.030550 -0.036559 0.124697
0.019689 0.052383 0.056830
-0.010921 0.037458 0.105709
0.051395 0.002074 0.138977
0.044458 0.022633 0.128137
0.042788 0.024351 0.138719
0.005695 -0.037012 0.092683
-0.017111 -0.033590 0.107908
0.006552 -0.037268 0.094959
0.031270 0.046873 0.054707
-0.022510 -0.007345 0.113363
0.024987 0.021086 0.126212
0.038984 -0.000448 0.138874
-0.026014 -0.031122 0.112354
0.029177 -0.031870 0.133584
0.013568 -0.036546 0.102421
0.025648 0.013996 0.138461
-0.052459 -0.020802 0.054372
0.014971 -0.054434 0.054737
0.028410 0.032449 0.138474
-0.022468 -0.007427 0.101863
0.037111 -0.041877 0.056975
0.040076 0.039682 0.056148
0.023910 0.037225 0.094539
0.031810 -0.045432 0.057062
0.015112 0.034649 0.089067
-0.004172 -0.055814 0.056632
0.051940 0.011037 0.128474
0.048509 -0.020966 0.106202
0.046844 0.018756 0.106188
0.023889 0.037160 0.096788
0.006720 -0.036797 0.097307
0.003510 0.036359 0.094491
0.024106 0.035880 0.090497
-0.008672 -0.037550 0.105728
0.023910 0.037225 0.094539
0.025099 -0.021514 0.121383
0.007303 0.036585 0.095039
0.039185 0.034042 0.124831
0.007011 0.034518 0.090987
0.042939 0.022927 0.129511
0.050170 -0.016016 0.138651
0.021632 0.035419 0.087998
-0.036806 -0.015898 0.097118
-0.038378 0.007296 0.099481
0.029622 -0.033626 0.120820
0.044318 0.024850 0.136462
-0.037388 -0.015345 0.099489
0.026783 -0.049389 0.054559
-0.006135 0.037674 0.099716
0.037381 -0.042161 0.054757
0.030864 0.032162 0.138807
0.037569 0.024000 0.136612
0.003395 -0.037787 0.093690
0.018193 -0.038057 0.095880
0.053958 -0.011164 0.108507
0.012544 -0.038111 0.096139
0.045937 0.029057 0.125375
0.047862 -0.026762 0.107324
0.026474 0.029019 0.136314
0.036477 0.043085 0.054915
0.024340 -0.036638 0.101532
0.009751 -0.034373 0.090602
0.021161 0.036208 0.102133
0.048520 0.015553 0.134953
0.013839 -0.038435 0.097939
0.039594 -0.034999 0.108378
-0.036760 -0.042761 0.055511
0.047124 0.028263 0.113941
0.006224 -0.037099 0.098018
0.013050 0.036293 0.094039
-0.033166 -0.007344 0.104300
0.053179 0.003217 0.138065
-0.032818 0.007467 0.104171
0.036016 0.032951 0.137798
0.000605 -0.037144 0.102124
-0.008672 0.037551 0.105728
-0.035025 -0.020886 0.111996
-0.028180 -0.026799 0.113316
0.039195 -0.029663 0.138863
0.031635 0.034291 0.121047
-0.019647 0.035022 0.112407
0.022385 0.021384 0.113768
0.048407 0.011369 0.135626
-0.056345 -0.000643 0.055841
0.027554 -0.002258 0.138287
0.036442 -0.035171 0.124820
0.054262 0.003493 0.126607
-0.037341 -0.015069 0.108434
0.026128 0.027041 0.136311
0.011105 -0.036469 0.105892
0.025008 -0.021126 0.113731
0.028326 -0.036728 0.113589
-0.002123 -0.036954 0.089945
0.033933 0.036851 0.113644
0.015254 0.034659 0.089008
0.048289 0.005752 0.129519
-0.000884 -0.037100 0.089947
0.051698 0.009229 0.129051
0.050581 0.006031 0.130633
0.040090 0.022598 0.135492
0.022635 -0.036907 0.095002
0.044669 0.023900 0.137406
-0.034194 0.019258 0.105516
0.035064 0.022598 0.135733
0.001714 -0.037345 0.101749
0.050375 0.022538 0.108467
0.048002 -0.021486 0.108448
0.026129 -0.036233 0.098240
-0.034645 0.014648 0.107763
0.039548 0.032036 0.114998
0.032392 -0.046236 0.054881
-0.005371 -0.037306 0.098376
-0.033166 0.007421 0.104354
0.033913 0.023732 0.138766
0.000193 -0.038259 0.100806
0.039604 -0.029242 0.138879
0.053410 0.008913 0.126960
0.049322 -0.027496 0.055216
-0.003031 -0.037328 0.090941
0.048364 -0.017617 0.136452
-0.033491 -0.016839 0.056520
0.050660 0.005530 0.130843
0.050147 0.003776 0.138781
0.055511 0.010261 0.055073
0.030604 0.033841 0.126048
0.042438 0.030451 0.136707
0.029100 -0.036979 0.118442
0.041984 0.023720 0.138899
0.013775 0.036678 0.093249
0.029504 -0.033126 0.125120
0.052109 -0.000000 0.124431
0.048731 0.020895 0.128609
0.053655 -0.005562 0.136622
0.007332 0.038336 0.100558
0.048387 0.004168 0.130970
-0.052476 0.018045 0.056363
0.010485 0.034469 0.090632
0.041282 0.001820 0.135643
0.011115 -0.037907 0.096860
0.051698 0.009229 0.129051
0.048493 -0.023748 0.136568
0.027199 0.008893 0.135526
0.046075 0.028761 0.125985
0.030829 -0.037290 0.107062
0.048568 0.016835 0.138253
0.047912 0.008645 0.135557
0.015379 0.033813 0.056926
0.050514 0.014559 0.108469
0.049232 -0.027068 0.054745
0.052346 -0.004967 0.106234
0.043363 0.027260 0.138810
0.007774 -0.035983 0.092831
0.004370 0.034996 0.091982
-0.008734 -0.036575 0.113215
0.006905 -0.036751 0.097353
-0.022287 -0.034037 0.109365
0.033968 0.023557 0.138588
0.051745 0.001869 0.130654
0.012413 -0.038115 0.100606
-0.006232 0.038166 0.097390
0.004060 -0.035178 0.088748
0.041822 -0.037516 0.054684
0.026616 -0.031034 0.114016
0.041488 0.029495 0.138610
-0.000844 -0.036592 0.088944
0.031602 -0.037279 0.113833
0.029217 -0.037304 0.112811
0.045604 0.025117 0.126003
0.034132 0.036796 0.114034
0.048822 0.003799 0.130043
0.046360 0.023139 0.129994
-0.024019 -0.031510 0.056599
0.048158 0.020875 0.057197
0.000978 -0.035595 0.087357
0.052496 0.003122 0.138526
0.028995 -0.037196 0.112989
0.028875 0.018478 0.135617
-0.005950 0.038153 0.099890
0.022445 0.022460 0.113736
0.053121 -0.011804 0.109990
0.014926 0.034630 0.089136
0.041301 0.001765 0.135785
0.000266 -0.038150 0.090125
0.039045 -0.029565 0.138839
0.029379 -0.033310 0.138518
0.038039 -0.041673 0.056131
-0.029536 0.028315 0.107805
0.035405 -0.031004 0.138844
0.022714 0.021181 0.136283
-0.043211 -0.036164 0.054089
0.029612 0.032119 0.138796
0.042738 0.023071 0.138707
-0.024001 0.050973 0.056109
0.055393 -0.002535 0.057257
0.007837 0.037360 0.095333
0.033903 -0.036615 0.118639
0.049978 -0.015909 0.113964
-0.047026 0.029457 0.056408
0.045576 0.029530 0.124795
-0.004513 -0.037311 0.092401
0.006888 -0.036770 0.096191
0.040079 0.022555 0.135557
0.044447 0.024375 0.136463
0.026909 0.013881 0.135524
0.043110 -0.030891 0.130862
0.039594 0.034998 0.108378
-0.004196 -0.056335 0.054772
0.010642 -0.037142 0.100244
0.041074 0.038572 0.054788
-0.032421 -0.024502 0.112301
0.022818 0.036408 0.100743
0.039509 0.030215 0.130385
0.044103 0.025029 0.137403
0.027786 -0.036917 0.109780
0.045379 0.027999 0.136704
0.000446 0.037555 0.106040
-0.002922 0.037828 0.101775
0.021211 -0.038114 0.096624
0.049670 0.019574 0.128217
0.027106 -0.035793 0.093058
-0.037138 -0.007326 0.099492
0.044409 0.025313 0.136463
0.013048 0.035725 0.092005
0.044192 -0.034996 0.056182
-0.010445 -0.036606 0.056711
0.015039 0.034642 0.089095
0.047981 0.005785 0.130239
0.025193 0.021181 0.138760
0.051460 -0.016256 0.106528
0.020375 0.036666 0.090155
0.024815 0.036810 0.094261
0.013954 -0.038193 0.100946
0.054527 0.010082 0.057250
-0.038694 -0.040736 0.054016
0.022633 -0.036423 0.094987
0.027414 0.005063 0.138713
0.030435 -0.033209 0.130247
0.038956 -0.000203 0.138808
0.024572 0.035893 0.092452
0.045867 0.025686 0.113930
-0.000340 -0.036507 0.088904
0.029938 -0.032282 0.138799
0.039681 0.031548 0.057127
0.022616 0.022175 0.113983
0.049726 0.019648 0.128074
0.006498 -0.036681 0.094033
0.038957 -0.033615 0.106331
0.041834 -0.030003 0.057145
0.008545 0.038191 0.097613
0.002511 -0.037823 0.098733
0.047074 0.018906 0.136691
0.052277 -0.021395 0.055240
0.033866 0.001806 0.135658
0.041813 0.025327 0.138897
0.035075 0.022555 0.135668
0.042439 0.021680 0.135653
0.027432 -0.002319 0.138459
0.049861 0.017403 0.138143
-0.034707 0.014654 0.107762
0.032546 -0.032994 0.138546
-0.000543 0.036111 0.092365
0.000956 0.056465 0.055823
-0.048412 -0.028927 0.055414
0.040097 0.039695 0.055139
-0.033023 0.007467 0.104372
0.046663 0.021882 0.138117
0.004508 -0.036606 0.091013
0.047748 0.020675 0.125992
-0.038378 0.007296 0.099481
0.026742 0.011997 0.135381
0.036385 0.042992 0.056610
0.041200 0.023175 0.136642
0.024050 0.021733 0.138423
0.051246 0.019912 0.113975
0.004419 -0.035132 0.088918
0.040840 0.031540 0.106138
0.040921 0.022295 0.135499
0.041971 0.030253 0.137823
0.007573 0.038505 0.098362
0.006609 -0.037239 0.095963
0.049756 0.006517 0.138219
-0.023991 0.050985 0.054249
0.028646 -0.028019 0.119424
0.004390 -0.034930 0.088583
0.053804 -0.011955 0.109996
-0.034984 0.044311 0.054323
0.027782 0.036123 0.113919
-0.002939 -0.038286 0.100226
-0.003101 0.036794 0.092827
0.037600 -0.033776 0.130885
-0.050279 -0.025437 0.054030
0.044087 0.001310 0.138916
-0.002824 0.038188 0.101712
-0.036673 0.016398 0.098018
0.050324 0.014545 0.057215
-0.036875 0.016692 0.109190
0.000949 0.056326 0.056316
0.002569 0.030898 0.107821
0.029127 0.037277 0.112858
0.048442 0.015940 0.128268
-0.000551 -0.037272 0.089932
0.050660 0.005530 0.130843
0.054460 0.003129 0.125529
0.050365 0.005940 0.136512
-0.002754 0.038182 0.094851
0.043858 0.027746 0.124314
0.053198 -0.013437 0.118760
0.038821 -0.029106 0.138628
0.050375 -0.022539 0.108467
0.005372 -0.036899 0.099935
0.017947 0.037418 0.100603
0.009966 -0.036785 0.098582
0.042997 0.023685 0.128937
0.052040 0.007350 0.108481
0.014902 -0.038215 0.100953
0.025099 -0.021514 0.121383
0.045211 0.025711 0.126033
-0.001868 -0.037439 0.090341
0.042838 0.033052 0.108405
0.005405 0.038373 0.095409
0.040389 -0.032527 0.130868
-0.002947 0.037303 0.102090
0.022528 0.035813 0.089401
0.026042 -0.035998 0.100099
0.006670 -0.036807 0.094962
0.011683 -0.037564 0.095645
-0.052944 0.018213 0.053859
0.055511 0.010261 0.055073
-0.037265 -0.014026 0.095724
0.018187 -0.038409 0.098450
0.042597 0.027282 0.138904
0.022510 0.021384 0.113982
0.005588 -0.035994 0.090903
0.053668 0.005493 0.106546
0.013094 0.036765 0.096025
0.042025 0.023660 0.131052
0.043845 -0.026985 0.130505
0.055247 0.010212 0.054795
0.047885 0.025371 0.126924
0.035120 0.036538 0.114194
0.043333 0.032513 0.113909
0.048845 0.005506 0.128857
-0.006544 0.037497 0.097963
-0.034681 0.014630 0.096019
0.027919 0.036164 0.117226
0.013176 -0.038154 0.100896
-0.010560 -0.055349 0.054360
-0.003754 0.037216 0.094640
0.023902 0.037160 0.095207
-0.033547 -0.019803 0.113272
-0.006716 -0.037212 0.089849
0.046326 0.023229 0.129803
0.047254 0.004956 0.138451
0.015274 0.036737 0.100611
0.023065 -0.036166 0.102272
0.048372 -0.023118 0.137768
-0.001372 0.037118 0.094737
0.049468 -0.027198 0.055023
0.013781 0.034517 0.089530
0.003793 0.035200 0.092261
0.030584 0.037270 0.117293
0.002761 -0.036061 0.089130
0.041642 -0.037372 0.057012
-0.004995 0.038806 0.099642
0.025928 0.007316 0.138766
0.047542 -0.022730 0.138629
0.026035 0.035764 0.089830
0.006531 -0.034761 0.089704
0.050826 0.022176 0.057220
0.029877 0.032272 0.138799
0.029506 0.033123 0.125120
0.036314 0.001182 0.135460
0.013586 -0.036852 0.101951
0.045226 -0.032092 0.057173
-0.033043 0.007250 0.104239
0.050587 0.006273 0.130708
0.022528 0.035813 0.089401
0.014017 0.037547 0.098386
0.046112 0.027979 0.127298
-0.003353 -0.037084 0.090580
0.030425 -0.037443 0.112562
-0.001396 0.036944 0.094593
0.043399 0.023298 0.138708
0.047144 -0.028089 0.118725
0.044542 0.024727 0.130646
0.043122 0.026230 0.127853
0.028840 0.018504 0.135681
0.004582 -0.038068 0.098922
-0.038336 -0.007479 0.104387
0.021181 -0.038114 0.100326
0.007016 -0.036736 0.096782
-0.000691 -0.036139 0.087671
0.038840 0.001182 0.135764
0.011773 -0.036197 0.094990
-0.002951 0.037267 0.102284
-0.037183 -0.011769 0.113242
0.013571 -0.036581 0.102227
0.031883 -0.034516 0.117988
0.026783 -0.049389 0.054559
0.012846 -0.038274 0.100120
0.013594 -0.037045 0.101912
0.009135 0.037303 0.096735
0.031635 0.034291 0.121047
0.051700 -0.002923 0.130654
-0.034629 -0.016382 0.097997
0.029112 0.035847 0.106041
0.036295 -0.036192 0.113757
-0.004882 0.038285 0.101010
-0.005549 -0.037332 0.097205
0.050844 0.005477 0.130464
0.049814 0.006655 0.138216
-0.022645 -0.007481 0.113362
0.041822 -0.037516 0.054684
0.023489 -0.037046 0.101795
-0.033024 -0.007375 0.104271
0.018694 -0.036703 0.106049
0.030539 -0.037404 0.114105
0.048133 0.026917 0.108459
0.051281 0.022374 0.057092
-0.034723 -0.017051 0.105276
0.007182 0.034712 0.091566
0.021932 0.036302 0.101436
0.044745 0.027207 0.137986
0.027671 0.036140 0.113729
0.049260 0.016305 0.126157
0.029373 0.020917 0.138550
0.026394 0.008369 0.136520
-0.037313 0.015323 0.107740
0.045468 0.004555 0.135601
0.039161 -0.029984 0.133064
0.013193 0.036967 0.096754
0.025038 0.035978 0.098628
-0.005102 -0.037780 0.097518
0.051775 0.022582 0.055236
0.011380 -0.036598 0.095636
-0.056311 -0.003118 0.055348
-0.050077 0.023907 0.056383
-0.011833 0.055081 0.056210
0.047278 0.019063 0.138242
0.052922 0.004327 0.128679
0.038440 -0.029617 0.138832
0.013310 0.037313 0.095028
0.052570 0.000435 0.106236
0.043777 0.023971 0.138180
0.022354 -0.037358 0.095232
-0.032663 0.007500 0.104029
0.016236 0.037186 0.090808
0.047993 0.006334 0.130214
0.033853 0.001765 0.135440
-0.002577 0.038496 0.101533
0.048183 -0.026945 0.108449
0.043974 0.022754 0.138706
-0.049959 -0.025266 0.056253
-0.054012 -0.016528 0.055367
-0.019648 -0.035022 0.112407
-0.004677 0.038808 0.096479
0.016359 0.037447 0.091005
-0.003646 0.038995 0.096556
0.006614 -0.036571 0.093866
0.047970 0.008889 0.135622
0.030449 0.037440 0.112574
0.038904 -0.029313 0.138727
0.008609 0.037698 0.096110
0.017121 -0.035764 0.094604
0.004319 -0.038081 0.092458
-0.004578 0.037370 0.095020
-0.004744 -0.037329 0.099162
0.043974 0.022754 0.138706
0.001796 0.035599 0.092543
0.046236 0.002968 0.138934
0.012042 -0.037866 0.095796
0.033275 0.034443 0.108326
-0.004281 -0.038079 0.099098
0.025987 -0.036759 0.097657
0.030926 -0.037361 0.114122
0.048509 -0.020966 0.106202
0.024651 -0.024622 0.113877
0.039213 -0.029720 0.138864
0.051611 0.012018 0.136572
0.048139 -0.023605 0.137766
0.026544 -0.023133 0.136271
0.038435 -0.030113 0.106119
0.050800 -0.008101 0.136472
0.038820 -0.029105 0.138627
0.046673 0.023079 0.125983
0.052560 -0.000002 0.106236
0.011115 -0.037907 0.096860
0.030215 -0.037447 0.112573
0.051485 0.009651 0.118218
0.047606 0.022059 0.129328
0.005921 0.037962 0.095000
0.019539 0.037414 0.100967
0.024981 -0.037480 0.097432
0.025195 -0.008283 0.138760
0.023033 0.035605 0.088327
-0.043361 0.034623 0.056438
0.004078 -0.035935 0.089642
0.011577 -0.038079 0.096935
0.008161 0.038233 0.096832
0.048642 0.024804 0.125137
-0.001840 -0.036725 0.089260
0.027029 0.036018 0.106024
0.025529 0.011669 0.138264
0.050468 -0.014559 0.113968
0.041428 -0.030865 0.108393
0.013662 0.054498 0.054450
0.016120 0.036089 0.090524
0.000616 -0.037394 0.101851
-0.006389 0.037980 0.098246
0.030772 0.032180 0.136306
0.020166 -0.035263 0.092884
-0.022564 -0.007427 0.113363
0.053958 -0.011164 0.108507
0.050595 -0.015326 0.106219
0.020654 0.035256 0.087860
0.007738 0.037099 0.101460
0.042501 0.023599 0.129552
0.029489 0.031865 0.138795
0.025211 -0.021197 0.138760
0.025394 0.021892 0.126216
0.030606 0.037423 0.112640
0.025191 -0.036602 0.096286
-0.008734 0.036575 0.113215
0.040417 0.037974 0.057133
0.020677 0.036359 0.090163
0.043653 0.029079 0.137823
0.013033 0.036620 0.096779
0.051441 0.000000 0.136477
0.017320 0.037005 0.095943
0.015743 0.036524 0.091010
0.054458 0.003150 0.125518
0.013815 -0.037615 0.101763
0.045645 0.026977 0.128599
0.044918 0.033425 0.054670
0.025193 -0.037458 0.098260
0.008646 0.038181 0.098453
0.033913 0.023732 0.138766
0.015287 0.034660 0.088993
0.009571 0.037349 0.106084
0.024722 -0.037511 0.099963
0.026686 0.035766 0.090472
-0.004478 0.038588 0.095659
0.036990 -0.033058 0.118061
0.015240 -0.034522 0.092072
0.012676 0.036489 0.096829
0.033081 0.036144 0.124748
0.025983 0.035764 0.089789
0.005037 0.036292 0.094504
0.050773 0.005878 0.130438
-0.034717 0.017098 0.105341
0.014907 0.036156 0.091384
-0.001384 -0.037478 0.101511
0.022585 -0.036653 0.101987
0.030566 0.036560 0.124698
0.030553 -0.037402 0.114119
0.016573 0.037481 0.091917
0.005695 -0.037012 0.092683
0.025973 -0.036759 0.099373
0.017290 0.036029 0.090030
0.000971 -0.035713 0.087801
0.014775 0.036910 0.091841
0.030550 -0.036559 0.124697
0.009138 0.037495 0.096735
0.048080 0.004798 0.131002
0.048933 0.015697 0.138256
0.039058 -0.032243 0.136707
0.044560 0.024226 0.136484
-0.028364 -0.048275 0.054063
0.014888 0.035497 0.090251
0.040779 0.038312 0.057005
0.022337 -0.037371 0.095246
0.008629 -0.055518 0.054408
0.027697 0.036046 0.113833
0.013140 0.036954 0.096017
-0.008703 0.037616 0.109478
0.047876 0.005691 0.134374
-0.001427 -0.037327 0.101617
-0.003157 -0.037542 0.100528
0.044214 -0.035007 0.055173
0.025974 -0.026408 0.136310
-0.036852 0.016675 0.112596
0.030175 0.032266 0.136301
0.021912 0.035904 0.090144
0.006547 -0.037268 0.094942
0.018890 0.035544 0.089048
0.049581 0.012000 0.138261
-0.034625 -0.016674 0.099303
-0.003892 0.038828 0.095909
0.025299 0.021488 0.138761
-0.038334 0.007298 0.104236
0.042992 0.023923 0.128826
-0.001924 -0.037205 0.090296
0.012433 -0.036572 0.095113
0.014683 0.037627 0.098070
0.013735 -0.037444 0.094964
-0.037296 0.015138 0.107425
0.049024 -0.026964 0.057074
0.046958 0.006583 0.135690
-0.000528 -0.036027 0.087331
0.042753 0.025204 0.138719
0.008255 0.036961 0.095635
-0.017972 -0.035915 0.111436
0.050624 0.006193 0.130594
-0.020442 -0.034904 0.105630
0.047788 0.016990 0.134947
0.031199 0.034156 0.137782
0.043246 0.025897 0.138547
0.025137 0.021550 0.118073
0.050377 0.015915 0.106218
0.013956 -0.037791 0.101661
0.025329 0.035940 0.094923
0.012787 -0.037516 0.095104
-0.029600 -0.028190 0.111339
0.024184 0.037213 0.096000
0.042446 0.021694 0.135576
0.053286 -0.013572 0.113992
0.027816 -0.036616 0.106162
0.044479 0.024643 0.130921
0.048133 0.026917 0.108459
-0.054673 0.012054 0.056213
0.047627 0.005286 0.138696
-0.005923 0.038153 0.096610
0.012413 -0.038115 0.100606
0.050628 0.017720 0.127998
0.031247 -0.030503 0.138716
0.035923 -0.036302 0.114055
-0.001851 -0.036445 0.087803
0.004263 -0.038081 0.099212
-0.036501 -0.017474 0.105497
0.033932 -0.036848 0.113822
-0.038333 -0.007250 0.104232
0.054263 -0.003962 0.110000
0.001430 0.036524 0.094457
0.000124 -0.037598 0.101764
0.014902 -0.038215 0.100953
0.006567 -0.036912 0.097267
0.027736 -0.024689 0.125089
-0.022510 -0.007345 0.113363
0.039310 0.024406 0.138877
0.029830 -0.034082 0.120868
-0.005386 0.036539 0.056753
0.015468 0.035440 0.089842
0.006614 -0.036571 0.093866
-0.026186 0.031362 0.109333
0.051020 0.013663 0.106223
0.025067 -0.037473 0.099260
0.045431 -0.028036 0.136673
0.024805 0.035734 0.089076
-0.022645 0.007481 0.113362
0.013320 -0.035950 0.094601
0.018330 0.035980 0.089799
0.016036 0.036710 0.101151
0.025516 0.035894 0.094892
-0.004071 -0.038447 0.094307
0.045867 -0.030189 0.109930
0.048772 0.005734 0.128903
-0.050945 0.024330 0.054190
0.045211 0.025711 0.126033
0.024273 0.036167 0.099314
0.038789 -0.029205 0.138597
0.033693 0.000338 0.138765
-0.000340 -0.036507 0.088904
0.016573 0.037481 0.091917
0.017786 0.037115 0.101717
0.030782 -0.034814 0.114915
0.042596 0.027284 0.138904
0.029644 -0.033741 0.119446
-0.007354 0.037297 0.092772
0.002694 -0.037047 0.101766
0.001728 -0.037193 0.101860
0.025769 0.050244 0.056029
0.007787 0.037360 0.101395
0.041048 0.038562 0.056648
0.021708 -0.037889 0.095910
0.045095 -0.026376 0.057172
0.036991 0.033058 0.118061
-0.037380 0.013475 0.095569
0.003793 0.035200 0.092261
0.025192 0.004631 0.138760
0.028842 0.018504 0.135399
0.047579 0.016314 0.135554
-0.034881 0.021205 0.111950
0.006673 -0.036572 0.093987
0.046326 0.023229 0.129803
0.039499 0.034783 0.107558
0.044411 0.028136 0.106168
0.043115 0.023513 0.128915
-0.000443 -0.036803 0.089610
-0.012234 0.035345 0.113449
0.048952 0.003471 0.130906
0.042342 -0.032971 0.118694
0.048797 0.014779 0.128281
0.042300 0.023112 0.131058
0.047134 -0.026354 0.106492
0.025238 0.035988 0.097461
0.028410 0.032449 0.138474
-0.012462 -0.037048 0.112467
0.048740 0.018171 0.125999
-0.032913 -0.007250 0.104027
0.008212 0.038032 0.100508
-0.032974 0.018995 0.056525
0.048895 0.006234 0.138749
0.030829 0.037291 0.107039
0.042972 0.022270 0.131036
0.007267 0.036797 0.095073
-0.037529 -0.012680 0.095488
0.048999 0.005005 0.138771
0.025185 0.011660 0.138726
-0.004422 -0.037662 0.092596
0.027816 -0.036768 0.106199
0.024461 -0.035941 0.094963
0.024786 0.036810 0.097750
0.023310 -0.022965 0.136292
0.015271 0.034455 0.088673
-0.001170 -0.037813 0.095489
0.022798 0.036896 0.100616
0.022797 -0.037663 0.095659
0.038821 -0.029106 0.138628
0.031257 -0.034817 0.113071
-0.001840 -0.036725 0.089260
0.021923 0.035468 0.088039
0.048267 0.025570 0.125134
-0.036667 -0.016975 0.105022
0.017122 -0.036237 0.094941
0.007664 0.038295 0.100305
0.053757 0.011940 0.108505
-0.035034 0.020891 0.111997
-0.005480 0.056225 0.054761
0.027242 0.035253 0.113809
0.011789 -0.037723 0.101087
0.045735 0.028359 0.131689
-0.034708 -0.017159 0.105400
0.043995 0.023745 0.138204
-0.027844 -0.027983 0.056567
0.048245 0.013881 0.135701
0.024880 0.018980 0.134007
0.051246 0.019912 0.113975
0.022646 -0.036714 0.094987
-0.050523 0.024130 0.053879
0.015673 0.036113 0.090773
0.029744 0.032222 0.138798
-0.004652 -0.037209 0.092313
0.022611 -0.022515 0.113770
-0.034722 0.017056 0.105273
0.006574 -0.036968 0.094958
0.050371 0.006135 0.136534
0.017031 0.036673 0.101628
0.000142 -0.037885 0.101703
0.020566 -0.035839 0.094582
0.043466 0.030502 0.106299
0.052040 0.007350 0.108481
0.047909 0.008645 0.135840
0.035980 0.036370 0.109848
0.054231 0.003563 0.126548
0.038402 -0.029310 0.138378
0.011683 -0.037564 0.095645
0.024850 -0.023918 0.137532
-0.033547 -0.019803 0.113272
0.008641 0.038182 0.098541
0.042162 0.026449 0.138901
0.013856 0.037689 0.096715
0.043466 0.030502 0.106299
0.035062 -0.001074 0.138730
0.025974 -0.026408 0.136310
0.045222 0.026196 0.057173
0.027769 0.037585 0.111815
0.004741 -0.035074 0.089052
0.009437 0.037661 0.098378
0.044139 -0.027599 0.057164
0.054433 0.006827 0.118759
0.033853 0.001765 0.135440
0.044952 0.028276 0.137391
0.008938 0.038001 0.097572
0.039191 -0.029709 0.138864
0.053668 0.005493 0.106546
-0.007473 -0.037524 0.105738
-0.016812 -0.053772 0.056169
0.024799 -0.037309 0.096365
0.036479 0.043099 0.056118
0.019535 0.036751 0.101925
0.023259 0.022904 0.136292
0.042997 0.023685 0.128937
0.025891 -0.036943 0.097668
-0.022289 -0.034063 0.107865
0.050826 0.022176 0.057220
0.003746 0.035114 0.092104
0.036746 0.036060 0.108167
-0.010445 0.036606 0.056711
-0.054675 0.012059 0.053845
0.021999 0.035909 0.090183
0.032708 0.021694 0.135649
0.033839 0.023968 0.138831
-0.029206 0.047175 0.056556
0.006670 -0.036807 0.094962
0.005454 -0.036841 0.092241
-0.020442 0.034904 0.105630
0.023814 -0.023900 0.113870
0.013320 -0.035950 0.094601
0.007055 0.037587 0.095013
-0.004134 0.037250 0.094741
0.055816 0.003832 0.057130
0.028646 -0.028019 0.119424
0.022800 0.036594 0.100706
0.050808 0.012767 0.118217
0.010985 0.034452 0.090469
0.050690 0.006106 0.130493
0.045186 0.024183 0.130309
0.027579 0.036189 0.113685
0.038837 0.001225 0.135546
0.036409 0.043003 0.054749
0.003371 -0.038149 0.091176
0.019017 0.036439 0.102116
-0.032840 -0.007466 0.104215
0.022714 0.021181 0.136283
0.027244 0.008645 0.135385
0.030775 0.034663 0.117972
0.036323 -0.030782 0.135759
-0.013414 0.037210 0.109439
0.008309 0.036732 0.095615
0.024374 -0.035985 0.095129
0.023706 0.035667 0.088565
0.026424 -0.048764 0.057017
-0.055131 0.012159 0.054155
0.022294 -0.037427 0.101730
0.027174 -0.034952 0.113808
-0.037309 0.013822 0.095656
0.042557 0.033036 0.113903
-0.046341 -0.030522 0.056414
0.045670 0.030007 0.118695
0.038384 -0.032077 0.137808
0.019841 0.052738 0.054612
0.027578 0.016314 0.135388
0.009111 0.037495 0.100015
0.014775 0.036910 0.091841
0.011683 -0.037564 0.095645
-0.015666 -0.034627 0.113420
0.026590 0.029682 0.136315
0.039201 -0.034035 0.124831
0.027575 0.016314 0.135671
0.013048 0.035725 0.092005
0.046643 -0.022564 0.130651
0.052374 -0.000000 0.118217
-0.020040 -0.033953 0.056632
-0.032703 0.007500 0.104220
0.004572 -0.035928 0.089960
0.050624 0.005753 0.130624
0.036102 0.036251 0.113915
0.029842 -0.032253 0.136298
0.027453 0.035495 0.114023
0.036109 -0.036249 0.113906
0.044642 0.024688 0.130550
-0.005016 0.038610 0.100398
-0.055199 0.005694 0.056340
0.036317 0.001225 0.135678
0.044575 0.024463 0.130804
0.047546 0.019134 0.138670
0.045204 0.025962 0.124392
0.027578 0.016314 0.135388
0.027626 0.005205 0.138289
0.049650 0.012016 0.138508
0.000165 0.035992 0.092685
-0.008728 -0.037305 0.112498
0.033969 0.034234 0.114949
-0.002569 -0.037288 0.090637
0.051838 0.012704 0.128231
0.045946 0.029040 0.125402
0.048387 0.004168 0.130970
0.025188 -0.037291 0.100040
-0.038378 -0.007295 0.099481
0.029821 -0.037436 0.112555
0.045153 0.026605 0.118174
0.013954 0.036775 0.099071
0.051864 0.004974 0.129513
-0.020442 0.034904 0.105630
0.048845 0.005506 0.128857
0.052245 -0.021382 0.055046
0.007083 -0.036718 0.095994
0.045670 0.030007 0.118695
0.009496 0.036792 0.097156
0.048377 0.006606 0.138521
0.055850 0.007640 0.056279
0.011610 -0.037195 0.095655
-0.021337 -0.052216 0.055638
-0.006184 -0.037169 0.089523
0.001840 -0.038187 0.100683
0.050512 0.006092 0.130877
-0.029705 0.048010 0.054366
0.034773 -0.001152 0.138588
0.030488 -0.037430 0.112946
0.017881 0.035492 0.089110
0.054435 -0.006805 0.118759
0.047864 0.022671 0.106197
-0.036947 0.011209 0.099493
0.023505 -0.035888 0.094081
0.020636 -0.038107 0.100396
0.043777 0.023971 0.138180
0.047776 0.005186 0.138875
0.038414 -0.031705 0.124210
0.046557 0.029074 0.107661
-0.031951 -0.024443 0.109285
0.026859 -0.001814 0.138774
0.007032 -0.035996 0.092254
0.034197 -0.036780 0.114067
0.023071 -0.021210 0.137517
0.042596 0.027284 0.138904
0.043865 0.001676 0.138670
0.009679 0.036797 0.098580
0.051439 0.019614 0.108486
0.051213 0.019742 0.118756
0.033938 0.000825 0.136582
-0.038334 -0.007297 0.104236
-0.004532 0.037459 0.095100
0.007010 0.036274 0.094622
0.047993 0.006334 0.130214
0.022340 0.036444 0.090891
0.051213 0.019742 0.118756
-0.004942 0.037223 0.094581
0.014494 0.036761 0.099832
0.004741 -0.035074 0.089052
-0.026193 -0.031385 0.107833
0.042928 0.029927 0.106156
0.029664 -0.033845 0.118198
0.036317 0.001225 0.135678
-0.005195 -0.037335 0.098300
0.029028 -0.037187 0.113036
-0.027675 0.026505 0.107820
0.006638 -0.037047 0.095971
0.054611 -0.007711 0.108503
-0.034692 -0.021545 0.111894
0.053878 0.016491 0.054894
0.022563 -0.036189 0.102301
0.040652 0.034323 0.113887
-0.034601 0.044623 0.054520
0.033851 0.001765 0.135723
0.021458 0.035896 0.090025
-0.002633 -0.038317 0.099311
0.032494 -0.001582 0.136320
-0.053285 0.018324 0.055866
0.054156 0.003609 0.126983
0.003694 -0.035960 0.089451
-0.046915 0.031346 0.054418
0.020114 0.035614 0.089074
0.048642 0.007165 0.138500
0.008246 -0.036107 0.093274
0.006274 -0.037886 0.095003
-0.002921 0.037129 0.094562
0.034050 -0.036820 0.113850
0.003931 -0.037763 0.094702
0.004752 -0.034277 0.056837
0.033654 0.031546 0.136330
0.044318 0.024850 0.136462
0.027598 -0.002172 0.138488
0.045875 0.026131 0.106180
-0.005467 0.037939 0.100477
0.025418 -0.021599 0.138762
-0.052515 -0.019416 0.053862
0.048391 0.011370 0.135702
-0.036616 -0.016674 0.099286
0.008309 0.036732 0.095615
0.003546 -0.037737 0.100955
0.049836 -0.005313 0.106213
0.051516 0.019647 0.109977
-0.033964 -0.045098 0.054331
0.049251 0.019461 0.106208
0.044475 0.021506 0.136670
0.030670 0.035804 0.106054
0.050513 -0.014559 0.108469
0.016181 0.036849 0.090737
0.041301 0.001765 0.135785
-0.038335 0.007376 0.104266
0.007267 0.036797 0.095073
0.014944 -0.054330 0.054571
0.022528 0.035813 0.089401
0.006981 -0.036634 0.094887
-0.044110 0.035236 0.054247
0.030189 0.037445 0.112576
0.024697 -0.022603 0.138428
0.026230 -0.036066 0.098235
0.002217 -0.055924 0.056685
0.015815 0.036520 0.090952
0.046439 -0.022212 0.138936
0.052837 0.010930 0.106539
0.041087 -0.030843 0.118070
0.050604 0.021871 0.108479
0.028878 -0.034536 0.136655
0.036409 0.043003 0.054749
0.003877 -0.035946 0.089537
0.037589 -0.000250 0.134112
0.047110 0.026341 0.106534
0.007924 0.036370 0.094976
0.040729 -0.030845 0.057136
-0.001175 -0.037813 0.096090
-0.015932 0.035580 0.113156
0.047606 0.022059 0.129328
0.021117 -0.035868 0.094573
0.033903 -0.036615 0.118639
-0.004351 -0.037765 0.099135
-0.018685 0.053277 0.054652
0.026893 0.013884 0.135600
0.039335 -0.031955 0.118071
-0.034915 0.044226 0.054158
-0.029724 0.048025 0.055569
-0.017985 -0.036034 0.107901
-0.000485 0.036165 0.092713
0.052109 -0.000000 0.124431
-0.005261 0.038796 0.097504
-0.022289 -0.034063 0.107865
0.027678 0.018869 0.138289
0.023585 0.035630 0.088284
0.049473 -0.027207 0.056226
0.027210 0.004923 0.138776
0.048439 0.004085 0.130965
0.040921 0.022295 0.135499
0.026154 -0.024043 0.138440
0.020253 -0.035833 0.094584
0.030043 0.032280 0.138800
0.014010 -0.038428 0.097508
0.008629 -0.034555 0.090449
0.044802 0.024288 0.130631
-0.032822 0.007427 0.101777
0.053041 -0.012945 0.124860
0.034601 -0.036678 0.114162
0.048933 0.015697 0.138256
0.025161 -0.036975 0.096247
-0.022755 -0.051370 0.054148
0.014377 -0.037962 0.095454
0.026706 0.011367 0.135381
0.047870 0.005832 0.131013
0.025946 0.016728 0.138766
0.027769 0.037585 0.111815
0.001651 0.039131 0.098313
-0.002719 -0.038389 0.092082
0.051485 -0.009651 0.118218
-0.005032 -0.038112 0.097502
0.033177 0.045586 0.056091
0.054179 0.003027 0.130942
0.025299 0.021488 0.138761
0.034221 0.001678 0.135443
0.039069 -0.033853 0.106398
0.050375 -0.022539 0.108467
-0.054191 0.011947 0.056349
0.048875 0.018125 0.124438
0.017850 0.036776 0.090098
0.024992 -0.024603 0.136302
0.053036 0.012966 0.124860
0.048793 0.005616 0.128896
0.047825 0.026741 0.107351
0.024885 0.035724 0.088937
0.018689 0.037478 0.106730
0.024259 -0.036261 0.095363
0.044655 0.024794 0.130488
0.008577 -0.055304 0.056738
0.028605 -0.027959 0.125096
0.045152 -0.026605 0.118174
0.023663 -0.022861 0.137525
0.022222 0.036964 0.094328
0.047399 0.019028 0.138489
0.013678 -0.037444 0.101862
0.045095 -0.026376 0.057172
0.024866 0.036022 0.098550
0.048606 0.025748 0.113953
0.045631 -0.032379 0.057045
0.023071 0.023337 0.113774
0.022269 -0.037864 0.095981
-0.004461 -0.037768 0.098989
0.011114 -0.037587 0.100653
0.035924 0.036302 0.114075
0.048568 0.016835 0.138253
0.006991 0.037769 0.095056
-0.002824 0.038188 0.101712
0.011610 -0.037195 0.095655
0.013548 0.036494 0.099313
0.033196 0.045600 0.055082
0.046279 0.018478 0.135608
0.013597 -0.037106 0.101912
0.040840 0.031540 0.106138
0.049908 0.009519 0.127224
0.027736 -0.024689 0.125089
0.041048 0.038562 0.056648
0.049650 0.007087 0.106211
0.042830 -0.001520 0.134156
0.051724 -0.010702 0.106229
0.026895 0.013884 0.135447
-0.022590 -0.032668 0.113100
0.044214 -0.035007 0.055173
0.004337 -0.035142 0.088878
-0.005427 0.055728 0.054253
0.004490 -0.035121 0.088950
0.012585 -0.034274 0.091033
0.029123 0.033194 0.138511
0.032028 0.037233 0.112949
0.037451 -0.042242 0.054923
0.050628 0.017720 0.127998
0.054211 -0.015253 0.056758
0.024116 0.036502 0.092619
0.012953 0.036460 0.095007
0.010666 -0.036567 0.096104
0.029273 0.003175 0.138549
-0.015665 0.034627 0.113420
-0.038088 -0.012027 0.099484
-0.043896 0.035067 0.053973
-0.037749 0.013102 0.112964
0.005793 0.038550 0.100878
-0.001352 -0.038352 0.100787
-0.004666 0.037904 0.101292
-0.002529 0.039150 0.099186
0.048407 0.011369 0.135626
0.003604 -0.037437 0.101007
0.049561 0.015318 0.126166
-0.052944 0.018213 0.053859
0.046668 0.020636 0.127009
0.044440 0.023526 0.138090
0.049397 0.009538 0.138506
0.023959 0.021181 0.138422
0.022633 -0.036423 0.094987
0.048364 -0.017617 0.136452
-0.004197 -0.056178 0.056273
0.044103 -0.031583 0.118681
0.048864 0.010616 0.134956
0.024615 -0.024166 0.136298
-0.008672 0.037551 0.105728
0.052052 -0.006528 0.113982
0.030662 0.002494 0.136555
0.049839 -0.015253 0.124439
-0.032917 -0.007500 0.104460
0.024273 0.036167 0.099314
0.055321 0.003799 0.057257
0.022000 0.036198 0.101580
0.047537 0.016297 0.135771
0.000361 -0.035856 0.087719
0.052109 -0.000000 0.124431
0.042022 -0.037697 0.054961
-0.002562 0.038514 0.101523
-0.003707 -0.056326 0.055785
-0.029526 0.028294 0.109305
-0.004063 0.037428 0.094903
0.016359 0.037447 0.091005
0.054497 0.005578 0.107379
