-0.002538 -0.037306 -0.005768
0.032747 0.021662 0.039167
0.036033 -0.036418 0.011943
-0.005373 0.038289 0.004110
0.026504 -0.029028 0.039909
0.047900 0.015327 0.039151
0.035038 -0.001050 0.042324
0.048467 0.028069 -0.041706
-0.035045 0.020914 0.011354
0.053668 -0.005719 0.040216
0.048674 0.024785 0.028732
-0.037560 0.012896 0.003109
-0.033272 0.023734 0.015111
0.015286 0.034640 -0.007398
0.008462 0.038187 0.002964
0.023141 -0.023189 0.017581
-0.029174 0.047156 -0.039850
0.019357 -0.035831 -0.001815
0.006670 -0.037065 -0.000434
0.028420 -0.036799 0.017143
0.012617 -0.034293 -0.005372
-0.034636 0.012662 -0.000894
0.020598 -0.035858 -0.001823
0.033626 0.035772 0.009798
0.025393 0.011647 0.042220
0.029696 -0.033863 0.021792
0.034805 -0.001170 0.042182
0.037610 0.001090 0.039066
-0.047136 -0.031090 -0.040981
0.037017 -0.031402 0.033960
0.009356 0.037647 0.002818
0.002276 -0.056158 -0.042050
0.012484 -0.038134 0.004232
-0.019326 0.032633 0.009234
0.023321 0.037234 -0.003206
0.015650 0.034655 -0.007562
0.054044 0.016514 -0.041151
0.019839 0.036006 -0.006532
0.031667 -0.034313 0.024642
0.030637 0.020292 0.039073
0.022981 0.022655 0.028346
0.016959 0.036407 0.005479
0.009393 0.037120 0.000797
-0.001459 0.036844 -0.002022
0.017322 0.034654 -0.008341
0.023065 0.035587 -0.008079
0.027028 0.023091 0.042369
-0.008697 -0.037324 0.016092
0.038446 0.031687 0.027804
0.025296 0.025600 0.017387
0.048674 0.024785 0.028732
0.025224 0.009911 0.042354
0.036588 -0.035495 0.010321
0.002379 -0.037677 0.000006
0.031217 -0.030187 0.042153
-0.034884 0.044208 -0.042247
0.048044 0.008858 0.039152
0.050912 0.005137 0.040111
0.004292 -0.035948 -0.006656
0.017746 0.036970 -0.001581
0.041207 0.038652 -0.041257
0.040967 0.001659 0.039093
0.037737 -0.033366 0.009707
0.021243 -0.038132 0.000219
0.025193 -0.036993 -0.000158
0.024831 -0.037328 -0.000040
0.051814 -0.000019 0.034248
0.041898 0.025499 0.034537
0.024875 0.018928 0.039851
0.032060 0.037214 0.016544
-0.005811 0.038309 0.003464
0.013082 0.036275 -0.002366
-0.003782 0.037851 -0.001383
0.012335 -0.038317 0.001354
0.017297 -0.034843 -0.003808
-0.054832 0.012082 -0.042524
0.028788 -0.034504 0.040241
-0.037348 0.013457 -0.000836
0.019831 0.036160 -0.006440
0.013233 0.036958 0.000398
0.055576 0.010249 -0.041138
0.003688 -0.036652 -0.005985
0.051492 0.016237 0.010123
0.029874 -0.032271 0.039893
-0.004858 -0.037796 0.001765
0.027241 0.004904 0.042371
0.045463 -0.028055 0.040267
0.017260 0.034567 -0.008701
0.026005 -0.036778 0.002967
0.022672 -0.036210 -0.001475
-0.035564 0.015872 0.016849
0.045643 0.027236 0.032462
0.022672 -0.036210 -0.001475
-0.005760 -0.037279 -0.001773
0.032906 0.034245 0.040298
0.008633 0.037306 0.004188
0.053041 -0.015291 0.012084
0.031281 -0.030060 0.041913
-0.005517 -0.037351 0.000800
0.039016 -0.000467 0.042469
0.014398 0.037558 -0.000487
0.006068 0.038757 0.001944
-0.033134 0.007232 0.007869
0.029928 -0.034513 0.017336
-0.036584 -0.016693 0.002881
0.025584 0.013307 0.042058
0.049988 -0.015819 0.021810
-0.004901 0.038784 0.000431
0.023617 0.035611 -0.008121
0.045320 0.033684 -0.041417
0.013901 0.037671 -0.001291
0.039307 0.024143 0.042406
-0.005475 0.038115 0.004140
-0.004102 0.037231 -0.001665
0.014933 -0.054191 -0.041945
0.010846 -0.037937 0.002785
0.039600 0.034952 0.013473
0.041864 0.024756 0.034592
0.000997 0.056321 -0.041950
0.026622 -0.029701 0.039910
0.025643 0.009981 0.042108
-0.037519 0.014172 0.016467
-0.004780 -0.037195 -0.004197
-0.056019 0.005764 -0.040562
0.030896 -0.047240 -0.041343
0.046132 0.028715 0.029560
0.011715 -0.037582 -0.000760
0.020731 0.035867 -0.006569
0.030547 0.021690 0.040148
-0.001437 -0.036730 -0.007375
0.042683 -0.028727 0.042211
0.009668 0.036659 0.000702
0.042042 0.024084 0.033831
0.045722 0.027543 0.035223
0.043511 0.021855 0.038506
0.024913 0.005000 0.037602
0.027705 0.033629 0.040108
0.001766 -0.035570 -0.008456
0.023521 -0.037064 0.005390
-0.003161 -0.036762 -0.008307
0.033970 0.000807 0.040177
0.026074 -0.036017 0.003694
0.028857 0.005623 0.038993
-0.029484 0.028249 0.014935
-0.032786 0.007448 0.007766
0.029688 0.004507 0.039000
0.050403 0.006117 0.040129
0.021559 0.036977 -0.002987
-0.056313 -0.000661 -0.040565
0.000493 -0.037759 0.001218
0.029654 -0.033645 0.024415
0.042470 0.021662 0.039247
0.019920 0.052854 -0.041434
0.023839 -0.037814 0.003318
0.025169 0.021532 0.021668
0.048512 0.004964 0.033047
0.039737 -0.032305 0.009724
0.028603 0.034375 0.040225
0.045595 0.025636 -0.039230
0.030217 0.037442 0.016089
0.051485 -0.005854 0.034250
-0.010413 0.036588 -0.039694
0.007020 -0.034722 -0.006538
0.034081 -0.036838 0.017445
0.015071 0.034623 -0.007311
0.025019 0.036252 0.000986
-0.001237 -0.038370 -0.005616
-0.037571 -0.013690 0.009279
0.014814 0.037228 0.003542
-0.004712 -0.037348 0.002757
0.001894 -0.038142 -0.005246
0.048428 0.028057 -0.039337
0.051052 0.013645 0.009817
0.046064 0.030039 0.012026
0.011242 -0.038091 0.001305
0.007770 0.037081 0.005055
-0.010436 0.034950 0.009308
0.055030 -0.000019 0.017601
0.001836 -0.038210 -0.005469
-0.005661 0.038622 0.001046
-0.037995 -0.007322 0.002829
0.049042 0.010327 0.032929
0.051778 -0.009918 0.009823
0.030768 -0.036403 0.009761
-0.002205 -0.037528 0.004730
0.013005 -0.036009 -0.001770
0.029143 0.036984 0.021762
-0.036896 -0.016613 0.011338
0.040493 -0.028780 0.042481
0.006382 0.036237 -0.001860
0.033836 0.023632 0.037676
0.027061 0.035999 0.009619
-0.029485 -0.028286 0.014935
0.023521 -0.037064 0.005390
0.029064 0.029233 0.042386
0.030218 0.037434 0.016116
0.022527 -0.021434 0.017454
0.024541 -0.037551 0.000316
0.038755 -0.029309 0.042190
0.024911 -0.024863 0.017597
0.048025 -0.022422 0.009792
0.019057 0.036572 0.005598
0.015003 -0.054452 -0.041669
0.046172 -0.025821 0.009777
0.025692 -0.036600 0.000357
0.023499 -0.037828 0.003803
0.042684 -0.026367 0.009748
0.027181 -0.002160 0.042292
0.042229 0.030449 0.009744
0.000648 -0.037413 0.005446
0.006136 -0.036698 -0.003264
0.049520 0.005862 0.041946
0.025280 -0.036810 -0.000188
0.004604 -0.035946 -0.006446
0.051835 0.012722 0.031988
-0.002377 -0.038058 -0.002282
0.025680 0.009986 0.042056
-0.004196 0.039001 0.002500
0.000240 -0.036443 -0.007518
0.005723 -0.036021 -0.005390
0.047943 0.006547 0.034590
0.047673 0.020897 0.029585
0.011184 -0.037605 -0.000275
0.026188 0.008273 0.040112
0.023569 -0.035965 -0.001767
-0.000857 -0.036215 -0.008724
0.039541 0.030197 0.033980
0.038446 -0.031724 0.027804
0.023006 0.023396 0.017335
-0.050947 0.024327 -0.042021
-0.050045 0.023888 -0.040023
0.033964 0.036829 0.017414
0.047917 0.019026 0.030103
0.026188 0.015690 0.040112
0.031236 0.003206 0.039296
0.043544 0.021855 0.034593
-0.036584 -0.016693 0.002881
0.014348 0.036435 -0.004091
0.029144 0.035829 0.009636
0.025978 0.016710 0.042361
0.028215 0.006557 0.039053
0.019654 0.037395 -0.005449
0.013172 0.036935 -0.000388
0.044360 0.023514 0.041767
0.025646 0.026031 0.017603
0.055920 -0.002576 -0.039275
0.051184 -0.005325 0.042570
0.013309 -0.038274 -0.000082
0.014526 0.036742 0.003426
0.048466 0.004035 0.037797
0.020038 0.036245 0.005997
0.008661 -0.055536 -0.041997
-0.022851 -0.051669 -0.041789
-0.055457 -0.000651 -0.040068
0.030218 0.037434 0.016116
0.033819 -0.034130 0.021610
0.052584 -0.000019 0.012080
0.025499 0.050360 -0.040379
0.020668 -0.038126 0.003991
0.008196 0.037520 -0.000826
-0.037025 -0.014941 -0.000225
0.044592 0.024207 0.040079
0.025564 0.049777 -0.039527
0.025189 0.025660 0.017353
0.018727 0.034909 -0.008449
0.017352 0.036987 -0.000462
0.024446 0.035921 -0.003851
-0.055084 -0.012140 -0.042056
-0.010497 -0.055208 -0.042156
0.030218 0.037434 0.016116
0.041086 -0.029777 0.042201
0.012991 -0.038147 -0.000459
0.033883 0.001747 0.039318
0.006752 -0.036815 0.000902
0.024194 0.036500 0.002821
0.051967 0.011624 0.031926
0.002282 -0.056321 -0.041939
0.044416 0.031475 0.011237
0.016538 0.037463 0.003551
0.007023 0.037750 -0.001349
0.009466 0.037464 0.001114
0.030637 0.020292 0.039073
0.033490 0.033897 0.024672
-0.014994 -0.034230 0.009270
0.019695 0.035054 -0.008548
0.054396 0.008401 0.017595
0.025243 -0.021215 0.042355
0.031360 0.046945 -0.041533
0.047852 0.005138 0.042505
0.000046 0.036014 -0.003714
0.046116 0.019758 0.032865
0.027662 -0.036101 0.017339
0.048988 0.005367 0.032357
0.043897 0.001658 0.042264
-0.050947 0.024327 -0.042021
0.024340 -0.036585 0.005055
-0.050378 -0.025520 -0.042017
0.049073 0.005314 0.032278
0.045216 0.026741 0.017492
0.007064 -0.036015 -0.004151
0.048438 0.011351 0.039373
0.038866 -0.029799 0.042464
0.025316 0.021449 0.042355
0.025061 0.021080 0.021666
0.023097 -0.036185 0.005867
0.043124 0.023532 0.042286
0.031081 0.033262 0.042131
0.047308 0.019035 0.040287
0.030539 -0.037435 0.017184
0.045498 -0.024084 0.040022
-0.022459 -0.007268 0.016958
0.031481 -0.030218 0.039906
0.010446 0.036571 0.000498
0.018723 -0.037183 0.009943
0.044231 0.031637 0.017511
0.050723 0.005799 0.034120
0.023787 0.023951 0.017374
-0.043174 -0.036384 -0.040948
0.024155 -0.037800 0.002094
0.024723 0.035796 -0.006713
0.033687 -0.034392 0.015943
0.024723 0.035796 -0.006713
0.010929 -0.036995 -0.000195
0.028490 0.036884 0.016904
0.013847 -0.037633 0.005358
0.027648 0.016278 0.039201
0.009279 0.036721 0.003998
0.015002 0.036441 0.004562
0.051350 0.009124 0.040165
0.031630 -0.037301 0.017305
0.037614 0.033764 0.034479
0.041398 -0.028222 0.039988
0.014409 -0.037980 -0.000951
0.048044 0.008858 0.039152
0.052584 -0.000019 0.012080
0.003457 -0.036005 -0.007063
0.026306 -0.029095 0.017608
0.015684 0.035412 -0.006667
-0.007233 -0.037271 -0.006039
0.037505 -0.042287 -0.041288
0.002990 -0.035357 -0.008090
0.051208 0.007720 0.033459
-0.005293 -0.037568 -0.001694
0.002440 -0.035340 -0.008465
0.015088 0.034625 -0.007317
-0.001437 -0.036730 -0.007375
0.026160 0.027022 0.039906
0.044286 0.024243 0.040996
0.039252 -0.029723 0.042460
-0.037497 -0.012698 -0.000917
0.053031 0.004392 0.032039
0.010698 -0.036586 -0.000301
-0.047833 0.029969 -0.040987
-0.003668 -0.056362 -0.041629
0.052598 0.002522 0.042241
0.037632 -0.033794 0.034479
0.034022 -0.036861 0.016982
0.025024 -0.024621 0.039896
0.004604 -0.035946 -0.006446
0.047857 0.026722 0.010945
0.033725 0.000320 0.042359
-0.002748 -0.038407 0.003066
0.016268 0.037168 -0.005597
0.054374 -0.015305 -0.041342
0.014998 -0.054469 -0.040466
0.031661 0.037328 0.013407
0.047308 0.019035 0.040287
-0.011812 0.055181 -0.041891
0.025597 -0.036244 0.000155
0.037632 -0.033794 0.034479
0.038944 -0.002456 0.039968
0.016741 0.037522 -0.004782
0.030042 0.032255 0.039894
0.029863 -0.037445 0.016178
-0.054995 0.012114 -0.040554
0.021403 0.036604 -0.006014
0.049401 0.011246 0.031333
0.009566 0.037459 0.001973
0.021023 -0.031052 0.011569
0.039367 -0.031973 0.021665
0.040849 -0.031554 0.009733
0.024592 0.035996 0.003102
-0.022478 0.007327 0.016958
0.015775 0.036202 -0.005536
0.003335 -0.038079 -0.004599
0.025053 -0.021542 0.033605
0.024946 -0.021083 0.033606
0.027577 -0.002164 0.042122
0.029532 -0.000065 0.039890
0.023124 -0.022572 0.039885
0.013876 0.037271 -0.003059
0.037272 -0.033170 0.017029
0.029088 -0.031451 0.039886
0.029249 -0.037322 0.016406
0.024902 0.024836 0.017597
0.004554 -0.034847 -0.008161
0.048878 -0.016139 0.040050
0.012877 0.036333 -0.001785
0.027818 0.037597 0.013375
0.041988 -0.027791 0.042493
0.049399 0.012590 0.031008
0.010430 -0.037637 0.001134
0.049379 -0.027158 -0.039688
0.027841 -0.034868 0.032714
0.048085 0.026879 0.017543
0.022571 -0.022325 0.017364
0.008056 0.036666 -0.000999
0.030632 -0.033862 0.029655
0.033898 0.001788 0.039253
-0.032388 -0.024850 0.009126
0.006496 -0.036840 0.001716
0.034838 -0.001270 0.042022
0.005773 0.038133 0.005186
-0.039801 0.040041 -0.041929
0.031360 0.046945 -0.041533
0.053990 -0.011182 0.012102
0.036343 0.001164 0.039338
0.028436 0.036917 0.016856
0.038434 -0.029328 0.041973
0.018183 -0.038091 0.004574
-0.017953 -0.036052 0.011495
0.033307 0.034425 0.011920
0.029766 -0.034758 0.040293
-0.003975 0.038992 0.003087
0.053729 0.002978 0.040964
0.005785 0.038114 0.005197
-0.032992 -0.007393 0.007866
0.006576 -0.037172 -0.001464
0.040492 0.031094 0.041412
0.027832 -0.025213 0.039876
0.026186 -0.024061 0.042035
0.013266 0.036369 -0.002317
0.042422 0.023380 0.042446
0.015213 0.037586 0.002605
-0.038303 0.007326 0.007849
0.031075 -0.030477 0.042325
-0.034697 -0.016993 0.008633
-0.022478 -0.007364 0.016958
0.039141 -0.029531 0.042433
0.023013 -0.022692 0.029820
0.008598 0.038171 0.001283
-0.004899 0.038091 -0.000935
0.013684 -0.038205 0.004538
0.042564 0.022908 0.033872
-0.004342 -0.037676 -0.003928
0.054525 0.002983 0.028762
-0.002106 -0.036537 -0.008566
0.033487 -0.033935 0.024672
0.019654 0.037395 -0.005449
0.017065 0.053725 -0.040449
0.044135 0.025010 0.040998
0.051679 0.022507 -0.041530
0.013743 0.036504 0.002809
0.049499 0.004273 0.042370
0.040180 -0.030282 0.042195
-0.000511 0.036092 -0.004040
0.041845 0.025308 0.042492
0.036618 0.024043 0.042204
0.015990 -0.034527 -0.004580
0.051184 0.007815 0.033649
0.031842 -0.045450 -0.039344
0.023102 0.023318 0.017369
0.020553 0.037018 0.002751
0.018124 0.037462 -0.005334
-0.055457 -0.000651 -0.040068
0.015389 0.035429 -0.006494
-0.008696 0.037287 0.016092
-0.054641 0.012035 -0.040192
0.026719 -0.035831 -0.003221
0.049871 -0.015271 0.028033
0.025033 0.024582 0.039896
0.048685 0.016035 0.030719
0.024917 0.035706 -0.007468
-0.010384 -0.054509 -0.039694
-0.005064 -0.037795 -0.002417
0.042098 0.025692 0.033551
0.032625 -0.031837 0.039916
0.020939 -0.051959 -0.041934
0.049940 0.009500 0.030819
0.013245 0.036843 -0.001409
0.040122 0.022579 0.039086
0.004022 -0.037055 -0.005551
0.015411 -0.033832 -0.039480
0.029567 -0.032023 0.042390
0.023540 0.036352 0.003713
-0.052921 -0.019596 -0.042232
0.004577 -0.036967 0.004330
0.028200 -0.036699 0.017073
0.030797 0.046128 -0.039352
0.044577 0.024869 0.034171
-0.022933 -0.033309 0.015974
0.048382 0.005343 0.033103
0.044344 0.024984 0.040057
-0.023987 0.031492 -0.039807
0.051891 -0.009091 0.042261
-0.002176 -0.037711 0.004688
0.051907 0.005130 0.033027
0.042325 0.029235 0.027839
0.001141 -0.037007 -0.006607
0.000271 -0.037903 -0.006506
0.027590 -0.024366 0.017330
0.048467 0.028069 -0.041706
0.031360 0.046959 -0.040330
0.024710 -0.036643 -0.000642
-0.036159 0.015003 0.003094
0.001746 -0.037364 0.005344
0.007895 -0.034630 -0.006227
-0.032882 -0.007268 0.007621
-0.037069 0.014723 -0.000342
0.027841 0.037406 0.010569
-0.008640 0.037532 0.009322
0.000641 -0.037262 0.005558
0.027314 -0.024168 0.039872
0.031832 -0.033018 0.033871
0.028966 0.034948 0.037660
0.027533 -0.002246 0.042054
0.022679 0.022370 0.017455
0.011669 -0.037582 0.004742
-0.008688 0.037566 0.015107
0.023767 -0.037640 -0.000267
-0.022459 -0.007268 0.016958
0.001141 -0.037007 -0.006607
-0.005000 -0.038131 0.001097
0.000998 0.056429 -0.041785
-0.005932 0.037943 0.003484
-0.007316 0.037279 -0.003641
0.028095 0.005075 0.040128
0.004584 -0.038113 0.003085
0.019037 0.036290 0.006057
0.030638 0.037405 0.016235
-0.007441 -0.037543 0.009332
0.033307 0.034425 0.011920
0.022917 -0.051578 -0.041409
0.047117 0.022307 0.040129
0.018011 0.036752 -0.006316
0.030553 -0.037425 0.017655
0.009440 0.036677 0.004102
0.025680 0.009986 0.042056
-0.004744 -0.038387 -0.002324
0.043880 0.022523 0.042234
0.024880 0.037056 -0.000400
0.047574 -0.022749 0.042224
0.024250 0.036479 -0.003568
0.009143 0.037477 0.003610
0.028637 -0.027977 0.028691
0.042360 0.024395 0.032978
0.008157 0.037329 -0.000779
0.026265 0.026089 0.041138
0.003636 -0.037456 0.004601
0.029865 0.034067 0.024403
0.012900 0.036500 0.000397
-0.001637 -0.036924 -0.006572
0.042749 0.023183 0.033149
0.027658 0.005187 0.041883
0.044489 0.022616 0.031732
0.042533 0.023580 0.033147
0.025721 0.013971 0.041867
0.004092 -0.035196 -0.007658
0.048398 -0.021618 0.009795
0.029551 -0.000065 0.037640
0.027155 0.035267 0.017370
0.004402 0.034978 -0.004424
0.011669 -0.037582 0.004742
0.046064 -0.030076 0.012026
0.027179 -0.023326 0.042371
0.054643 -0.007729 0.012097
0.044270 0.024234 0.041071
-0.000462 -0.036100 -0.008742
0.030520 -0.037448 0.016541
0.034422 0.032298 0.033927
0.030861 0.037273 0.010634
0.015230 0.036567 0.004293
0.037485 -0.042274 -0.040279
0.006090 0.036228 -0.001893
0.052117 0.002329 0.042474
0.025251 0.021321 0.042355
-0.002777 -0.037062 -0.006116
0.038066 -0.031272 0.042180
0.044200 0.027213 0.042063
0.042026 0.024162 0.033823
0.042947 0.027880 0.034054
0.050710 0.006060 0.034102
0.005970 -0.037652 0.002011
0.029117 -0.037211 0.017188
-0.019326 -0.032670 0.009234
-0.004772 -0.038387 0.001032
0.027208 0.034939 0.017403
0.044687 0.024775 0.034083
0.032365 -0.034680 0.015550
0.030481 0.037422 0.016169
0.025611 0.025443 0.039901
0.027176 0.035733 -0.005670
0.026958 -0.049677 -0.041375
0.023939 0.035804 -0.006880
0.027217 0.008870 0.039044
0.021729 0.035882 -0.006317
0.041970 0.024947 0.033711
-0.004707 0.037198 -0.001685
0.024706 -0.036567 0.004910
0.043857 0.027501 0.030160
-0.004309 0.038808 0.003923
0.050652 0.005333 0.040109
0.027837 -0.037595 0.011099
0.044013 0.023009 0.042246
-0.002390 -0.038394 -0.004514
0.006090 0.036333 -0.001717
-0.034464 0.014583 0.011358
0.016343 0.035406 -0.006956
0.024194 0.036500 0.002821
0.043566 0.023235 0.042277
0.055265 -0.008933 -0.039280
0.039240 -0.029745 0.042458
0.027662 0.016272 0.039125
0.029439 0.032380 0.036799
0.050674 -0.012322 0.028033
0.004645 -0.038113 -0.004221
0.048625 0.008532 0.033814
-0.036611 0.016508 0.002045
-0.036613 -0.017074 0.008852
0.024731 0.024656 0.017472
0.046311 0.018459 0.039203
0.044246 -0.035025 -0.041232
-0.003668 -0.056362 -0.041629
0.025030 -0.000020 0.028665
0.014042 -0.038446 0.001103
0.004402 0.034978 -0.004424
0.006256 -0.037118 0.001613
0.029310 0.031869 0.039888
0.050403 0.006117 0.040129
0.049191 0.003270 0.034475
0.010735 -0.037624 0.000365
0.002677 -0.037167 0.005209
0.027630 -0.036233 0.017272
0.005834 0.038767 0.002849
0.038963 0.000030 0.041977
0.038771 -0.029030 0.041975
0.023585 -0.036882 0.005435
0.021227 0.037214 0.004869
0.050674 0.012285 0.028033
0.052406 -0.000019 0.021812
0.008726 0.037496 -0.000325
0.024082 0.021715 0.042018
0.042785 0.025185 0.042314
0.048496 0.004037 0.034557
0.028720 0.032832 0.042087
0.027947 -0.036298 0.017436
0.027276 0.008626 0.038980
0.025070 0.035960 0.002223
-0.004608 0.037812 0.004815
0.047215 0.027403 0.028824
0.014090 0.037528 -0.002959
0.049176 0.003246 0.040053
-0.019720 -0.035297 0.015016
-0.034675 0.014636 0.011357
0.025675 -0.026154 0.017603
-0.028430 -0.048460 -0.042305
0.006696 0.038081 0.005074
0.009843 0.036600 0.000642
0.019695 0.035054 -0.008548
-0.032942 -0.019013 -0.039881
-0.012460 -0.037344 0.015076
0.039712 -0.031566 -0.039278
-0.016817 -0.053923 -0.040730
0.047927 0.005360 0.037792
0.053558 0.001750 0.041412
0.022829 0.036425 -0.005194
0.027177 0.008858 0.038979
0.013608 -0.038084 -0.000823
0.021875 -0.037901 0.004605
0.026377 -0.026485 0.041139
0.022497 -0.035627 -0.003385
0.049860 -0.019754 0.041375
-0.005354 0.036521 -0.039652
0.020973 0.036829 -0.000132
0.024293 -0.037350 0.004699
0.015584 0.037573 -0.003854
0.047310 0.019044 0.041837
0.029112 0.021216 0.042387
0.055425 -0.002553 -0.039148
0.019689 -0.035193 -0.003551
0.051437 -0.011932 0.009821
0.044584 -0.023545 0.009764
-0.032483 -0.024909 0.011375
0.010377 -0.037268 0.002811
0.000656 -0.037595 0.005397
0.042430 0.023883 0.033107
0.002276 -0.056158 -0.042050
0.014391 -0.037990 0.004954
0.027848 0.036749 0.009794
0.019996 0.036379 0.005654
-0.002653 0.039139 0.001397
-0.055659 0.005727 -0.040200
0.027352 -0.033133 0.040029
0.051195 0.019075 0.028456
0.051385 -0.002722 0.040071
0.030547 0.002273 0.040148
0.009158 -0.034547 -0.005785
0.027598 0.005147 0.042129
0.048839 0.007074 0.042275
0.016893 0.036377 0.005654
0.053687 -0.005581 0.040216
0.025960 0.007298 0.042361
0.024644 0.023677 0.041125
0.021526 -0.037931 -0.000498
0.009638 -0.036673 0.002195
0.045236 0.025944 0.027987
0.050586 0.006262 0.034445
0.025845 0.027141 0.017391
0.001669 -0.037709 -0.002121
0.024573 0.024800 0.017348
0.012347 0.035766 -0.003841
0.042928 0.022292 0.038402
0.023571 -0.036691 0.005335
0.025560 0.011650 0.041859
0.045543 -0.028844 0.034478
0.047671 0.022247 0.032578
-0.038877 -0.040976 -0.041921
0.023838 0.023876 0.017465
0.043937 -0.028283 0.021724
0.006125 0.037418 -0.001556
0.012906 -0.038292 0.000287
-0.013177 0.032583 0.011285
0.025452 0.021917 0.017312
0.044577 0.024869 0.034171
0.018043 0.037462 0.004422
0.052874 0.005168 0.032073
0.009765 0.034273 -0.006167
-0.037708 -0.011994 0.002831
0.009170 0.037477 0.000330
0.054302 -0.000009 0.034536
0.055890 0.003815 -0.041644
-0.004913 0.038789 0.003312
0.030335 -0.034300 0.041374
-0.034569 0.044605 -0.041886
-0.039100 0.039320 -0.039932
0.030134 0.033765 0.029618
0.043561 0.002931 0.039256
0.011819 0.030005 0.011492
0.043992 -0.028422 0.017466
0.051585 0.009365 0.032989
0.022934 -0.022809 0.017580
-0.032389 0.024484 0.015896
0.005785 0.038114 0.005197
0.027751 -0.033072 0.041225
0.018719 0.037553 0.010730
0.055908 0.007624 -0.041135
0.001691 0.039024 0.000417
0.025361 0.035922 -0.001482
-0.016802 -0.053906 -0.041932
-0.034973 0.044307 -0.040880
0.032127 -0.045855 -0.039472
0.006013 0.038760 0.001469
0.034023 0.023472 0.041936
-0.002915 0.037284 0.005684
0.053045 0.004217 0.032418
0.041674 -0.037390 -0.039393
-0.033134 -0.007268 0.007869
0.025357 -0.021901 0.033607
0.029124 0.036510 0.026938
0.005228 -0.037995 -0.002122
0.049499 0.004273 0.042370
0.027911 -0.035592 0.027352
-0.024906 -0.032213 0.009188
0.048000 0.008870 0.039370
0.015990 -0.034527 -0.004580
-0.016719 -0.053648 -0.042208
-0.003423 -0.037284 0.004484
-0.032632 0.007482 0.007623
-0.004160 -0.056318 -0.041828
0.046363 0.005623 0.039138
0.050612 0.012118 0.029605
-0.017888 0.053010 -0.039887
-0.034591 -0.016515 0.001911
0.037017 0.031364 0.033960
0.026203 0.022197 0.042362
0.045543 -0.028844 0.034478
0.047286 0.004937 0.042046
0.029488 0.034231 0.041358
-0.001985 -0.037048 -0.006253
0.042470 0.021662 0.039247
-0.037264 -0.015156 0.011010
0.045815 0.027223 0.031923
0.001828 0.035581 -0.003862
0.036033 -0.036418 0.011943
-0.005293 0.037339 0.005071
0.001885 -0.037136 -0.006449
0.026298 -0.024217 0.042036
0.021086 0.037264 0.003966
0.044718 0.024513 0.034181
-0.006350 0.037825 0.001564
0.033935 -0.036634 0.022234
0.027950 0.036091 0.021698
0.037545 0.030203 0.042456
0.043035 0.023650 0.032534
0.023022 0.035581 -0.008090
-0.005905 0.037421 -0.000164
0.025680 0.009986 0.042056
0.007017 0.037377 0.005198
0.041549 -0.030546 0.041416
0.030646 0.020280 0.039149
0.014409 -0.037980 -0.000951
0.023499 -0.037828 0.003803
-0.003522 -0.038378 -0.002921
0.052946 0.003497 0.041604
0.027818 0.036898 0.013375
0.023084 0.004612 0.041112
0.024526 -0.024786 0.017348
0.040605 -0.031072 0.041413
0.048277 0.013862 0.039295
0.048683 0.024836 0.028448
0.048683 0.024836 0.028448
0.006936 -0.036770 0.000948
0.002028 -0.037827 -0.006360
0.012031 -0.037885 0.004597
0.043511 0.021855 0.038506
0.029515 -0.033052 0.029509
0.048829 0.014761 0.031875
0.005994 -0.038053 -0.001357
0.004022 -0.037055 -0.005551
0.050165 0.005969 0.041093
-0.033008 -0.007268 0.007837
0.024670 -0.037016 -0.000653
-0.004877 0.037898 -0.000887
0.050277 0.018664 0.031477
0.027598 0.005147 0.042129
0.048471 0.004067 0.034559
0.007610 -0.030244 -0.039545
0.004666 -0.038086 -0.003652
0.028908 0.018459 0.039058
0.025932 0.035782 -0.005963
0.049500 -0.027217 -0.041383
-0.003453 0.038524 0.004990
0.049056 -0.026982 -0.039332
0.015823 0.036415 0.005142
0.021526 -0.037931 -0.000498
-0.017940 0.035897 0.015030
0.027126 -0.035811 -0.003362
-0.034593 -0.016693 0.002898
0.051183 0.009157 0.041009
0.053727 0.003527 0.040225
0.001000 -0.035696 -0.008678
-0.016817 -0.053923 -0.040730
0.010929 -0.036995 -0.000195
0.022678 -0.036031 -0.001632
-0.032881 0.007232 0.007621
-0.022709 -0.007518 0.016956
0.048102 0.017367 0.030839
0.032424 -0.046269 -0.040321
0.038337 0.032091 0.041403
0.012739 -0.037358 -0.001346
0.036011 0.036351 0.013443
0.004402 -0.035946 -0.006586
0.022748 -0.008301 0.039877
0.045842 0.030108 0.012034
0.007520 0.038490 0.002598
0.025025 -0.021072 0.024976
-0.038224 0.007482 0.016827
0.022419 -0.008289 0.017363
0.043431 0.023279 0.042302
0.030896 -0.047240 -0.041343
0.022579 0.037293 -0.004618
0.038985 -0.030061 0.036917
-0.007310 0.037278 -0.003648
0.025560 0.011650 0.041859
-0.041232 0.038429 -0.040932
0.006705 -0.036590 -0.002419
0.010161 -0.037277 0.001978
0.051517 0.009632 0.021812
-0.001894 0.032015 0.011378
0.044690 -0.026031 0.034151
0.013986 -0.038212 0.004541
0.027801 -0.037603 0.015410
0.027736 -0.036076 0.017424
0.035955 -0.036321 0.017650
0.054229 0.006543 0.028448
0.024070 -0.037804 0.002735
-0.050817 0.024259 -0.040519
-0.034229 0.020911 0.012860
0.020317 0.035099 -0.008902
0.046528 0.024402 0.017530
-0.022518 -0.007499 0.005457
0.005980 -0.038053 0.000244
0.006638 -0.036933 -0.001446
0.052084 0.006509 0.017576
0.046557 0.023347 0.029580
0.007718 -0.036148 -0.003330
0.031590 -0.037323 0.016428
0.024722 -0.035803 -0.003441
0.013693 0.054480 -0.041955
-0.056279 -0.003136 -0.041057
0.044416 -0.031512 0.011237
0.027818 -0.036936 0.013375
0.019923 0.036875 -0.002114
0.019990 0.036713 0.005494
0.015886 0.035405 -0.006769
-0.023071 0.033511 0.014988
0.031075 -0.030477 0.042325
0.037305 -0.042057 -0.041759
-0.034591 -0.016515 0.001911
0.045607 0.029512 0.028389
0.055770 -0.009013 -0.040128
0.047913 0.005671 0.034608
0.045899 -0.030207 0.013525
0.045722 0.027543 0.035223
-0.036635 0.016957 0.008616
0.030547 0.002273 0.040148
-0.002907 -0.038305 0.003820
0.030400 -0.034746 0.040302
0.002677 -0.037167 0.005209
0.002234 -0.036705 -0.006608
-0.037151 -0.011788 0.016836
0.023013 -0.022692 0.029820
0.027217 0.008870 0.039044
-0.034636 0.012662 -0.000894
0.041845 0.025308 0.042492
0.036369 0.034809 0.009840
0.042242 0.023074 0.041978
0.027329 -0.034949 0.017617
0.039516 -0.034772 0.011220
-0.033135 0.007456 0.008025
-0.054993 0.012117 -0.042414
0.025070 0.035960 0.002223
0.027086 0.034960 0.017369
0.009711 0.036779 0.002174
-0.022459 0.007232 0.016958
0.024858 0.036455 0.001361
0.038815 -0.029441 0.042332
0.025075 -0.025062 0.017598
0.003825 0.035182 -0.004144
0.011755 -0.038108 0.003641
0.031163 -0.030445 0.042292
0.031835 0.032980 0.033872
0.028839 -0.036060 0.009633
-0.005183 0.032829 -0.039651
-0.036619 0.017019 0.008832
-0.033025 0.007357 0.007882
-0.054159 0.011929 -0.040057
0.007425 0.055950 -0.041731
0.013317 -0.034526 -0.004578
-0.017888 0.053010 -0.039887
0.036343 0.001164 0.039338
0.022892 -0.022082 0.039883
0.036545 0.033884 0.009697
0.032270 -0.046032 -0.041801
-0.035002 0.020873 0.015592
0.042362 0.032961 0.022289
0.026377 -0.026485 0.041139
0.003107 -0.035118 -0.008672
0.008279 0.038014 -0.000178
0.012906 -0.038292 0.000287
-0.018935 -0.033464 0.016987
0.048382 0.005343 0.033103
-0.004160 -0.056318 -0.041828
0.049057 0.013580 0.032004
0.009638 -0.036673 0.002195
0.023433 0.037164 -0.002698
-0.002152 -0.037070 -0.006178
0.024281 -0.036469 -0.001010
0.036742 0.035922 0.010999
0.048661 0.016845 0.042094
0.051949 0.003354 0.029688
0.044724 0.028157 0.041403
0.028917 0.034490 0.040246
0.000906 -0.036349 -0.007507
0.038821 -0.029223 0.042191
0.039067 0.032233 0.040302
-0.007226 -0.037271 -0.006014
0.046104 -0.032699 -0.041217
0.050350 -0.021764 0.010939
0.044654 0.021690 0.040265
0.050517 0.012484 0.029605
-0.033134 -0.007439 0.007949
0.022254 0.036946 -0.002078
0.030076 -0.032299 0.042395
0.030217 0.037442 0.016089
0.030221 0.037427 0.016171
0.039283 0.023962 0.042226
0.044572 0.020280 0.039265
-0.010429 -0.035005 0.009308
0.007784 0.038035 -0.000645
0.042960 0.027875 0.033089
0.042971 0.022908 0.033106
0.041231 0.000806 0.040237
0.013626 -0.037064 0.005507
0.021176 0.037325 0.004169
0.026119 -0.036773 0.002110
0.045185 0.026587 0.021768
0.014707 -0.038215 -0.000554
0.034965 0.036578 0.017454
0.051814 -0.000019 0.034248
0.046173 0.025784 0.009777
0.023513 -0.035742 -0.003343
0.045258 -0.032111 -0.039232
0.027911 -0.035592 0.027352
0.054229 0.006543 0.028448
-0.004249 -0.038098 0.002693
0.045985 0.019674 0.038526
0.007087 0.037568 -0.001393
-0.054352 -0.013316 -0.040189
0.042193 0.026430 0.042495
0.013342 0.037294 -0.001378
0.011954 0.035784 -0.003540
0.036740 -0.035955 0.011046
0.035437 -0.031023 0.042439
-0.006350 0.037825 0.001564
0.029696 -0.033863 0.021792
-0.037307 -0.013694 -0.000790
0.025061 0.021080 0.021666
0.014399 -0.037994 0.004948
0.043981 0.003206 0.039118
0.042057 -0.037727 -0.040241
0.036089 -0.034035 0.009693
0.028637 0.027940 0.028691
0.041940 0.033615 0.012002
0.050277 0.018664 0.031477
-0.022532 -0.007445 0.016958
0.043010 0.023755 0.032505
-0.003825 0.038819 -0.000471
-0.005589 -0.037195 -0.006263
0.038982 0.031824 0.024734
0.014310 0.037627 -0.001225
0.008341 0.036713 -0.000791
-0.047718 0.029895 -0.040493
0.014170 0.036185 -0.004210
0.027254 0.035567 0.017370
0.047878 0.005666 0.042226
0.018720 -0.037489 0.010398
-0.010428 0.034968 0.009308
0.047870 0.021704 0.017541
0.010159 -0.037150 0.002164
0.055278 0.010193 -0.041610
0.036602 0.024225 0.042383
0.003226 -0.036922 -0.006037
0.049776 -0.014425 0.034254
0.026059 0.023857 0.042034
0.026005 -0.036778 0.002967
0.019673 0.037019 -0.006346
0.041520 0.029476 0.042204
0.043852 -0.026134 0.040009
0.015072 -0.034444 -0.004782
-0.005445 0.056050 -0.040143
0.041270 0.030913 0.018601
0.036509 0.043067 -0.041490
0.025930 -0.036589 0.001278
0.044472 0.023507 0.041685
0.054490 0.003131 0.029112
0.004092 -0.035196 -0.007658
-0.018935 -0.033464 0.016987
-0.003240 -0.036744 -0.008539
-0.031815 0.024040 0.016618
0.006762 -0.036904 -0.000226
-0.009402 -0.033057 0.011316
0.046358 0.023210 0.033398
0.039326 -0.029422 0.042471
0.028809 0.018376 0.039275
0.025644 0.013983 0.042108
0.005149 -0.035017 -0.007213
0.046492 -0.022230 0.040031
0.014671 0.034579 -0.007168
-0.002263 -0.037378 0.004830
0.049350 0.011981 0.040304
0.036353 0.036163 0.017436
0.003772 -0.037011 0.004880
0.000156 -0.037617 0.005359
-0.043865 0.035049 -0.042433
0.015342 0.036902 0.004170
0.044252 0.025386 0.040999
0.044416 0.031475 0.011237
0.055180 -0.000019 0.012102
-0.003668 -0.036855 -0.008139
0.019411 0.035007 -0.008529
0.042954 0.032816 0.012010
-0.004075 -0.037065 -0.007112
0.050089 0.012380 0.030065
0.044777 0.027189 0.041581
0.051776 0.022550 -0.041364
0.050612 0.006012 0.034228
0.033614 -0.035755 0.009804
-0.002109 0.038669 -0.001085
0.049682 0.007068 0.009806
-0.001933 0.039107 0.000336
0.014566 0.036927 0.003396
-0.055951 -0.000657 -0.040203
0.022369 -0.037389 -0.001160
0.050473 0.006369 0.040157
0.006770 -0.036899 -0.000426
-0.021305 -0.052235 -0.040767
0.045173 0.027927 0.041055
0.022294 0.021366 0.017329
0.032340 -0.046155 -0.039829
0.024040 0.036825 0.002927
0.024202 -0.023361 0.041121
-0.001985 -0.037048 -0.006253
0.045636 0.025099 0.029597
0.045320 0.033684 -0.041417
0.028539 0.036871 0.016966
0.051278 0.019893 0.017570
0.040308 -0.034259 0.022310
-0.013383 -0.037229 0.013033
-0.022191 0.033961 0.009210
0.021664 0.035401 -0.008407
0.027705 0.033629 0.040108
0.043937 -0.028283 0.021724
0.029853 -0.037455 0.016149
0.053054 0.016216 -0.039168
0.051850 -0.021224 -0.041678
0.043038 0.026000 0.042316
-0.032389 0.024484 0.015896
0.030616 0.037251 0.020888
0.025331 0.021469 0.042355
0.036473 -0.035189 0.028414
-0.006200 0.038148 0.000985
0.032841 -0.037141 0.011433
0.029049 -0.035751 0.032869
-0.003090 -0.037745 0.004086
0.035372 -0.000666 0.042439
0.015411 -0.033832 -0.039480
0.022776 0.037150 -0.004868
0.044490 0.022615 0.031731
-0.022558 0.032650 0.016695
0.007345 0.055468 -0.039678
-0.002029 0.038908 0.004407
-0.006200 0.038148 0.000985
0.051679 0.022507 -0.041530
-0.022257 -0.034082 0.011460
-0.003744 0.037061 -0.002550
-0.054542 -0.013367 -0.042521
0.011574 -0.037407 0.004778
0.033209 0.045567 -0.040315
0.045624 0.027105 0.032315
-0.052483 -0.019435 -0.042543
0.027158 -0.035810 -0.003364
0.007418 0.055968 -0.040529
0.003636 -0.037456 0.004601
-0.031988 0.024158 0.009129
0.026717 0.023061 0.028675
0.031360 0.046959 -0.040330
0.031177 0.001211 0.042404
0.032722 0.021714 0.039025
0.043569 0.002918 0.039333
0.013751 0.054760 -0.040476
0.039307 0.024143 0.042406
0.051967 0.002300 0.030466
0.027436 -0.002446 0.042081
0.029417 -0.032343 0.037262
0.035701 0.030904 0.039941
0.030702 0.035785 0.009649
0.033761 -0.034132 -0.039328
-0.006893 -0.037248 -0.006329
0.033651 0.033635 0.041383
0.033757 0.036366 0.010193
-0.034597 -0.016400 0.001592
0.018719 0.036057 -0.006541
0.047577 0.026565 0.010448
0.046363 0.005623 0.039138
0.049599 0.014511 0.042281
0.048927 0.006216 0.042344
0.045890 -0.026151 0.009775
-0.006539 0.037367 0.003504
0.031299 -0.030230 0.042085
0.022845 0.036234 -0.005222
0.008280 0.036392 -0.001275
-0.021910 -0.033447 0.012963
0.017926 0.037467 0.004411
-0.044079 0.035218 -0.042159
0.045508 0.028645 0.035862
-0.032870 0.007357 0.007730
0.042749 0.023183 0.033149
0.041231 0.000806 0.040237
0.045178 0.028330 0.040275
0.036033 -0.036418 0.011943
0.038476 -0.030146 0.009713
0.034829 -0.001280 0.041941
-0.002701 -0.036935 -0.007214
0.009610 0.036946 0.002165
0.024773 -0.037528 0.003531
0.019174 0.036848 -0.000447
0.037608 0.022829 0.039284
0.054188 0.006522 0.028762
-0.054808 -0.013432 -0.042247
0.049988 -0.015819 0.021810
0.013986 0.036756 0.002665
0.004402 0.034978 -0.004424
0.048085 -0.026917 0.017543
0.006569 -0.037286 0.000342
0.000992 0.055964 -0.042099
0.052141 -0.000019 0.028026
0.010712 -0.037050 0.000108
0.022917 -0.051578 -0.041409
0.026074 -0.036017 0.003694
0.027951 0.036263 0.017433
0.022981 0.022655 0.028346
0.012513 -0.034375 -0.005001
0.051350 -0.021028 -0.039182
0.023113 0.035912 -0.005581
0.020803 0.035864 -0.006561
0.009228 0.036537 -0.000447
0.043431 0.023279 0.042302
0.048429 0.005912 0.042440
0.046077 -0.032679 -0.041411
0.050397 0.005921 0.040107
0.051006 0.005226 0.034323
0.006473 -0.037290 0.000821
0.025628 -0.026027 0.017603
0.034284 0.032045 0.009678
0.016213 0.036830 -0.005668
0.048215 0.026926 0.012044
0.025470 0.021886 0.021669
0.036582 0.024472 0.042449
0.029546 0.034694 0.040285
0.023081 -0.036293 0.005703
0.015230 0.036567 0.004293
0.023259 -0.022104 0.041116
0.055306 -0.008936 -0.041649
0.054243 -0.015272 -0.039648
0.013986 -0.038212 0.004541
-0.004271 0.039005 0.001858
-0.003218 0.038849 -0.000665
0.036346 0.001164 0.039055
-0.000496 -0.036045 -0.009074
0.027796 0.024266 0.042376
0.019571 0.037286 0.005233
0.048053 0.004954 0.034601
0.038512 0.032492 0.040301
0.049115 0.011981 0.038552
0.048467 0.028069 -0.041706
0.026941 0.013862 0.039119
-0.001289 -0.033964 0.009383
0.051967 0.011624 0.031926
0.042785 0.025185 0.042314
0.030517 -0.037455 0.016197
-0.000496 -0.036045 -0.009074
0.031302 0.046855 -0.041699
-0.022851 -0.051669 -0.041789
0.014409 -0.037980 -0.000951
0.041966 0.024789 0.033738
0.045768 0.027375 0.032035
0.052029 -0.021297 -0.041637
-0.016160 -0.036570 0.015045
-0.036943 -0.016399 0.012713
0.026772 0.011978 0.039259
0.025932 0.035782 -0.005963
-0.032389 0.024484 0.015896
0.010770 -0.034496 -0.005269
0.016343 0.035406 -0.006956
0.027061 0.035999 0.009619
0.048733 0.005951 0.042403
0.054211 0.003009 0.034537
0.031661 0.037328 0.013407
0.024111 -0.021797 0.042018
0.025296 0.025600 0.017387
-0.003628 0.038379 0.005091
0.005820 -0.037926 -0.003028
0.030878 -0.047225 -0.040334
-0.025525 -0.030576 0.016671
0.027642 -0.002306 0.039874
0.030520 -0.037448 0.016541
0.016313 -0.038423 0.000539
-0.028340 -0.048274 -0.039974
0.012576 -0.038129 -0.000266
-0.003675 -0.056345 -0.040621
0.023815 -0.036474 -0.001215
0.024541 -0.037551 0.000316
0.024231 0.036201 -0.003709
0.033032 0.033641 0.027735
0.022396 -0.038082 0.001172
0.014042 -0.037810 -0.001235
-0.029484 0.028249 0.014935
0.024057 0.021633 0.042018
0.042785 0.025185 0.042314
0.024931 0.021428 0.039852
0.052873 0.011823 0.030552
0.049401 0.007322 0.031703
-0.037723 -0.013119 0.016561
0.047896 0.022653 0.009791
0.017649 0.036106 -0.006365
0.052306 -0.003265 0.021812
0.025450 -0.021618 0.042356
0.010416 -0.037637 0.002827
0.047792 -0.020929 0.028031
0.006055 0.037164 0.005483
0.031625 0.002882 0.039016
-0.004988 0.037073 -0.003683
0.024000 0.023601 0.039888
-0.030432 -0.023317 0.011392
0.044507 0.021487 0.040264
0.049006 -0.019423 0.042236
0.044135 0.025010 0.040998
0.044738 0.027824 0.041654
0.029417 -0.032343 0.037262
0.044611 0.020325 0.039124
0.048526 0.019789 0.041727
0.025095 0.036781 -0.000398
0.028803 0.033994 0.041327
-0.006836 -0.037252 -0.006095
0.031593 0.022413 0.041916
0.013608 -0.038084 -0.000823
0.049031 0.004986 0.042366
0.056082 0.003829 -0.041604
0.051477 0.000099 0.040072
-0.022933 0.033273 0.015974
-0.019329 0.034335 0.016722
0.003944 -0.037781 0.000556
0.014439 0.037621 0.001144
0.023006 0.023396 0.017335
-0.004446 0.038569 -0.000747
0.022337 -0.037428 0.005334
-0.034362 -0.020330 0.016597
0.025640 -0.036437 0.000372
0.051163 -0.012589 0.042254
0.043844 -0.028036 -0.039244
-0.022233 0.033948 0.014995
0.019665 0.036680 -0.006427
0.038886 -0.029395 0.042321
0.021149 -0.035886 -0.001833
-0.002472 0.038437 -0.001366
0.051163 -0.012589 0.042254
0.041525 0.000541 0.042245
-0.038193 -0.040239 -0.039924
0.051427 0.002055 0.042572
0.012736 -0.037166 -0.001246
0.036357 -0.036198 0.017482
0.015303 0.034437 -0.007733
0.026718 0.035748 -0.005933
-0.005300 0.038779 0.002453
0.025048 -0.025083 0.017475
0.000656 -0.037693 -0.000601
0.039077 -0.029391 0.042396
0.039626 -0.035017 0.011973
0.023409 -0.037235 0.005315
-0.006397 0.037636 0.001564
0.024987 -0.021574 0.039852
0.023536 -0.035907 -0.002324
0.041899 0.028729 0.034018
0.050545 -0.014578 0.012063
0.044471 0.024376 0.040058
0.028966 0.034948 0.037660
-0.035963 -0.017117 0.012846
-0.033134 -0.007439 0.007949
-0.001515 -0.037218 0.005540
0.049157 0.011544 0.032484
0.045407 -0.022076 0.009771
0.051004 -0.020793 0.017567
0.043292 0.027924 0.031381
-0.001107 -0.038339 -0.005263
-0.054643 0.012040 -0.042561
0.047231 0.027422 0.028427
-0.037898 0.007287 -0.000921
-0.026161 -0.031404 0.011427
-0.004645 0.038789 0.000074
0.033487 -0.033935 0.024672
0.010392 -0.036709 0.004008
0.051485 -0.005854 0.034250
0.013656 -0.036409 -0.001493
0.041207 0.038652 -0.041257
-0.005562 -0.037111 -0.007372
0.036327 -0.000237 0.042381
0.045960 0.032729 -0.040209
0.018124 0.037462 -0.005334
0.036511 0.043080 -0.040287
-0.005064 -0.037795 -0.002417
-0.005431 0.056064 -0.042003
0.006013 0.038760 0.001469
0.029904 -0.034319 0.021827
-0.022709 0.007482 0.016956
-0.022933 -0.033309 0.015974
0.048142 0.022138 0.009793
-0.033359 -0.044332 -0.039884
0.023321 0.037234 -0.003206
0.012997 0.036299 -0.002125
0.036010 -0.036341 0.011758
0.047117 0.022307 0.040129
0.021110 -0.052390 -0.041618
-0.004805 0.038266 -0.000897
0.006922 0.036737 -0.001450
0.031678 0.037358 0.011907
0.048783 0.006426 0.042369
0.048772 0.018153 0.029594
0.044912 0.033393 -0.039366
0.016268 0.037168 -0.005597
0.048423 0.011351 0.039297
0.048647 0.017765 0.029873
0.005727 -0.037030 -0.003722
0.038936 -0.029331 0.042321
0.042498 0.021714 0.039106
0.046700 0.020617 0.030604
0.023615 -0.022776 0.041119
-0.016092 -0.036301 0.016031
0.038071 -0.041691 -0.040275
0.022748 -0.008301 0.039877
0.045903 0.027625 0.031732
0.023141 -0.023189 0.017581
-0.036774 -0.015916 0.000713
0.024446 0.035921 -0.003851
0.053068 0.012947 0.028455
-0.037264 -0.015156 0.011010
0.027642 -0.002306 0.039874
0.048009 0.005033 0.042543
0.051964 0.002570 0.042472
0.024837 0.035715 -0.007330
0.037619 -0.030209 0.042457
0.010370 -0.037114 0.000799
-0.036510 -0.017380 0.009079
0.004455 0.035074 -0.004255
0.023097 -0.036185 0.005867
0.009356 0.037647 0.002818
-0.036469 0.017456 0.009092
-0.056007 -0.007095 -0.041055
0.026779 0.011351 0.039194
0.022553 -0.037101 0.005516
0.050407 0.022520 0.012062
0.017960 0.036619 0.005478
-0.052819 -0.019558 -0.042396
0.042395 0.027442 0.042497
0.029417 -0.032343 0.037262
0.047003 0.006557 0.039361
0.022296 -0.008289 0.017329
0.029611 0.034253 0.041362
0.006605 -0.037083 0.000302
0.046004 -0.026901 0.041400
0.053886 0.003040 0.040219
0.017997 0.036396 -0.006315
0.039283 0.023962 0.042226
0.045530 0.004507 0.039414
0.035774 0.033472 0.040298
0.018166 0.036951 0.001073
0.000637 -0.037163 0.005719
0.031669 -0.037300 0.011327
0.039508 -0.034754 0.011169
0.013603 -0.036600 0.005822
0.030556 0.002304 0.041907
0.056156 -0.002586 -0.041603
-0.034781 0.044080 -0.042357
0.017015 0.035421 -0.007157
0.051208 0.007720 0.033459
0.055278 0.010193 -0.041610
0.029730 0.004547 0.039142
0.014042 -0.038446 0.001103
0.030547 0.021690 0.040148
0.039321 0.034307 0.010380
0.045603 0.028732 0.034478
0.039443 -0.034609 0.010732
-0.037309 -0.015088 0.012029
0.011571 -0.037907 -0.000150
0.050199 -0.022483 0.017561
0.009119 0.037092 0.000225
-0.002722 0.038164 -0.001555
0.035055 -0.002290 0.037686
0.023607 0.037245 0.002615
0.023045 0.023090 0.017458
0.054487 0.003172 0.029090
0.025708 -0.026602 0.017390
0.020686 0.035237 -0.008545
0.048241 0.006712 0.033363
0.006292 -0.037904 0.000294
0.038944 -0.002456 0.039968
0.030207 0.032247 0.039896
-0.038226 -0.007667 0.016827
0.043684 -0.028803 0.017463
0.027893 0.019035 0.040126
0.049613 0.011982 0.041856
0.001816 -0.037077 0.005796
0.026718 -0.023100 0.028675
0.000493 -0.037759 0.001218
0.038853 -0.029125 0.042222
-0.007440 0.037506 0.009332
0.038465 -0.029583 0.042392
0.024138 0.035862 -0.005908
0.021122 -0.052423 -0.041424
0.043142 -0.030909 0.034457
0.013328 0.037294 0.000386
0.030553 -0.037425 0.017655
0.021875 -0.037901 0.004605
0.046360 0.019505 0.032719
0.027721 -0.036184 0.017316
0.003560 -0.038026 -0.005507
0.045925 0.003310 0.042035
0.021517 0.036977 0.002132
0.000173 -0.037903 0.005298
0.043844 -0.028036 -0.039244
0.017879 -0.034917 -0.003729
0.004079 -0.037397 -0.005456
0.017322 0.036011 -0.006376
0.004069 -0.036750 -0.005633
0.049141 0.012773 0.032156
0.006861 -0.036801 0.000347
-0.055168 0.005676 -0.040065
0.006579 -0.037286 -0.001463
0.044133 0.022948 0.042237
-0.032844 0.007327 0.005372
-0.032882 -0.007268 0.007621
-0.034692 -0.017066 0.008867
0.015775 0.036202 -0.005536
0.049980 -0.012302 0.042560
-0.005431 0.056064 -0.042003
0.036347 -0.000056 0.042202
0.005149 -0.035017 -0.007213
0.035096 0.022579 0.039328
0.050109 0.011998 0.042352
0.023170 0.035909 -0.005606
0.023657 0.037245 -0.003435
0.048009 0.006982 0.038509
0.041970 0.024947 0.033711
0.041856 0.023272 0.042190
0.027302 0.034266 0.026659
-0.033136 -0.007518 0.008119
-0.021305 -0.052235 -0.040767
0.022678 -0.036031 -0.001632
0.006702 -0.036825 -0.001443
0.030825 -0.036946 0.010116
0.017926 0.037467 0.004411
0.049292 0.006876 0.042280
0.010161 -0.037277 0.001978
-0.002103 0.037534 0.009472
-0.037264 0.015119 0.011019
-0.004390 -0.037680 -0.003810
0.031634 -0.037298 0.017428
0.039484 -0.029912 0.039973
-0.002758 -0.038074 -0.001202
0.044734 0.024357 0.034266
-0.004415 0.038797 -0.000100
0.047629 0.005287 0.042238
0.055438 0.010223 -0.041498
0.046049 0.027319 0.031563
-0.038201 -0.009209 0.016803
0.001000 -0.035696 -0.008678
0.003026 -0.035212 -0.008320
0.025696 -0.036791 0.003747
0.027814 0.036105 0.017514
-0.004271 0.039005 0.001858
-0.000829 0.056374 -0.040597
0.049429 0.009520 0.042101
-0.034781 0.044080 -0.042357
0.015363 -0.034462 -0.004712
0.006262 -0.036581 -0.003323
0.022665 -0.036441 -0.001418
0.042362 0.032961 0.022289
-0.026931 0.049504 -0.040814
0.047671 0.022247 0.032578
0.051180 0.016341 0.031496
0.005779 -0.037926 0.001912
-0.023607 0.050176 -0.039803
-0.016674 -0.053441 -0.039877
0.025339 -0.021507 0.042355
0.019645 0.037422 -0.005799
0.049065 0.010578 0.032837
-0.004971 0.037825 0.004664
-0.035878 0.019072 0.015865
-0.009861 0.055521 -0.041681
-0.037536 -0.013082 0.003253
0.027833 -0.037603 0.015419
0.043010 0.027972 0.032997
0.006005 0.038760 0.002418
-0.034667 0.043910 -0.040026
-0.004249 -0.038098 0.002693
0.037505 -0.042287 -0.041288
0.043612 0.024502 0.041790
0.048119 0.005123 0.033824
0.024040 0.036825 0.002927
0.018049 0.037491 -0.005693
0.000636 -0.037130 0.005905
0.029847 0.032673 0.036864
0.025403 -0.021896 0.028664
-0.005414 0.055901 -0.042114
-0.008659 0.037628 0.011572
-0.055662 0.005729 -0.042569
0.048972 0.018719 0.021806
0.045411 0.027981 0.040299
0.014380 0.036599 -0.004077
0.029874 -0.032271 0.039893
-0.036613 -0.016528 0.001937
-0.002638 0.038331 -0.001494
-0.029504 0.028297 0.011399
0.025930 -0.036589 0.001278
0.044650 0.024472 0.034282
-0.000519 -0.037290 -0.006473
0.006067 0.037418 0.005444
0.050633 0.006131 0.034198
0.011184 -0.037605 -0.000275
0.043788 0.022367 0.042054
0.046588 -0.029093 0.011255
0.024231 0.036201 -0.003709
-0.028994 -0.027825 0.012904
0.038589 -0.029327 0.042105
0.051402 0.014301 0.040165
0.056350 0.003847 -0.041326
0.024723 0.035796 -0.006713
0.011122 -0.037925 0.003518
-0.014994 0.034193 0.009270
0.013673 -0.037310 0.005479
0.042042 0.024084 0.033831
0.048893 -0.017198 0.034253
0.009881 0.034350 -0.005803
0.051782 0.009877 0.009824
0.046085 0.028178 0.031038
0.034041 0.036808 0.017551
0.019988 0.036531 0.005542
0.048552 0.015535 0.038548
0.049095 -0.026993 -0.041701
0.006016 0.037762 0.005392
0.045514 -0.028275 0.009911
0.012933 0.036407 -0.001402
0.020668 -0.038126 0.003991
-0.006362 0.037396 0.003425
0.026723 -0.049238 -0.041886
0.050586 0.006262 0.034445
0.049776 -0.014425 0.034254
0.038091 -0.041704 -0.041283
0.025207 -0.033554 0.009603
0.022629 0.035915 -0.005905
0.043149 0.022741 0.033054
0.013482 0.035682 -0.004746
-0.004704 0.038788 0.000137
0.029807 -0.032257 0.042392
0.054463 0.007675 0.017596
0.037545 0.030203 0.042456
0.021011 -0.052139 -0.041895
0.045216 -0.026779 0.017492
-0.034361 0.043522 -0.039893
-0.036731 -0.042793 -0.041904
0.029884 -0.037438 0.016239
0.026245 -0.027547 0.039906
0.031596 -0.037302 0.017497
0.040753 -0.029540 0.033994
0.013988 -0.037810 0.005256
0.048215 -0.026963 0.012044
0.046528 0.024402 0.017530
-0.005354 -0.036558 -0.039652
0.025794 -0.026575 0.017481
0.015902 -0.034604 -0.004201
0.051777 0.014240 0.031394
0.027253 -0.035604 0.017370
0.050676 0.017727 0.031451
-0.003805 -0.037582 0.003487
0.051350 0.009124 0.040165
0.050082 -0.000650 0.009809
0.020686 0.035237 -0.008545
0.023921 0.037141 0.000383
0.006030 -0.037036 -0.003221
0.043159 0.023485 0.032504
0.049895 0.006616 0.041730
0.013603 -0.036600 0.005822
0.028774 0.032888 0.042090
0.045591 -0.025683 -0.039230
0.023173 0.023261 0.017459
0.033899 0.001788 0.039100
0.044224 -0.035014 -0.040223
0.021286 0.035701 -0.007186
0.008678 0.038163 0.002047
0.014348 0.036435 -0.004091
0.024729 -0.022621 0.042023
0.029439 0.032380 0.036799
0.029629 0.032082 0.042391
-0.004971 -0.038131 -0.002392
-0.022478 0.007327 0.016958
0.025516 -0.023287 0.042029
0.001894 -0.038142 -0.005246
-0.008659 -0.035069 0.011572
0.039233 -0.034053 0.028426
0.014170 0.036185 -0.004210
0.046268 0.002950 0.042529
0.025844 -0.027179 0.017391
0.023738 0.035649 -0.007841
0.042342 0.023217 0.042345
0.011609 -0.038098 0.000530
0.052924 0.004630 0.032073
0.042870 -0.033071 0.012000
0.012445 -0.038133 0.004201
0.051473 0.011999 0.041011
0.025573 -0.036436 0.000173
-0.001446 -0.038241 0.004681
0.025227 -0.008301 0.042354
0.036337 0.042860 -0.041768
0.047166 0.028084 0.022319
0.026161 -0.036251 0.001834
-0.046722 -0.030812 -0.040126
0.038755 -0.029158 0.041973
0.052311 -0.003287 0.017578
0.002389 -0.037677 -0.001179
-0.037612 -0.011984 -0.000918
0.055012 0.001702 0.017601
0.046085 0.028772 0.029601
0.009783 -0.034391 -0.005804
-0.037497 -0.012698 -0.000917
-0.015633 0.034609 0.017015
0.031670 0.037264 0.011276
-0.024899 0.029774 0.016938
-0.022709 -0.007518 0.016956
0.004311 0.034908 -0.004804
0.028231 0.026571 0.039879
0.042566 -0.029375 -0.039255
0.015272 -0.034540 -0.004334
0.034829 -0.001280 0.041941
0.019910 0.052821 -0.041628
0.025436 -0.021892 0.024981
0.025812 -0.035964 0.000012
0.046309 0.018459 0.039356
0.019673 0.037019 -0.006346
0.038869 0.001207 0.039141
0.029405 0.020898 0.042144
-0.033135 0.007448 0.007994
0.048215 0.026926 0.012044
0.055920 -0.002576 -0.039275
0.018707 0.035946 -0.006664
-0.029174 0.047156 -0.039850
0.043978 0.023759 0.041809
0.051313 0.022355 -0.039313
0.045646 0.021679 0.031114
-0.034605 0.016222 0.001283
0.052072 -0.007369 0.012076
0.007413 0.055844 -0.041897
-0.049487 -0.025061 -0.040018
0.050190 0.006101 0.041065
0.013863 -0.038454 0.002483
0.040862 0.030697 0.024733
0.051882 0.001804 0.032446
0.051467 0.010274 0.040165
